-956372 -2.4421e+06 1.81617e+07
331641 -3.56768e+06 1.74199e+07
3.80042e+06 1.36941e+06 1.36803e+07
3.79736e+06 1.29411e+06 1.35529e+07
929081 -3.66075e+06 1.75302e+07
6.1357e+06 713002 1.53227e+07
812904 -3.99067e+06 1.819e+07
7.35689e+06 375223 1.62638e+07
1.71718e+06 -4.14527e+06 1.83014e+07
2.9189e+06 -120444 1.37196e+07
-349.955 108.358 502.959
3.42587e+06 3.8701e+06 1.51197e+07
3.79889e+06 -201943 1.36021e+07
-370.212 18.81 639.052
3.55056e+06 2.09559e+06 1.39558e+07
7.69123e+06 -574127 1.58571e+07
3.80451e+06 2.02599e+06 1.42659e+07
4.25046e+06 -979879 1.44938e+07
3.49889e+06 1.85762e+06 1.39714e+07
2.08296e+06 -1.43657e+06 1.50116e+07
3.31752e+06 1.87677e+06 1.42007e+07
2.35568e+06 -1.58231e+06 1.52259e+07
-429.941 -94.3313 796.066
5.05582e+06 1.81903e+06 1.51368e+07
5.43889e+06 -2.20569e+06 1.67103e+07
-455.421 -96.0574 780.902
4.37177e+06 1.57539e+06 1.44224e+07
6.02776e+06 -2.38219e+06 1.75513e+07
4.16116e+06 1.51044e+06 1.40768e+07
-94356 -2.55995e+06 1.65385e+07
5.28098e+06 1.56976e+06 1.52086e+07
-90400.7 -2.6434e+06 1.65466e+07
3.28257e+06 -2.55867e+06 1.64434e+07
3.76435e+06 -2.72648e+06 1.68498e+07
4.71751e+06 -3.01012e+06 1.77891e+07
-531627 -3.28081e+06 1.71499e+07
1.55233e+06 -3.47033e+06 1.74437e+07
4.25582e+06 1.21596e+06 1.39778e+07
4.19714e+06 1.18957e+06 1.39617e+07
-83.4748 44.9491 -126.127
6.47898e+06 818572 1.57886e+07
4.58489e+06 363480 1.36347e+07
2.80923e+06 -307386 1.38277e+07
-83.4748 44.9491 -126.127
4.84462e+06 -1.22568e+06 1.48326e+07
2.03253e+06 -1.39601e+06 1.50081e+07
3.04867e+06 -320202 1.38377e+07
6.61776e+06 -1.26174e+06 1.52331e+07
4.52529e+06 -1.88348e+06 1.57968e+07
-83.4749 44.9491 -126.127
4.81e+06 -2.1103e+06 1.61496e+07
5.77114e+06 -2.23895e+06 1.6906e+07
3.84427e+06 -2.27271e+06 1.61875e+07
4.41742e+06 -2.35088e+06 1.64009e+07
5.15538e+06 -2.55651e+06 1.72486e+07
4.30876e+06 -2.62976e+06 1.70348e+07
6.82548e+06 -1.41801e+06 1.59189e+07
3.70667e+06 -2.68513e+06 1.67855e+07
3.85569e+06 -2.70226e+06 1.68287e+07
4.26728e+06 -2.8501e+06 1.72094e+07
-489056 -3.16963e+06 1.70688e+07
3.53086e+06 -3.20783e+06 1.75951e+07
1.81042e+06 -3.5323e+06 1.74577e+07
1.90824e+06 -3.57932e+06 1.76365e+07
-715.143 126.871 651.149
5.64598e+06 -2.1122e+06 1.64281e+07
261534 -3.71967e+06 1.75625e+07
5.03146e+06 -2.12106e+06 1.63039e+07
3.90737e+06 2.92729e+06 1.49438e+07
5.84966e+06 1.30346e+06 1.5506e+07
4.55832e+06 1.06312e+06 1.41773e+07
4.83443e+06 938357 1.4324e+07
5.25545e+06 -1.03397e+06 1.46915e+07
4.85607e+06 -1.18448e+06 1.48423e+07
-309.422 176.286 581.567
2.74057e+06 -3.707e+06 1.81179e+07
1.98965e+06 -1.36248e+06 1.49724e+07
-325.446 152.449 634.054
506432 -3.92284e+06 1.7874e+07
7.31314e+06 -1.19595e+06 1.58502e+07
-328.299 143.302 635.785
1.74116e+06 -3.95465e+06 1.82647e+07
6.65054e+06 -1.57114e+06 1.60228e+07
3.25184e+06 3.15197e+06 1.47081e+07
4.59242e+06 -1.82564e+06 1.57411e+07
3.50267e+06 2.45003e+06 1.42218e+07
3.34357e+06 -2.20839e+06 1.59478e+07
1.99106e+06 2.54654e+06 1.60813e+07
3.12725e+06 -2.24078e+06 1.60293e+07
5.7211e+06 2.62429e+06 1.63834e+07
5.38954e+06 -2.51241e+06 1.73135e+07
4.02041e+06 2.01957e+06 1.43769e+07
3.68849e+06 -2.52507e+06 1.65398e+07
6.51491e+06 2.45213e+06 1.69947e+07
3.90232e+06 -2.59577e+06 1.67432e+07
-451.39 -86.337 767.375
4.70932e+06 1.68094e+06 1.47826e+07
3.4192e+06 -3.19019e+06 1.74982e+07
4.85369e+06 1.68802e+06 1.49439e+07
1.42052e+06 -3.74994e+06 1.77702e+07
-376.326 19.7348 630.996
4.95493e+06 1.61879e+06 1.49633e+07
5.20435e+06 1.27065e+06 1.49246e+07
4.83845e+06 1.58497e+06 1.47705e+07
5.15329e+06 1.25958e+06 1.48854e+07
3.59194e+06 1.0582e+06 1.33113e+07
4.59511e+06 -1.66599e+06 1.54792e+07
6.56165e+06 1.53315e+06 1.62971e+07
6.53979e+06 -1.64799e+06 1.62787e+07
-415.791 -5.2677 662.563
5.18536e+06 1.18928e+06 1.48219e+07
2.42311e+06 -2.1287e+06 1.5865e+07
-472.189 1.17544 639.112
5.33543e+06 1.19352e+06 1.49398e+07
4.16163e+06 -2.42873e+06 1.65319e+07
-521.134 4.05264 642.735
5.81526e+06 1.24918e+06 1.54513e+07
5.38485e+06 -2.447e+06 1.71068e+07
-417.222 -86.6466 783.142
3.09539e+06 954190 1.45222e+07
4.3449e+06 -2.65364e+06 1.69283e+07
-421.525 -92.3443 796.117
7.09264e+06 1.34965e+06 1.67181e+07
3.56621e+06 -2.71454e+06 1.68305e+07
-423.29 -95.3532 799.378
2.94591e+06 886169 1.45627e+07
3.60583e+06 -2.78284e+06 1.68468e+07
-361.439 81.5337 720.48
3.5712e+06 776539 1.32616e+07
4.59817e+06 -3.0827e+06 1.78533e+07
5.50711e+06 928567 1.48822e+07
4.65749e+06 -3.15008e+06 1.80925e+07
6.4305e+06 1.01508e+06 1.58346e+07
3.03877e+06 -3.36029e+06 1.77121e+07
-83.4748 44.949 -126.127
-366.172 12.4211 681.604
-83.4748 44.9491 -126.127
-83.4749 44.9491 -126.127
-83.4748 44.9491 -126.127
-83.4748 44.949 -126.127
-83.4748 44.9491 -126.127
-83.4748 44.9491 -126.127
-83.4748 44.9491 -126.127
-83.4748 44.9491 -126.127
4.22213e+06 -2.36087e+06 1.64004e+07
-83.4748 44.9491 -126.127
2.35748e+06 -3.94218e+06 1.8353e+07
-83.4748 44.949 -126.127
-83.4748 44.9491 -126.127
2.93259e+06 -4.03795e+06 1.88244e+07
-83.4748 44.949 -126.127
-83.4748 44.949 -126.127
1.46888e+06 -4.03591e+06 1.81201e+07
-83.4749 44.949 -126.127
-83.4748 44.949 -126.127
4.48627e+06 3.18365e+06 1.56274e+07
-83.4748 44.949 -126.127
-83.4749 44.949 -126.127
5.1718e+06 2.95146e+06 1.61366e+07
-83.4748 44.949 -126.127
-83.4749 44.949 -126.127
4.31858e+06 1.74919e+06 1.45842e+07
-83.4748 44.949 -126.127
-83.4749 44.949 -126.127
5.4508e+06 1.78182e+06 1.54885e+07
-83.4749 44.949 -126.127
-83.4748 44.949 -126.127
5.69174e+06 1.58475e+06 1.55842e+07
-83.4748 44.949 -126.127
-83.4748 44.949 -126.127
5.02223e+06 1.25372e+06 1.47215e+07
-83.4748 44.949 -126.127
-83.4748 44.949 -126.127
-83.4748 44.949 -126.127
-83.4748 44.9491 -126.127
-83.4748 44.9491 -126.127
-83.4749 44.9491 -126.127
2.86279e+06 857711 1.46959e+07
-83.4748 44.9491 -126.127
-83.4749 44.949 -126.127
7.52328e+06 1.34424e+06 1.71728e+07
-83.4748 44.9491 -126.127
6.24019e+06 948039 1.56214e+07
-83.4748 44.9491 -126.127
5.89389e+06 -510872 1.41101e+07
-83.4748 44.949 -126.127
-521.534 250.706 520.264
6.31822e+06 -669803 1.44223e+07
-83.4748 44.949 -126.127
-419.048 77.3969 926.161
6.83306e+06 -1.52715e+06 1.61355e+07
-83.4748 44.949 -126.127
6.03757e+06 -1.90658e+06 1.63658e+07
-83.4748 44.949 -126.127
4.85666e+06 -2.06642e+06 1.60874e+07
-83.4748 44.949 -126.127
3.28754e+06 -2.20819e+06 1.60351e+07
-83.4748 44.949 -126.127
-422.085 15.3024 891.198
4.65665e+06 -2.30803e+06 1.64978e+07
-83.4748 44.949 -126.127
4.12725e+06 -2.43631e+06 1.64693e+07
-83.4749 44.949 -126.127
-83.4748 44.949 -126.127
-83.4748 44.9491 -126.127
-83.4748 44.949 -126.127
-380.444 26.9305 620.339
-83.4748 44.9491 -126.127
-446.254 -12.8128 658.795
-83.4748 44.9491 -126.127
-482.24 -53.081 714.465
-83.4748 44.949 -126.127
-358.627 -0.644259 709.789
-463.062 17.9489 629.587
-83.4748 44.949 -126.127
-362.024 56.3496 702.058
-83.4748 44.949 -126.127
-355.787 5.69386 702.651
-83.4748 44.949 -126.127
-488.798 -83.1754 765.444
-83.4748 44.949 -126.127
-418.749 -95.399 851.691
-83.4748 44.949 -126.127
-431.395 -43.296 716.624
-406.838 -107.84 851.615
-83.4748 44.949 -126.127
-345.169 79.418 555.461
-83.4748 44.949 -126.127
-83.4748 44.949 -126.127
-408.863 180.041 532.845
-83.4748 44.949 -126.127
-83.4748 44.949 -126.127
-537.492 272.344 537.785
-83.4748 44.949 -126.127
-83.4748 44.949 -126.127
-311.01 174.56 569.221
-83.4748 44.949 -126.127
-335.791 194.288 571.455
-306.615 157.362 559.757
-83.4748 44.949 -126.127
-338.24 213.622 583.9
-83.4749 44.949 -126.127
-455.285 -79.2164 762.8
-83.4748 44.949 -126.127
-391.371 -27.0759 703.248
-83.4748 44.9491 -126.127
-484.449 53.8378 570.655
-83.4748 44.9491 -126.127
-83.4748 44.9491 -126.127
-386.485 46.1663 597.937
-83.4748 44.9491 -126.127
-418.457 74.1424 540.738
-83.4749 44.9491 -126.127
-83.4748 44.9491 -126.127
-83.4748 44.9491 -126.127
-83.4748 44.9491 -126.127
4.4959e+06 -3.23984e+06 1.82569e+07
-83.4748 44.9491 -126.127
-83.4748 44.949 -126.127
3.39579e+06 -2.95358e+06 1.70515e+07
-83.4748 44.9491 -126.127
5.47273e+06 -2.01199e+06 1.61539e+07
-83.4749 44.9491 -126.127
3.2138e+06 -2.08229e+06 1.58823e+07
-83.4748 44.9491 -126.127
5.06335e+06 -1.90169e+06 1.5833e+07
-83.4749 44.9491 -126.127
-83.4748 44.9491 -126.127
-83.4748 44.9491 -126.127
-83.4748 44.9491 -126.127
-83.4748 44.9491 -126.127
-83.4748 44.9491 -126.127
4.94148e+06 -742836 1.42007e+07
-83.4748 44.949 -126.127
-83.4748 44.949 -126.127
3.43788e+06 -190044 1.36812e+07
-83.4748 44.949 -126.127
-476.573 -25.9558 680.708
-406.542 5.56432 648.749
-322.301 157.709 619.809
2.9661e+06 -143090 1.37181e+07
-83.4748 44.9491 -126.127
-482.413 -33.0424 690.003
-310.129 162.89 559.563
-83.4748 44.949 -126.127
556579 -4.7404e+06 2.29865e+07
-344.866 120.439 683.708
-445.488 24.5391 609.608
-368.884 20.8707 682.128
-83.4749 44.9491 -126.127
-83.4748 44.9491 -126.127
-373.612 3.2969 660.143
-83.4748 44.9491 -126.127
-83.4748 44.949 -126.127
-83.4748 44.9491 -126.127
-357.474 29.6524 690.282
3.4889e+06 -1.94017e+06 1.56176e+07
-355.202 100.693 709.305
-946269 -4.36539e+06 2.26879e+07
24027.5 -4.678e+06 2.3026e+07
407324 -1.266e+06 1.68457e+07
-409.395 -31.2167 823.799
-83.4748 44.949 -126.127
-83.4748 44.9491 -126.127
-83.4748 44.9491 -126.127
-403.172 16.5778 627.933
-83.4748 44.949 -126.127
-305.954 178.975 582.099
-325.844 187.549 577.32
3.72553e+06 -2.85995e+06 1.70412e+07
-392.803 -10.8242 669.852
4.92585e+06 2.23465e+06 1.53302e+07
-83.4749 44.949 -126.127
-83.4748 44.949 -126.127
-356.485 9.92801 692.226
-83.4748 44.9491 -126.127
-83.4749 44.949 -126.127
-316.121 148.601 608.567
-83.4748 44.949 -126.127
-83.4749 44.9491 -126.127
-83.4748 44.9491 -126.127
3.52046e+06 -3.85022e+06 1.87134e+07
-306.995 217.086 641.578
-83.4748 44.9491 -126.127
-493.179 218.849 527.306
564228 -3.46644e+06 1.7358e+07
-376.506 43.1366 756.467
-83.4748 44.9491 -126.127
-83.4748 44.9491 -126.127
-83.4748 44.9491 -126.127
-475.308 93.005 516.173
-83.4748 44.9491 -126.127
-83.4748 44.9491 -126.127
-654.65 112.377 657.157
-83.4748 44.949 -126.127
-83.4748 44.949 -126.127
2.89551e+06 -4.28461e+06 1.91298e+07
5.12867e+06 -1.81452e+06 1.58433e+07
-337.182 60.6128 589.239
-83.4748 44.949 -126.127
-83.4748 44.949 -126.127
-83.4748 44.949 -126.127
723076 -3.78959e+06 1.76574e+07
4.62802e+06 1.98807e+06 1.48764e+07
4.67008e+06 -2.67413e+06 1.716e+07
-83.4748 44.9491 -126.127
-475.859 45.9353 570.406
4.24994e+06 -2.06572e+06 1.60248e+07
-83.4748 44.949 -126.127
-403.716 -34.9755 703.304
3.3411e+06 -2.1521e+06 1.59149e+07
-83.4749 44.949 -126.127
4.42686e+06 2.35747e+06 1.50276e+07
-83.4748 44.949 -126.127
6.79766e+06 815723 1.61184e+07
-83.4748 44.9491 -126.127
5.5505e+06 793952 1.48678e+07
-83.4748 44.9491 -126.127
-83.4748 44.9491 -126.127
-548.228 241.564 509.937
-83.4748 44.949 -126.127
-519.049 -70.0096 742.082
4.23814e+06 -2.77834e+06 1.70335e+07
-83.4748 44.949 -126.127
-425.289 42.8831 582.913
-83.4749 44.949 -126.127
-83.4749 44.9491 -126.127
-83.4748 44.9491 -126.127
-83.4748 44.9491 -126.127
-83.4748 44.9491 -126.127
-392.537 -22.2288 693.011
-532.919 -27.4447 684.545
-83.4748 44.949 -126.127
4.66246e+06 -2.35325e+06 1.6584e+07
-83.4748 44.9491 -126.127
7.01674e+06 893485 1.62786e+07
4.32114e+06 -1.99699e+06 1.60125e+07
-83.4748 44.9491 -126.127
7.72661e+06 524172 1.67055e+07
-358.837 37.5355 672.727
-83.4748 44.9491 -126.127
-83.4748 44.949 -126.127
5.29622e+06 -330905 1.38544e+07
5.34616e+06 1.40244e+06 1.51755e+07
-83.4748 44.9491 -126.127
3.63266e+06 549687 1.30302e+07
7.21896e+06 402560 1.61613e+07
-83.4748 44.949 -126.127
2.39835e+06 -1.63084e+06 1.5236e+07
4.52984e+06 2.41769e+06 1.51753e+07
-450.678 -95.5236 832.396
-83.4748 44.9491 -126.127
-424.696 -37.9239 879.153
-310.399 166.335 568.365
3.22956e+06 1.69093e+06 1.40589e+07
-83.4748 44.949 -126.127
-354.92 19.1026 694.629
-83.4748 44.949 -126.127
-83.4748 44.9491 -126.127
-398.537 196.823 545.134
-313.771 174.105 594.757
-440.529 103.639 505.858
-357.378 87.6667 725.396
-358.671 51.2887 677.254
-83.4748 44.949 -126.127
-83.4748 44.949 -126.127
7.2699e+06 -1.16242e+06 1.5778e+07
-83.4748 44.949 -126.127
-383.113 -10.4852 731.24
-411.092 207.95 549.711
-307.092 157.568 559.944
-319.23 152.061 607.856
7.34841e+06 -1.37948e+06 1.64012e+07
-339.042 168.829 554.268
-357.742 80.3814 711.116
1.98587e+06 -922224 1.46826e+07
-83.4748 44.949 -126.127
-424.97 5.00926 892.926
6.10201e+06 1.24573e+06 1.58303e+07
-433.182 -87.8338 774.468
-309.521 178.072 589.044
5.87859e+06 698976 1.51085e+07
4.78179e+06 -2.28803e+06 1.65028e+07
-83.4748 44.9491 -126.127
-424.099 20.0725 619.991
2.97782e+06 -2.21641e+06 1.58355e+07
4.65762e+06 2.31562e+06 1.516e+07
-83.4748 44.9491 -126.127
-415.497 -6.07856 658.578
4.31591e+06 -2.25219e+06 1.6285e+07
-83.4748 44.9491 -126.127
-418.566 -76.8181 771.957
-440.155 -84.5428 771.88
3.19229e+06 -3.31612e+06 1.74164e+07
6.3518e+06 627441 1.55365e+07
-83.4748 44.949 -126.127
-465.096 45.2576 577.605
-446.327 -82.6696 768.205
-467.05 -88.6925 767.948
3.89063e+06 -3.46812e+06 1.82293e+07
3.4162e+06 -608600 1.40958e+07
-83.4748 44.949 -126.127
-331.272 136.464 639.417
3.3319e+06 -1.05142e+06 1.45951e+07
-83.4748 44.949 -126.127
-350.874 121.246 707.933
-329.534 128.456 630.42
2.37927e+06 -4.02021e+06 1.84396e+07
-83.4748 44.949 -126.127
2.26052e+06 380537 1.51048e+07
2.29283e+06 -3.52353e+06 1.77562e+07
-374.036 -17.4153 715.267
-386.986 29.0425 615.116
-405.476 -13.3322 673.722
1.7891e+06 -65223.7 1.56044e+07
-317.93 155.358 609.646
5.26112e+06 1.44962e+06 1.50852e+07
3.38639e+06 -1.07151e+06 1.45816e+07
-83.4748 44.949 -126.127
-347.578 132.836 704.273
-310.489 107.71 524.41
-360.617 75.153 723.595
-2.2504e+06 -3.28154e+06 2.28354e+07
-361.583 67.0346 705.953
5.5966e+06 -2.3755e+06 1.6846e+07
-83.4748 44.949 -126.127
-400.329 31.2777 606.101
-398.973 25.2982 612.053
5.44821e+06 -1.17529e+06 1.49496e+07
-383.052 2.71566 653.066
-318.919 92.6083 539.894
-438.368 -47.762 718.34
-83.4748 44.9491 -126.127
-83.4748 44.949 -126.127
-492.613 -51.8079 712.3
-83.4748 44.949 -126.127
-424.731 -97.9408 804.058
-83.4748 44.949 -126.127
-361.344 20.3189 642.691
-512.233 -71.8699 743.292
3.3068e+06 -262060 1.37731e+07
-83.4748 44.9491 -126.127
-83.4748 44.949 -126.127
3.00618e+06 -1.84125e+06 1.54969e+07
3.54705e+06 -2.50799e+06 1.64545e+07
-313.848 106.907 521.404
-358.057 29.4411 694.512
-398.297 -5.73757 666.76
7.33196e+06 644174 1.64811e+07
-83.4748 44.9491 -126.127
-487.543 35.6075 600.61
-357.94 70.3208 698.662
3.4433e+06 -2.39484e+06 1.62772e+07
4.57327e+06 1.598e+06 1.45968e+07
-441.991 88.6375 516.246
-541.53 324.052 585.81
-510.809 -25.2182 681.41
-83.4749 44.949 -126.127
-83.4748 44.949 -126.127
-440.808 24.1595 604.715
-477.556 -78.4244 761.196
-83.4748 44.9491 -126.127
-83.4748 44.9491 -126.127
4.00858e+06 1.83107e+06 1.42649e+07
5.23019e+06 -1.98189e+06 1.61582e+07
-83.4748 44.949 -126.127
4.25531e+06 1.79882e+06 1.44689e+07
-83.4748 44.949 -126.127
330426 -3.30174e+06 1.72571e+07
-83.4748 44.949 -126.127
-83.4749 44.949 -126.127
-374.799 182.615 548.874
3.6173e+06 1.16082e+06 1.33582e+07
-83.4748 44.9491 -126.127
4.48638e+06 1.15481e+06 1.41354e+07
3.6021e+06 957404 1.32466e+07
3.09196e+06 1.07503e+06 1.44746e+07
-83.4748 44.9491 -126.127
5.26171e+06 1.22059e+06 1.49454e+07
5.69671e+06 938450 1.50506e+07
-83.4748 44.949 -126.127
3.96359e+06 2.53331e+06 1.47177e+07
6.6206e+06 736251 1.58422e+07
6.55265e+06 663863 1.57306e+07
2.05134e+06 120641 1.53872e+07
2.17256e+06 -4.10759e+06 1.84327e+07
-83.4748 44.949 -126.127
-83.4748 44.949 -126.127
-83.4748 44.949 -126.127
-309.859 116.255 529.674
2.50566e+06 -1.52221e+06 1.5112e+07
-83.4748 44.949 -126.127
-366.043 81.2236 741.338
-345820 -1.90385e+06 1.75483e+07
2.90914e+06 -1.72495e+06 1.53632e+07
4.56398e+06 -1.71947e+06 1.5485e+07
5.70968e+06 1.07017e+06 1.52612e+07
-83.4748 44.9491 -126.127
-83.4749 44.949 -126.127
4.26569e+06 -3.27528e+06 1.80949e+07
-83.4748 44.9491 -126.127
4.25747e+06 -1.92237e+06 1.57511e+07
-83.4748 44.949 -126.127
3.90408e+06 -2.51982e+06 1.65916e+07
-83.4749 44.9491 -126.127
4.54373e+06 -2.88315e+06 1.74626e+07
6.73343e+06 1.12874e+06 1.61909e+07
-83.4748 44.949 -126.127
3.39053e+06 -2.88568e+06 1.69976e+07
-83.4748 44.949 -126.127
3.48131e+06 1.96529e+06 1.38654e+07
1.62902e+06 -3.96818e+06 1.81223e+07
4.82349e+06 -1.65653e+06 1.55668e+07
-83.4748 44.949 -126.127
-539.132 218.292 504.825
3.39796e+06 2.77214e+06 1.43368e+07
399186 -2.14809e+06 1.61124e+07
-83.4748 44.949 -126.127
3.70731e+06 -2.30919e+06 1.61911e+07
-83.4748 44.9491 -126.127
4.54875e+06 1.94585e+06 1.47657e+07
3.67986e+06 -2.73454e+06 1.68735e+07
-83.4748 44.949 -126.127
4.23345e+06 1.62556e+06 1.42899e+07
3.83082e+06 -2.76573e+06 1.69821e+07
-83.4748 44.949 -126.127
1.43182e+06 1.77688e+06 1.6425e+07
-83.4748 44.949 -126.127
3.47038e+06 -3.56188e+06 1.81598e+07
4.4893e+06 1.59534e+06 1.45453e+07
4.21619e+06 1.22002e+06 1.39239e+07
-83.4748 44.949 -126.127
5.54597e+06 1.72945e+06 1.55771e+07
6.14754e+06 566075 1.52852e+07
-83.4749 44.9491 -126.127
3.93267e+06 1.23514e+06 1.36418e+07
3.71163e+06 -120593 1.35492e+07
-83.4748 44.949 -126.127
5.01784e+06 1.44694e+06 1.48709e+07
-83.4748 44.949 -126.127
5.90439e+06 1.61002e+06 1.58451e+07
-83.4748 44.949 -126.127
7.55707e+06 985542 1.68814e+07
-83.4748 44.949 -126.127
-83.4749 44.949 -126.127
2.55228e+06 521750 1.48361e+07
-83.4749 44.949 -126.127
7.07687e+06 1.51189e+06 1.68631e+07
-479.745 -35.4047 694.887
-83.4748 44.9491 -126.127
-517.236 231.453 521.922
7.06252e+06 781469 1.6271e+07
-83.4748 44.9491 -126.127
-83.4748 44.949 -126.127
-83.4748 44.949 -126.127
-83.4748 44.9491 -126.127
-83.4748 44.949 -126.127
2.90411e+06 -169799 1.37826e+07
-83.4748 44.949 -126.127
5.08387e+06 -305481 1.37586e+07
-83.4749 44.9491 -126.127
-83.4748 44.949 -126.127
2.49689e+06 -450076 1.41662e+07
-83.4749 44.9491 -126.127
-83.4749 44.949 -126.127
6.42495e+06 -1.31529e+06 1.53923e+07
6.9875e+06 -1.32812e+06 1.59103e+07
-368749 -1.85382e+06 1.75849e+07
4.56952e+06 -1.77371e+06 1.55472e+07
4.09379e+06 -2.7572e+06 1.69657e+07
2.57012e+06 -3.29385e+06 1.73156e+07
3.62863e+06 -3.4394e+06 1.81204e+07
170159 -3.61367e+06 1.75324e+07
-528.69 -45.4105 709.26
-83.4748 44.949 -126.127
-537.82 53.2907 581.039
-83.4748 44.949 -126.127
-83.4748 44.949 -126.127
2.75303e+06 -4.14133e+06 1.88039e+07
-400.974 -46.0781 719.76
3.99248e+06 2.65418e+06 1.48075e+07
-576.596 -49.1703 716.232
-357.257 19.7355 697.44
-365.235 5.62689 693.051
5.14674e+06 1.29311e+06 1.48633e+07
7.37593e+06 1.65726e+06 1.71203e+07
3.12161e+06 1.0274e+06 1.44005e+07
6.11506e+06 1.17998e+06 1.56632e+07
-310.959 155.451 555.584
-383.734 84.8086 529.364
-366.243 15.4217 645.14
-388.16 50.1915 578.777
-370.676 48.8162 585.553
-478.776 261.494 560.56
-364.071 20.0262 691.643
-356.054 24.8736 700.138
-362.387 82.4799 748.944
-442.547 -55.5443 728.802
-410.13 -33.0643 704.102
-431.202 1.08952 646.831
-394.205 -20.9135 688.715
-404.604 14.6491 631.233
-601.888 105.409 610.025
-329.371 130.726 624.845
-335.217 155.89 675.281
-409.305 -8.40069 669.654
-408.761 14.2052 630.786
-404.802 16.6772 628.677
-380.514 50.7324 580.706
-397.578 65.768 549.915
-398.348 72.0421 537.118
-359.854 38.2573 668.317
-361.758 68.3597 722.27
-313.372 108.563 519.871
-511.513 -74.7752 741.324
-450.748 -29.2846 688.709
-401.334 -54.738 745.761
-420.523 34.7482 596.436
-330.533 133.077 639.742
-322.077 179.161 642.24
-376.993 3.37407 656.691
5.45044e+06 -2.35476e+06 1.69439e+07
7.42137e+06 300919 1.62572e+07
6.77864e+06 854722 1.61037e+07
2.92118e+06 -3.77081e+06 1.81136e+07
3.41222e+06 -2.26961e+06 1.61315e+07
7.59905e+06 33316.5 1.61237e+07
4.62269e+06 1.03324e+06 1.41547e+07
-33191 -3.81185e+06 1.77054e+07
842103 -3.71355e+06 1.77091e+07
2.92055e+06 -3.68266e+06 1.80818e+07
2.98682e+06 -2.35131e+06 1.61626e+07
3.0511e+06 4609.68 1.36057e+07
4.21033e+06 -2.74515e+06 1.70903e+07
5.68645e+06 1.23409e+06 1.54038e+07
5.32544e+06 1.61824e+06 1.52511e+07
430534 -3.59306e+06 1.74672e+07
2.5888e+06 -2.30178e+06 1.61005e+07
470140 -2.16933e+06 1.60667e+07
3.47821e+06 -1.86637e+06 1.5633e+07
3.88725e+06 404611 1.30222e+07
864996 -1.8486e+06 1.56993e+07
2.50559e+06 -613608 1.41924e+07
1.30392e+06 1.59925e+06 1.65361e+07
-959622 94711 1.87921e+07
3.09282e+06 240031 1.36294e+07
-83.4748 44.9491 -126.127
-83.4748 44.949 -126.127
-83.4748 44.949 -126.127
-83.4748 44.9491 -126.127
-83.4748 44.949 -126.127
-83.4749 44.9491 -126.127
-83.4749 44.949 -126.127
-477.598 6.51463 632.801
-502.885 11.4316 632.508
-529.789 25.6748 617.543
-503.879 23.7324 611.739
-466.137 16.4552 623.211
-466.597 22.5787 612.851
-473.065 26.0137 606.567
-501.73 39.7888 591.026
-493.048 39.7579 590.144
-535.581 53.5744 585.338
-436.668 54.0268 570.174
-410.578 72.1093 543.184
-467.304 98.6579 508.161
-472.682 101.23 511.137
-472.764 102.329 509.41
-458.546 103.003 497.248
-474.502 116.364 482.097
-549.914 158.302 462.233
-554.782 161.285 461.94
-486.694 -24.9257 683.648
-411.016 -36.6766 703.493
-476.163 -4.66392 647.608
-422.154 -15.05 674.215
-537.343 25.4488 617.257
-453.937 7.2896 634.308
-446.585 25.8862 610.679
-379.867 -1.01593 660.651
-405.788 17.2548 624.324
-415.084 25.0589 609.881
-405.026 29.5594 614.272
-463.802 65.0842 553.024
-443.2 57.9414 563.808
-447.085 90.6323 512.755
-390.507 68.6274 556.847
-477.733 105.542 503.471
-471.298 105.747 501.804
-480.577 111.481 495.86
-434.658 102.527 507.795
-472.229 118.868 483.309
-463.964 129.745 470.872
-349.316 12.3435 690.198
-359.638 52.4971 581.81
-351.421 18.1824 697.814
-407.406 -2.86706 822.339
-359.124 23.9759 694.518
-348.364 34.8609 713.192
-417.01 119.35 484.787
-363.441 66.4433 712.742
-350.541 87.9001 680.696
-356.827 95.0069 701.653
-541.012 213.676 496.438
-387.72 185.76 538.455
-341.314 147.823 687.435
-306.824 180.416 589.191
-442.776 -102.773 804.838
-492.659 -48.4211 714.508
-427.59 -86.9639 834.579
-452.128 5.84978 636.292
-467.706 13.021 626.569
-453.963 9.75668 631.33
-503.434 34.652 599.44
-375.377 -3.26233 702.056
-417.068 -20.8838 844.045
-365.708 52.6622 581.34
-407.277 -3.21641 640.102
-414.459 -10.2495 668.757
-456.524 32.4345 598.087
-374.637 -7.50223 685.703
-392.057 16.1308 630.262
-378.885 -5.55967 713.228
-363.629 19.4583 688.627
-399.044 73.2844 542.656
-359.397 40.9051 678.034
-358.131 53.4515 706.558
-417.777 -33.3121 704.735
-531.62 -36.8353 696.79
-555.632 -58.5687 730.66
-503.717 -80.3393 755.378
-397.343 207.193 555.888
-543.229 251.998 520.847
-346.469 112.873 683.574
-369.671 76.0099 761.629
-557.6 177.777 458.386
-336.355 70.1815 570.542
-359.83 37.1217 697.676
-372.049 79.2332 544.575
-408.625 46.1581 587.588
-395.537 38.8522 600.663
-417.918 -27.7352 838.656
-417.222 47.6778 579.543
-367.29 14.6583 634.114
-476.02 50.7381 573.103
-399.18 11.8179 640.392
-467.44 36.4072 593.548
-437.449 20.5897 623.292
-488.779 31.5691 600.397
-383.533 -22.0375 700.814
-384.55 -30.3082 708.464
-479.256 -1.0141 647.184
-437.491 -15.5663 667.505
-491.896 -23.8195 682.453
-489.283 -29.4828 688.835
-522.902 -45.3249 707.394
-508.79 -74.0676 746.313
-454.277 -109.967 823.62
-342.869 122.696 678.2
-328.11 72.7026 571.627
-345.707 64.0397 575.738
-360.833 22.127 688.631
-359.733 26.1874 668.6
-450.271 63.7727 560.07
-435.756 56.2464 561.206
-436.294 51.9981 572.588
-470.824 62.5062 558.054
-436.121 45.2823 579.244
-421.784 37.1638 593.546
-415.767 32.8615 600.029
-464.792 37.3743 588.206
-384.375 0.0374838 656.652
-480.706 39.4889 589.998
-514.696 45.5167 591.544
-537.654 49.4657 586.91
-458.964 13.1778 632.867
-415.423 -2.64072 653.33
-389.646 -25.7952 709.846
-398.974 -25.7431 693.748
-416.24 -29.8359 708.431
-396.355 -45.5589 733.532
-488.436 -6.85119 652.537
-487.136 -44.2864 711.461
-463.462 -54.7119 724.505
-468.736 -76.6902 759.161
-473.528 -80.0184 762.968
-571.941 -70.1818 750.278
-362.762 61.2367 711.807
-424.776 119.602 479.225
-485.005 67.0018 554.509
-357.127 87.659 524.209
-478.148 14.4459 624.25
-444.391 -98.9884 781.958
-397.125 32.4349 608.441
-408.663 15.003 626.693
-384.427 -5.92441 673.007
-523.424 85.5173 538.843
-409.688 -23.1838 688.479
-475.126 -21.7262 673.504
-485.276 -84.4697 760.257
-523.744 -78.1315 750.509
-541.856 338.591 604.242
-439.232 224.384 546.848
-349.479 91.944 528.604
-424.493 91.9821 520.38
-339.946 204.005 580.472
-470.537 245.28 549.879
-312.411 168.275 571.751
-377.391 68.8329 547.282
-343.421 220.072 584.386
-317.526 186.44 575.419
-446.818 207.387 537.753
-481.709 -9.51434 661.262
-467.646 201.084 525.883
-512.938 216.858 516.078
-381.078 78.3896 538.653
-524.251 117.373 502.743
-449.002 38.2996 591.308
-334.333 70.7638 567.76
-512.684 -73.8843 747.331
-307.117 111.557 528.817
-353.527 90.6102 524.316
-376.973 50.5114 582.564
-383.147 0.716121 658.011
-430.292 -17.409 672.762
-460.226 -102.447 796.665
-499.081 123.955 485.532
-357.083 55.0455 582.827
-417.404 72.4357 531.338
-408.681 14.3942 632.157
-399.197 -20.5574 687.78
-481.391 -6.02082 652.73
-332.528 107.77 511.103
1.62045e+06 -2.13352e+06 1.59263e+07
-671716 -868097 1.80345e+07
3.39162e+06 -2.32087e+06 1.64929e+07
6.32922e+06 3.16821e+06 1.76053e+07
7.13175e+06 193404 1.59551e+07
2.52675e+06 678432 1.46949e+07
46912.5 -1.44364e+06 1.69952e+07
3.94291e+06 -3.34743e+06 1.8044e+07
3.85744e+06 1.26963e+06 1.38388e+07
5.56559e+06 -210524 1.41474e+07
4.87367e+06 -1.77675e+06 1.555e+07
5.8354e+06 1.38074e+06 1.55456e+07
2.35392e+06 1.07829e+06 1.48951e+07
5.39773e+06 1.23728e+06 1.51132e+07
4.68032e+06 969691 1.41612e+07
-1.22945e+06 298877 1.91037e+07
356566 182737 1.71111e+07
3.52108e+06 -650226 1.41488e+07
4.17467e+06 -932925 1.43247e+07
7.59488e+06 -1.01922e+06 1.56546e+07
4.38781e+06 -1.68346e+06 1.54227e+07
-1.0314e+06 -2.19933e+06 1.81436e+07
4.01719e+06 1.27957e+06 1.39116e+07
3.54205e+06 786754 1.323e+07
3.46219e+06 504060 1.32873e+07
6.53169e+06 846787 1.58146e+07
-577679 442948 1.83063e+07
2.25538e+06 40680.1 1.47718e+07
5.93192e+06 -1.15783e+06 1.49757e+07
2.78732e+06 -2.33107e+06 1.61704e+07
5.77178e+06 -2.45595e+06 1.74535e+07
4.64495e+06 -2.8242e+06 1.7485e+07
1.54158e+06 -3.85657e+06 1.80372e+07
3.42374e+06 3.84206e+06 1.51344e+07
3.71296e+06 1.81321e+06 1.39236e+07
1.48099e+06 1.76305e+06 1.6327e+07
6.83026e+06 2.07321e+06 1.70744e+07
2.83046e+06 922991 1.45485e+07
2.36371e+06 174330 1.45279e+07
5.24187e+06 188481 1.40226e+07
3.17804e+06 58485.8 1.35493e+07
-713610 4154.93 1.84228e+07
4.41411e+06 -332158 1.37842e+07
3.864e+06 -759885 1.42172e+07
4.53531e+06 -797029 1.42641e+07
4.3761e+06 -824117 1.43112e+07
6.49766e+06 -1.0297e+06 1.51821e+07
5.06603e+06 -1.23076e+06 1.48492e+07
5.78893e+06 -1.49828e+06 1.54385e+07
-996736 -2.51302e+06 1.80894e+07
80916.8 -2.63094e+06 1.64142e+07
3.84068e+06 -3.01297e+06 1.72926e+07
2.20784e+06 -3.5707e+06 1.76557e+07
750853 -3.72604e+06 1.77065e+07
3.52321e+06 -4.06319e+06 1.94173e+07
1.08656e+06 -3.95348e+06 1.78736e+07
2.64552e+06 -4.07516e+06 1.8683e+07
3.04143e+06 3.76792e+06 1.52081e+07
3.83652e+06 2.96336e+06 1.49622e+07
4.90156e+06 2.81823e+06 1.58414e+07
3.4697e+06 2.26275e+06 1.40382e+07
6.79359e+06 2.63503e+06 1.73397e+07
3.43111e+06 1.23168e+06 1.40339e+07
7.13451e+06 1.65836e+06 1.69758e+07
6.28062e+06 1.11714e+06 1.58072e+07
3.69504e+06 639948 1.30448e+07
-83001.9 786720 1.79826e+07
2.30015e+06 317357 1.50849e+07
4.61495e+06 -73410.2 1.3455e+07
4.96463e+06 -243398 1.35924e+07
3.46956e+06 -300724 1.38163e+07
7.62561e+06 -65400.2 1.625e+07
5.45348e+06 -425289 1.39161e+07
509652 -1.21047e+06 1.67833e+07
5.56333e+06 -1.24065e+06 1.50483e+07
1.4754e+06 -1.4616e+06 1.53061e+07
4.44276e+06 -1.45671e+06 1.51173e+07
6.16932e+06 -1.88685e+06 1.65996e+07
-1.06421e+06 -2.40697e+06 1.82727e+07
2.71441e+06 -2.88829e+06 1.69801e+07
3.99768e+06 -2.89599e+06 1.71632e+07
2.75145e+06 -2.99905e+06 1.69344e+07
3.45932e+06 -3.04982e+06 1.7151e+07
2.38499e+06 -3.33981e+06 1.72843e+07
2.94967e+06 -3.56534e+06 1.788e+07
2.94392e+06 -3.73777e+06 1.81789e+07
1.91823e+06 -4.06586e+06 1.84027e+07
3.32977e+06 3.39394e+06 1.48155e+07
3.86464e+06 2.81869e+06 1.48295e+07
4.39096e+06 2.44005e+06 1.5007e+07
3.60887e+06 2.18589e+06 1.40618e+07
3.39124e+06 2.17142e+06 1.40626e+07
4.82815e+06 2.33643e+06 1.54712e+07
4.02746e+06 2.10813e+06 1.44266e+07
4.96168e+06 2.22436e+06 1.53662e+07
3.35384e+06 1.71565e+06 1.40528e+07
5.32004e+06 2.04213e+06 1.57561e+07
3.1391e+06 1.46274e+06 1.43032e+07
4.65051e+06 1.57921e+06 1.46249e+07
4.37241e+06 1.52252e+06 1.44965e+07
5.07593e+06 1.60471e+06 1.507e+07
5.4751e+06 1.60821e+06 1.52918e+07
3.22039e+06 1.19512e+06 1.4049e+07
7.33455e+06 1.77058e+06 1.72669e+07
4.08643e+06 1.07617e+06 1.37463e+07
6.42376e+06 1.28683e+06 1.60526e+07
7.63675e+06 964750 1.68276e+07
3.84078e+06 376791 1.31315e+07
3.27714e+06 12407.4 1.34449e+07
-1.29708e+06 -295679 1.90681e+07
4.8364e+06 -174686 1.35377e+07
-1.32393e+06 -498212 1.89808e+07
5.18435e+06 -332091 1.37005e+07
5.3223e+06 -376240 1.37916e+07
6.52159e+06 -809535 1.44665e+07
4.42033e+06 -1.1334e+06 1.46006e+07
5.08079e+06 -1.35881e+06 1.51349e+07
2.90407e+06 -1.64527e+06 1.52695e+07
4.57761e+06 -1.59131e+06 1.51846e+07
-815828 -2.33131e+06 1.78645e+07
4.09753e+06 -2.03291e+06 1.60026e+07
4.64279e+06 -2.36652e+06 1.64474e+07
2.82999e+06 -2.57302e+06 1.63799e+07
5.57787e+06 -2.65567e+06 1.77748e+07
4.41592e+06 -3.11706e+06 1.78284e+07
-315227 -3.22479e+06 1.70716e+07
-725646 -3.38809e+06 1.74604e+07
1.83225e+06 -3.92443e+06 1.8162e+07
1.36764e+06 -3.88574e+06 1.78503e+07
1.593e+06 -4.16345e+06 1.83197e+07
4.01167e+06 3.23555e+06 1.52172e+07
3.83431e+06 3.16063e+06 1.51048e+07
4.26321e+06 3.15036e+06 1.53907e+07
4.31966e+06 3.06727e+06 1.54817e+07
2.08504e+06 2.31552e+06 1.57214e+07
4.72405e+06 2.24833e+06 1.52461e+07
6.91228e+06 2.76186e+06 1.75766e+07
3.49863e+06 1.9247e+06 1.39878e+07
3.80533e+06 1.87817e+06 1.40294e+07
4.18449e+06 1.94134e+06 1.44454e+07
3.43031e+06 1.70654e+06 1.38763e+07
4.72687e+06 1.93881e+06 1.49851e+07
1.65755e+06 1.96116e+06 1.62252e+07
4.64837e+06 1.58801e+06 1.46216e+07
5.04094e+06 1.50397e+06 1.50006e+07
5.45671e+06 1.49502e+06 1.53169e+07
3.63684e+06 1.02194e+06 1.32621e+07
5.58367e+06 1.37759e+06 1.53698e+07
2.64788e+06 1.07581e+06 1.47255e+07
3.65992e+06 907557 1.32231e+07
3.90888e+06 879369 1.34781e+07
3.61242e+06 838775 1.31985e+07
3.66881e+06 774106 1.31326e+07
3.73491e+06 777784 1.31853e+07
3.63088e+06 706110 1.31052e+07
5.22531e+06 929619 1.46941e+07
5.44391e+06 888096 1.48509e+07
2.7735e+06 707694 1.46297e+07
2.66233e+06 696807 1.48287e+07
7.29372e+06 962953 1.65611e+07
3.46773e+06 400885 1.31892e+07
7.20628e+06 845580 1.64866e+07
6.84801e+06 786938 1.61072e+07
7.63026e+06 865383 1.68952e+07
7.28868e+06 805199 1.64807e+07
-318.344 173.109 620.27
-83.4748 44.9491 -126.127
6.18543e+06 655684 1.53586e+07
-380.259 -7.08197 676.036
-417.152 -24.4064 683.323
-83.4749 44.949 -126.127
-377.234 49.1051 765.16
-395.047 26.4415 616.546
3.66977e+06 -1.2366e+06 1.48439e+07
-353.394 122.128 718.365
-345.409 92.5865 524.593
-83.4749 44.949 -126.127
-434.263 82.9491 516.295
-461.094 -44.6172 710.782
-419.632 51.5759 571.409
-408.493 -11.2023 669.442
-358.667 26.107 628.275
-468.077 19.8261 617.118
-83.4749 44.949 -126.127
-350.698 124.493 708.911
-490.918 30.417 598.753
-83.4748 44.949 -126.127
-458.216 -7.01784 653.111
-83.4749 44.949 -126.127
-83.4748 44.9491 -126.127
645881 -3.67316e+06 1.76479e+07
-389.731 -8.98982 675.043
-83.4749 44.949 -126.127
-83.4749 44.949 -126.127
-512.047 -67.8467 744.16
-83.4748 44.949 -126.127
-418.526 33.6366 901.973
-83.4748 44.9491 -126.127
-381.354 28.9346 618.109
-375.799 31.5767 614.178
-319.06 183.846 577.028
-371.84 28.8662 627.354
-332.879 68.1039 572.584
-83.4748 44.949 -126.127
-365.681 56.0725 737.062
3.4686e+06 -646779 1.40995e+07
4.66264e+06 1.7602e+06 1.47337e+07
-83.4748 44.949 -126.127
-22070.7 -4.56713e+06 2.29861e+07
-335.263 151.191 539.528
-411.279 7.61215 642.471
4.87987e+06 -2.14502e+06 1.62577e+07
4.8955e+06 -1.23308e+06 1.47634e+07
-405.028 -62.2938 756.574
-83.4748 44.949 -126.127
-517.831 330.119 592.862
3.40292e+06 2.83606e+06 1.44177e+07
-83.4748 44.9491 -126.127
-446.215 90.6038 516.254
84577.4 -2.48496e+06 1.6447e+07
-428.953 -97.791 797.407
-418.712 -5.57175 878.578
5.91856e+06 -128787 1.44141e+07
-83.4748 44.949 -126.127
-392.084 -6.04318 671.594
-83.4748 44.9491 -126.127
-83.4748 44.949 -126.127
5.14065e+06 -1.08996e+06 1.46104e+07
-359.41 43.1353 686.229
-83.4748 44.949 -126.127
3.77522e+06 2.2404e+06 1.43275e+07
-348.62 34.5734 708.759
-391.805 97.8791 509.532
-356.222 5.66237 694.941
1.56508e+06 -3.95407e+06 1.81538e+07
-83.4748 44.9491 -126.127
-361.95 29.8694 687.873
276179 -3.67242e+06 1.76285e+07
-83.4748 44.9491 -126.127
2.98169e+06 -2.59918e+06 1.64502e+07
-83.4749 44.949 -126.127
-83.4749 44.9491 -126.127
7.58229e+06 640834 1.66641e+07
-83.4748 44.9491 -126.127
-83.4749 44.949 -126.127
-509.165 -34.1966 694.155
-83.4748 44.9491 -126.127
-83.4748 44.9491 -126.127
-83.4748 44.949 -126.127
5.24698e+06 -1.7889e+06 1.5841e+07
2.93059e+06 -4.08859e+06 1.87846e+07
-395.362 16.1453 792.499
2.4114e+06 -2.16304e+06 1.58214e+07
-409.271 -35.0797 704.065
-493.235 45.958 632.952
6.88126e+06 841149 1.61756e+07
100083 -3.3766e+06 1.72185e+07
-461.674 57.4603 562.558
-83.4748 44.949 -126.127
-330.905 78.2919 554.898
-83.4749 44.949 -126.127
-83.4748 44.9491 -126.127
5.72418e+06 877804 1.51151e+07
2.87671e+06 713458 1.46206e+07
-83.4748 44.9491 -126.127
-539.792 333.076 589.145
-83.4748 44.949 -126.127
-83.4748 44.949 -126.127
-83.4748 44.9491 -126.127
-83.4748 44.949 -126.127
198856 -1.45232e+06 1.70416e+07
-83.4748 44.9491 -126.127
-83.4748 44.9491 -126.127
36074.8 -3.72842e+06 1.77104e+07
-347.496 46.4754 600.362
-424.367 -19.1549 872.789
6.37396e+06 -1.3501e+06 1.54083e+07
-83.4748 44.949 -126.127
-83.4749 44.949 -126.127
-423.548 48.8543 955.774
7.00761e+06 990569 1.64092e+07
-83.4748 44.9491 -126.127
-399.663 39.392 594.579
-83.4748 44.949 -126.127
-83.4749 44.9491 -126.127
-83.4748 44.949 -126.127
4.63852e+06 -2.8894e+06 1.75038e+07
4.21205e+06 1.58142e+06 1.42719e+07
-442.907 -79.5218 767.599
-376.045 210.221 565.312
-409.781 -16.961 679.254
-83.4748 44.9491 -126.127
6.57929e+06 -1.42934e+06 1.58003e+07
-83.4748 44.949 -126.127
3.09939e+06 -1.71707e+06 1.53883e+07
-468.669 51.2691 571.48
-83.4749 44.949 -126.127
-83.4748 44.9491 -126.127
-470.838 -2.89401 644.872
-308.076 217.329 621.056
5.88756e+06 1.2371e+06 1.54923e+07
-83.4748 44.9491 -126.127
-445.905 104.061 502.476
2.11876e+06 -3.57918e+06 1.76466e+07
-471.97 222.918 539.914
-83.4748 44.9491 -126.127
-417.261 -11.4531 666.651
-484.737 -20.4699 675.219
-332.601 163.78 553.487
-471.591 -14.0167 668.796
-430.801 -34.4138 698.318
-83.4748 44.9491 -126.127
-83.4748 44.949 -126.127
-443.808 42.3182 585.011
-83.4748 44.949 -126.127
6.18664e+06 869336 1.55001e+07
-83.4749 44.9491 -126.127
-555.121 236.022 513.534
-83.4749 44.9491 -126.127
-394.541 -8.98203 673.082
-83.4748 44.949 -126.127
-360.821 78.5239 745.408
4.23401e+06 490659 1.33211e+07
-83.4749 44.9491 -126.127
-557.753 163.279 463.512
-345.132 114.794 672.493
-83.4749 44.9491 -126.127
3.56549e+06 -2.87079e+06 1.70121e+07
-83.4749 44.9491 -126.127
3.90957e+06 -2.32388e+06 1.62524e+07
-368.676 13.9382 679.146
-83.4749 44.949 -126.127
-83.4748 44.949 -126.127
-600.569 -30.7268 704.813
-83.4748 44.9491 -126.127
5.05791e+06 -2.8785e+06 1.76947e+07
-351.531 9.84296 693.98
7.26134e+06 1.49346e+06 1.7003e+07
-433.031 15.4224 633.904
-83.4749 44.9491 -126.127
-380.613 14.5272 640.402
2.37191e+06 -457566 1.42579e+07
-83.4749 44.9491 -126.127
-83.4748 44.9491 -126.127
7.18559e+06 1.16416e+06 1.66589e+07
-343.201 65.7544 572.276
4.86457e+06 1.96218e+06 1.5026e+07
-83.4749 44.949 -126.127
-83.4748 44.949 -126.127
-344.644 82.5213 542.832
-83.4748 44.9491 -126.127
-358.055 54.798 578.602
-414.036 -69.6169 765.597
-83.4748 44.949 -126.127
7.55488e+06 64997.4 1.61915e+07
554782 -2.52466e+06 1.62747e+07
-83.4748 44.949 -126.127
-83.4748 44.9491 -126.127
-83.4748 44.949 -126.127
5.86597e+06 -969648 1.46702e+07
-83.4748 44.949 -126.127
-83.4748 44.949 -126.127
-349.061 97.2747 683.646
-83.4748 44.949 -126.127
-374.964 -0.0321409 690.965
-371.113 70.2736 755.433
-83.4749 44.9491 -126.127
-420.575 4.52601 866.719
-359.148 25.8087 689.397
-83.4748 44.9491 -126.127
6.39593e+06 443102 1.5412e+07
-83.4749 44.949 -126.127
-392.093 69.2552 550.381
-83.4749 44.9491 -126.127
7.21051e+06 1.04477e+06 1.65392e+07
-83.4748 44.9491 -126.127
-83.4748 44.949 -126.127
-83.4748 44.9491 -126.127
-400.969 -59.0839 745.487
-412.312 -16.4775 676.786
-475.036 66.1142 555.308
5.46594e+06 1.59209e+06 1.53528e+07
-83.4748 44.949 -126.127
-363.911 24.3043 680.95
-418.528 2.75999 646.755
-446.827 8.16791 631.986
4.06284e+06 1.31305e+06 1.38917e+07
-434.545 56.958 567.262
5.01989e+06 1.5235e+06 1.49475e+07
-83.4748 44.949 -126.127
-382.537 8.00091 649.57
-83.4748 44.949 -126.127
-403.714 -17.6002 682.962
-83.4748 44.9491 -126.127
-424.363 24.6998 612.452
-462.493 63.4096 556.309
-83.4748 44.949 -126.127
-83.4748 44.949 -126.127
4.4973e+06 3.10526e+06 1.55088e+07
-83.4748 44.9491 -126.127
-317.227 107.768 518.171
-83.4748 44.949 -126.127
7.88496e+06 -27376 1.65364e+07
-83.4748 44.949 -126.127
-373.298 19.0956 635.984
3.11233e+06 -382454 1.38673e+07
3.31515e+06 2.99449e+06 1.44877e+07
-312.148 256.954 657.862
-83.4748 44.949 -126.127
-365.548 25.7433 621.587
-387.01 47.6107 585.325
-83.4748 44.949 -126.127
2.72756e+06 -416026 1.39655e+07
-417.061 -15.7723 675.7
-83.4748 44.9491 -126.127
4.70845e+06 1.84901e+06 1.48721e+07
-83.4748 44.949 -126.127
309880 -1.3473e+06 1.688e+07
-398.168 2.77118 650.678
-83.4749 44.949 -126.127
4.40239e+06 1.95825e+06 1.4684e+07
-83.4748 44.9491 -126.127
-83.4749 44.9491 -126.127
-386.517 69.9871 548.818
-83.4748 44.949 -126.127
6.03619e+06 -630171 1.42659e+07
-83.4748 44.949 -126.127
7.58918e+06 -957791 1.55667e+07
3.6798e+06 1.07451e+06 1.3323e+07
-425.039 -24.1915 874.744
-343.436 142.911 692.775
-83.4748 44.949 -126.127
-404.533 191.368 540.538
-83.4748 44.949 -126.127
-83.4749 44.9491 -126.127
-394.967 0.800882 657.447
-83.4749 44.949 -126.127
-83.4748 44.949 -126.127
-83.4748 44.949 -126.127
-83.4748 44.9491 -126.127
6.38374e+06 846899 1.56957e+07
-83.4748 44.9491 -126.127
6.24098e+06 575468 1.53583e+07
-83.4748 44.9491 -126.127
-83.4748 44.949 -126.127
-473.1 -78.0874 759.158
5.37679e+06 -2.12653e+06 1.63767e+07
4.79249e+06 1.89274e+06 1.50009e+07
-83.4748 44.9491 -126.127
-83.4749 44.949 -126.127
-83.4748 44.949 -126.127
-83.4748 44.949 -126.127
-83.4749 44.9491 -126.127
-83.4749 44.9491 -126.127
1.36224e+06 -1.46289e+06 1.52097e+07
7.55456e+06 -102714 1.60736e+07
2.85917e+06 -220583 1.38196e+07
-83.4748 44.9491 -126.127
-493.243 -10.9831 661.673
-83.4748 44.9491 -126.127
3.6532e+06 672014 1.30795e+07
2.82019e+06 760881 1.46249e+07
-83.4748 44.9491 -126.127
-83.4749 44.9491 -126.127
-470.351 101.78 504.221
-83.4748 44.949 -126.127
-424.233 5.71763 903.459
6.48407e+06 444159 1.54405e+07
-83.4748 44.9491 -126.127
7.35022e+06 538597 1.63953e+07
-83.4748 44.9491 -126.127
5.17746e+06 2.26593e+06 1.56042e+07
-83.4748 44.9491 -126.127
-83.4748 44.9491 -126.127
-83.4748 44.949 -126.127
-83.4749 44.9491 -126.127
3.67109e+06 115751 1.32549e+07
7.41966e+06 -1.31335e+06 1.61636e+07
-83.4748 44.9491 -126.127
6.9464e+06 277485 1.59112e+07
-83.4748 44.949 -126.127
7.53199e+06 -245341 1.59476e+07
-83.4748 44.949 -126.127
-83.4748 44.9491 -126.127
-83.4749 44.949 -126.127
-83.4748 44.949 -126.127
-83.4748 44.949 -126.127
-83.4749 44.949 -126.127
4.71848e+06 -1.25433e+06 1.48886e+07
-83.4748 44.949 -126.127
-83.4749 44.949 -126.127
-83.4748 44.949 -126.127
3.44771e+06 -596809 1.40313e+07
-83.4748 44.949 -126.127
-83.4748 44.949 -126.127
3.34389e+06 -695265 1.41793e+07
-83.4748 44.949 -126.127
-83.4748 44.949 -126.127
5.42296e+06 -629935 1.40981e+07
-343.284 107.554 674.09
5.8547e+06 -1.89364e+06 1.63378e+07
-83.4748 44.949 -126.127
-396.816 73.5401 540.385
7.07169e+06 -1.49577e+06 1.62121e+07
-83.4749 44.949 -126.127
7.03689e+06 -872614 1.50048e+07
-83.4749 44.949 -126.127
2.70482e+06 -2.36825e+06 1.61807e+07
-83.4749 44.949 -126.127
-421.546 -22.0133 867.46
-441.782 -77.8262 768.932
-323.889 81.5014 555.839
-83.4748 44.9491 -126.127
-352.712 47.4516 592.148
1.49353e+06 -4.01093e+06 1.83e+07
-83.4748 44.9491 -126.127
-83.4748 44.9491 -126.127
-83.4748 44.9491 -126.127
-339.695 89.5966 534.251
-83.4748 44.949 -126.127
-572.621 165.477 467.19
-504.928 -70.3017 726.226
-83.4749 44.9491 -126.127
-83.4748 44.949 -126.127
-353.978 28.9543 628.962
-385.929 11.6057 643.691
-546.346 230.426 509.626
-83.4748 44.949 -126.127
-392.225 13.9745 637.564
-433.455 81.5566 521.209
-83.4748 44.9491 -126.127
-552.053 221.002 498.238
-83.4748 44.949 -126.127
-416.851 15.358 626.58
-83.4748 44.949 -126.127
-83.4748 44.949 -126.127
5.02502e+06 1.38659e+06 1.48333e+07
-370.359 19.0216 676.613
-83.4748 44.9491 -126.127
-83.4748 44.949 -126.127
-412.887 0.244744 651.713
-561.674 304.322 563.392
-83.4748 44.949 -126.127
3.58816e+06 1.12267e+06 1.33331e+07
-357.01 81.6714 545.022
-83.4748 44.949 -126.127
-448.5 8.07753 637.17
-83.4749 44.949 -126.127
-83.4749 44.949 -126.127
6.05522e+06 1.53914e+06 1.59162e+07
4.48393e+06 -1.03781e+06 1.45694e+07
-83.4748 44.949 -126.127
-501.063 16.4024 622.785
3.63025e+06 -2.81106e+06 1.68754e+07
-421.503 28.3131 907.225
-83.4748 44.949 -126.127
3.63905e+06 1.69794e+06 1.39165e+07
3.49389e+06 -627821 1.41143e+07
-497.274 -71.8964 744.845
-83.4749 44.949 -126.127
-83.4749 44.949 -126.127
5.61448e+06 1.10505e+06 1.51886e+07
-83.4749 44.949 -126.127
-83.4748 44.949 -126.127
-470.192 103.503 501.677
-548.942 242.968 519.064
-402.975 213.297 558.447
-83.4749 44.949 -126.127
-83.4748 44.9491 -126.127
6.75238e+06 1.07396e+06 1.61513e+07
-83.4748 44.949 -126.127
5.19899e+06 -1.75077e+06 1.56975e+07
3.84564e+06 -882454 1.43406e+07
-83.4748 44.9491 -126.127
-83.4748 44.949 -126.127
-305.332 138.67 551.093
-83.4749 44.9491 -126.127
-83.4749 44.949 -126.127
3.61208e+06 -2.91281e+06 1.71056e+07
-83.4748 44.949 -126.127
-408.801 10.2129 635.334
-409.797 -2.80177 658.887
-362.298 68.6404 557.344
-83.4748 44.9491 -126.127
7.3347e+06 462609 1.63118e+07
3.25329e+06 -3.5331e+06 1.80115e+07
-83.4748 44.949 -126.127
-83.4748 44.949 -126.127
-462.919 -56.6966 725.692
-83.4748 44.949 -126.127
7.51698e+06 30594.5 1.61278e+07
-83.4749 44.9491 -126.127
5.00611e+06 -1.16853e+06 1.4899e+07
-83.4748 44.949 -126.127
-1.28507e+06 -7.21055e+06 4.1669e+07
-83.4748 44.9491 -126.127
-83.4749 44.9491 -126.127
-83.4748 44.9491 -126.127
-83.4748 44.949 -126.127
-83.4748 44.949 -126.127
2.78095e+06 -174816 1.38576e+07
-83.4748 44.949 -126.127
-83.4748 44.9491 -126.127
5.24501e+06 -2.02454e+06 1.60425e+07
-83.4748 44.9491 -126.127
2.97315e+06 -5.18466e+06 5.12045e+07
-360.047 83.5662 697.424
-83.4748 44.9491 -126.127
-339.148 68.3859 569.98
5.97726e+06 -1.93297e+06 1.65407e+07
-83.4749 44.9491 -126.127
-83.4748 44.9491 -126.127
-83.4748 44.949 -126.127
6.09401e+06 -1.27296e+06 1.53162e+07
-83.4748 44.9491 -126.127
-348.912 40.415 614.814
-404.928 10.8212 639.527
-332.209 217.916 704.237
-83.4748 44.949 -126.127
-367.961 28.77 620.122
-322.495 271.921 634.314
-83.4748 44.949 -126.127
-83.4748 44.9491 -126.127
-310.205 208.98 625.208
7.92653e+06 1.28392e+06 1.70645e+07
-650.754 108.231 662.595
1.69467e+06 -1.61571e+06 1.50364e+07
-483.505 -73.2371 751.463
4.23796e+06 2.73389e+06 1.50935e+07
3.78208e+06 3.77377e+06 1.53865e+07
-447.728 -82.6028 769.217
-519.016 0.807331 646.202
2.51727e+06 -3.49388e+06 1.76339e+07
-372.64 -5.08264 676.134
-425.804 -82.9765 780.41
6.94644e+06 957475 1.62723e+07
-381.975 31.9944 612.518
-83.4748 44.9491 -126.127
6.26256e+06 -707292 1.44119e+07
-443.028 -81.6478 772.531
2.39615e+06 -525697 1.42086e+07
-421.109 35.4131 586.548
-404.839 -10.2783 672.368
3.65204e+06 -474210 1.39131e+07
-393.711 202.913 545.428
-83.4748 44.949 -126.127
-83.4748 44.949 -126.127
5.16434e+06 -269669 1.35958e+07
-431.612 217.104 542.179
-83.4749 44.949 -126.127
-83.4748 44.949 -126.127
3.29473e+06 -378248 1.38342e+07
-366.11 86.9242 745.575
-358.909 80.3505 704.123
-360.417 76.511 699.677
-498.769 30.6065 598.791
-428.132 -47.2079 723.728
-311.286 186.898 579.793
-360.361 48.6206 697.495
-347.537 73.3911 557.04
-339.102 58.7478 583.86
-318.441 189.068 629.492
-317.475 166.078 614.585
-341.461 123.678 669.581
-370.014 66.285 754.156
-324.477 87.65 544.77
-357.919 40.3528 701.383
-355.263 30.7688 707.756
-354.371 8.79275 699.539
-380.971 -6.75651 714.466
-521.052 49.4365 580.265
-362.377 96.1552 733.547
-357.051 93.7054 708.1
-365.266 65.4391 738.063
-428.848 -94.672 828.643
-540.763 -64.0738 734.071
-410.23 -1.19483 841.55
-386.059 49.7025 588.545
-421.664 -18.2247 674.183
-402.58 -36.145 710.411
-481.528 -39.9014 697.762
-439.938 -75.827 762.059
-493.682 -49.9042 709.04
-358.354 93.2839 716.818
-381.755 71.84 551.104
-365.159 13.2623 687.303
-368.282 6.12241 662.641
-370.956 1.72549 669.24
-432.026 -3.75057 652.555
-447.03 -1.95316 648.208
-424.22 -22.7083 678.093
-444.006 -60.9829 734.606
-461.086 -76.5823 755.419
-472.555 -83.072 759.722
-328.919 109.359 510.532
-358.117 46.561 670.887
-440.769 26.8736 609.058
-399.875 -20.0965 682.862
-418.034 -83.0709 781.2
-477.814 -82.0881 759.191
-536.809 -70.4515 739.193
-355.119 87.8715 700.214
-311.276 108.795 522.246
-83.4749 44.949 -126.127
-384.387 36.6492 774.351
-346.055 62.2814 578.33
-394.327 83.0414 528.595
-377.044 8.25707 651.456
-416.114 2.77659 651.44
-447.389 0.567796 644.777
-422.096 -75.8316 836.646
-414.087 -34.6485 704.154
-417.49 -38.1495 714.672
-442.879 -33.6212 693.363
-476.064 -93.4462 772.646
-364.621 79.9827 755.734
-358.048 56.42 735.985
-385.656 68.2484 555.413
-390.446 65.0746 555.208
-453.259 65.8021 552.275
-435.881 57.055 563.912
-419.643 34.4504 591.786
-473.406 51.7598 570.09
-488.982 26.9712 607.491
-405.632 -60.8907 752.219
-460.536 -57.4194 726.875
-447.388 -59.7809 726.047
-456.116 -57.6027 718.775
-456.947 -83.399 766.603
-518.827 -62.7956 732.73
-420.82 -55.6843 842.403
-481.082 -22.903 680.619
-362.974 201.46 572.989
-419.025 215.141 551.42
-379.457 39.6313 602.597
-317.822 99.5793 525.045
-83.4748 44.9491 -126.127
-476.29 216.593 530.059
-337.255 132.356 667.681
-395.308 21.6856 622.936
-405.254 -34.4743 707.418
-308.221 137.073 545.952
-385.393 80.6765 535.82
-385.711 -18.2614 692.207
-493.107 -74.1125 752.008
-445.436 247.318 560.342
-474.595 237.338 546.357
-425.854 196.281 543.416
-332.93 68.549 572.314
-428.362 79.8366 529.389
-441.52 43.118 587.234
-397.407 -7.9805 668.292
-519.06 34.2738 597.416
-305.555 174.925 580.937
-420.662 11.4944 628.092
-421.132 -26.6017 688.185
-489.352 0.384639 644.403
-410.074 182.88 530.981
-83.4749 44.949 -126.127
-551.561 209.776 487.811
-345.59 105.997 506.688
-566.006 180.026 467.273
-432.734 57.2278 565.057
-497.597 128.552 473.541
-390.902 73.4832 543.584
-386.535 66.7401 553.931
-83.4749 44.949 -126.127
-406.144 -10.9915 665.62
-471.409 46.4555 580.053
-386.502 4.88265 653.296
-386.398 0.574906 654.154
-83.4748 44.9491 -126.127
-405.058 -23.4587 690.62
-83.4748 44.9491 -126.127
6.38905e+06 476108 1.53925e+07
-317.661 176.434 613.62
7.43125e+06 120852 1.61714e+07
3.43614e+06 2.05212e+06 1.39361e+07
-83.4748 44.9491 -126.127
2.44008e+06 -977662 1.45363e+07
-83.4749 44.949 -126.127
3.44711e+06 1.58273e+06 1.39092e+07
4.02365e+06 437911 1.33511e+07
3.61914e+06 354702 1.31294e+07
-83.4748 44.949 -126.127
3.23458e+06 -1.89574e+06 1.55906e+07
-83.4749 44.949 -126.127
597751 846628 1.70799e+07
4.22896e+06 -422594 1.38257e+07
3.22783e+06 1.85936e+06 1.41673e+07
7.6209e+06 1.20716e+06 1.70545e+07
6.19991e+06 -801122 1.45256e+07
-83.4748 44.949 -126.127
5.40455e+06 -908609 1.45277e+07
7.14729e+06 -1.18595e+06 1.57258e+07
-83.4749 44.949 -126.127
5.18813e+06 -1.74909e+06 1.58691e+07
-83.4748 44.9491 -126.127
2.78204e+06 -2.31163e+06 1.60439e+07
-83.4749 44.9491 -126.127
-163390 -2.81221e+06 1.66283e+07
-211835 -3.04468e+06 1.68707e+07
3.39775e+06 2.97601e+06 1.4501e+07
2.65115e+06 2.97911e+06 1.53423e+07
7.08988e+06 2.81484e+06 1.78478e+07
6.86856e+06 2.32517e+06 1.72764e+07
5.1516e+06 1.48349e+06 1.50629e+07
3.64583e+06 490528 1.30445e+07
7.51263e+06 241174 1.62635e+07
