0.590039 0.111438 1.40638
0.583079 0.0985467 1.42055
0.596213 0.124204 1.39132
0.671868 0.324897 1.19131
0.574751 0.120773 1.39484
0.65032 0.306609 1.20548
0.674786 0.379162 1.1367
0.253165 -0.108097 1.64008
0.397352 -0.0950531 1.6321
0.642682 0.289479 1.22066
0.407523 -0.0828585 1.61838
0.6077 0.212071 1.29771
0.0774993 -0.118708 1.64286
0.67546 0.42287 1.09633
0.601104 0.22079 1.29081
-0.380619 0.0267121 1.5352
0.310562 -0.0886377 1.62286
0.627572 0.275865 1.2269
0.594521 0.232191 1.26976
0.659156 0.403615 1.10033
0.556859 0.158651 1.3503
0.0592229 -0.100827 1.62746
0.453901 -0.0633329 1.59414
0.613114 0.290551 1.2092
0.597913 0.257568 1.24189
0.141815 -0.112485 1.64404
-0.0546992 -0.15181 1.62862
0.60043 0.26089 1.23597
0.275839 -0.145293 1.68687
0.00107006 -0.122947 1.62277
0.616328 0.308153 1.19196
0.0983024 0.2503 1.24781
0.369496 -0.140863 1.68375
0.665886 0.4629 1.04446
-0.268771 -0.0875637 1.62531
0.583391 0.0108346 1.39327
0.58558 0.00744727 1.38632
0.167553 -0.114389 1.56957
0.697036 0.256998 1.28567
0.216356 0.296869 1.19775
-0.123091 -0.248873 1.8106
0.572641 0.258018 1.23534
0.556562 0.233602 1.26512
2.47192 2.38541 0.213079
-0.249635 -0.0885471 1.34659
0.571851 0.265723 1.22832
0.602681 0.364247 1.12781
0.588267 0.325811 1.16479
0.642841 0.483673 1.01179
0.536235 0.224746 1.27458
0.253451 -0.173922 1.48413
0.605574 0.391175 1.09393
0.552187 0.112022 1.31331
0.593627 0.377274 1.10648
0.0639539 -0.223643 1.79824
0.629154 0.478655 1.00777
-0.304508 -0.225828 1.8234
-0.20821 -0.132757 1.68154
0.532443 0.248375 1.24168
-0.0886096 -0.297334 1.50305
-0.24516 -0.112545 1.6631
0.595665 0.38958 1.09008
0.0581843 -0.267853 1.46643
0.615329 0.493071 0.994522
-0.0947737 0.404106 1.05788
0.20709 -0.201978 1.76537
0.522757 0.299226 1.18508
-0.297675 -0.0459562 1.59291
0.598515 0.477434 1.00051
0.133336 -0.18121 1.73706
0.593819 0.464952 1.01104
0.0139878 -0.241342 1.4294
0.490501 0.256968 1.23236
0.588744 0.454688 1.02167
-0.431867 0.308605 1.24545
-0.0466099 -0.286029 1.48376
0.540378 0.145326 1.25609
0.293562 -0.190017 1.75247
0.526734 0.321307 1.15821
0.0823251 -0.228677 1.41483
-0.552165 2.12094 1.32965
0.523045 0.213921 1.22656
-0.361587 0.145759 1.38944
0.567156 0.495812 0.980483
-0.14333 -0.197559 1.37737
0.559567 -0.0795473 1.2701
0.416743 -0.181114 1.38015
0.546548 -0.110982 1.64583
0.52963 0.161809 1.20508
0.388985 -0.132344 1.31878
0.39404 -0.141202 1.32235
0.486738 0.348144 1.123
0.541565 0.113546 1.21468
0.469418 0.333618 1.13907
0.587175 0.12584 1.38149
0.0291612 -0.261532 1.45902
0.451492 0.342182 1.1264
0.60898 -0.161436 1.75535
-0.397461 0.147906 1.39594
-0.383678 0.241293 1.28521
0.483677 0.448934 1.01403
-0.129591 -0.137568 1.68298
-0.420689 0.266693 1.26858
0.40648 0.30769 1.16807
0.471224 0.454702 1.006
0.671209 0.0806592 1.45216
0.330989 -0.116661 1.29956
0.667936 -0.158274 1.80153
0.440815 0.414252 1.04196
0.380558 0.368457 1.09437
0.359712 0.331875 1.13537
0.6394 -0.146542 1.7287
0.363098 0.340889 1.1264
0.360734 -0.184487 1.74641
0.394584 0.399449 1.05423
-0.182664 -0.206365 1.7717
0.369318 0.384555 1.07295
0.359937 0.370501 1.0878
-0.190663 -0.200833 1.76628
0.393959 0.46783 0.993566
0.371473 -0.197011 1.8485
0.180632 -0.123321 1.55675
-0.138939 -0.214616 1.78184
0.350526 0.377074 1.07975
0.0698949 -0.241909 1.84509
-0.239181 0.203671 1.30892
0.518479 0.0399722 1.15034
-0.278432 -0.150028 1.71164
0.394905 -0.182203 1.39164
0.595859 -0.135956 1.70802
0.106624 -0.237243 1.83394
0.513785 0.0907057 1.10388
0.302802 0.397487 1.05549
-0.209549 -0.220269 1.4436
0.293564 0.392988 1.06161
-0.198826 -0.222021 1.80613
0.29016 0.396174 1.05608
0.677272 -0.12057 1.69706
0.283797 0.418801 1.03253
-0.199915 -0.156431 1.70673
0.272701 0.432239 1.02143
0.15247 -0.232775 1.82384
0.245006 0.366816 1.08758
-0.157132 -0.164155 1.7179
0.129781 -0.226608 1.80678
0.471239 0.0504931 1.12559
-0.168808 -0.212234 1.76086
0.247413 -0.0897534 1.63505
0.242372 0.38596 1.06348
-0.170356 -0.200413 1.75908
0.23431 0.379663 1.07089
0.312755 -0.167136 1.71733
0.47322 0.0825858 1.09452
0.307281 -0.167269 1.71745
0.185667 0.362841 1.09733
0.568092 -0.134893 1.69506
0.432289 0.0293847 1.14826
-0.173122 -0.19782 1.75681
-0.206272 -0.122656 1.66925
0.175283 0.361904 1.0934
-0.196832 -0.121764 1.66805
0.178454 0.368305 1.08617
0.663311 -0.113579 1.68546
0.381732 -0.0138428 1.19515
0.701131 -0.101901 1.6796
-0.0939737 -0.217886 1.78862
0.152495 0.382304 1.07036
0.724442 -0.0933387 1.67703
-0.297124 -0.0634344 1.61405
0.142313 0.453869 0.999672
0.452637 -0.143751 1.69688
0.256902 -0.214367 1.79666
0.0797424 0.363762 1.09313
0.55931 -0.131681 1.68829
-0.372447 -0.121097 1.74704
0.396855 -0.203618 1.80013
0.37695 0.362627 1.09894
0.41392 -0.184722 1.75498
0.195484 -0.156593 1.35501
0.1665 -0.190383 1.74414
0.10576 -0.242175 1.44996
-0.148007 -0.187007 1.73616
-0.334272 -0.1641 1.75221
0.5863 -0.115577 1.67268
0.616695 -0.11188 1.66925
0.333912 0.28785 1.21127
0.465727 -0.178806 1.74639
-0.228591 -0.234442 1.8243
0.0745481 -0.213523 1.41603
0.558336 -0.119273 1.67163
-0.179105 -0.181335 1.73303
-0.360819 0.00644133 1.54382
0.330354 -0.200831 1.77123
0.0424127 -0.204996 1.39946
-0.361676 0.0103433 1.53838
0.0492806 -0.182593 1.37602
0.689434 0.243256 1.29874
0.39235 -0.198315 1.76313
0.343588 -0.184092 1.73865
-0.178956 -0.224792 1.80059
0.686551 -0.0776814 1.6416
0.250683 0.421318 1.07068
0.559995 -0.0916873 1.63571
0.157171 -0.107249 1.63332
-0.276788 0.292246 1.21004
-0.031261 0.0922383 1.25905
-0.123715 0.398207 1.09862
0.499532 0.490648 1.02081
0.261326 0.429505 1.06751
-0.181581 -0.209194 1.77589
-0.329767 0.0586768 1.46995
0.503495 -0.000219752 1.18298
-0.347366 -0.124509 1.70724
-0.411588 0.232605 1.3054
0.523299 -0.146575 1.70105
-0.2583 -0.0278989 1.35991
0.519172 -0.157767 1.39016
0.391051 0.526708 0.993057
0.608363 -0.0246909 1.55494
-0.235095 -0.18261 1.74714
-0.31475 -0.0298199 1.57028
-0.196787 -0.18806 1.74741
0.277556 0.466313 1.03881
-0.0683396 -0.161459 1.60876
0.261512 0.375577 1.11495
0.284184 0.437232 1.05972
0.0457035 0.368876 1.11953
0.256102 0.433417 1.06309
0.209092 0.411292 1.08085
0.0900434 -0.242028 1.84045
0.102928 0.000620925 1.17563
0.719899 0.095557 1.43469
0.249434 -0.04803 1.21792
-0.297055 -0.0382096 1.57977
0.228215 0.427931 1.0658
0.397295 0.339849 1.16191
1.53238 3.19786 -0.241238
0.5627 -0.0901129 1.63861
0.125891 0.0407617 1.16185
-0.263129 0.0491226 1.29743
-0.261232 -0.0346471 1.56681
-0.104746 -0.298868 1.5031
0.232071 0.308394 1.18629
-0.101418 0.366325 1.1322
0.124446 -0.154122 1.69352
0.049224 0.310343 1.18627
-0.154228 -0.294795 1.48906
-0.229696 -0.101789 1.47171
-0.216333 -0.130592 1.68534
0.735701 0.106897 1.50865
-0.0896334 0.34148 1.15751
0.184873 -0.00896403 1.18206
0.636705 0.28782 1.22283
-0.404839 0.134957 1.41297
0.593434 0.211465 1.30481
-0.326748 -0.154093 1.74615
0.0234048 0.275136 1.22861
2.03799 2.50102 0.0444317
0.143054 -0.211556 1.77995
-0.0318947 0.132586 1.29426
-0.250073 -0.0943007 1.27396
-0.163358 -0.0574055 1.22649
-0.0807517 0.3556 1.13409
0.064508 -0.205299 1.77153
0.172683 -0.059112 1.22984
0.46796 -0.175339 1.36916
0.58963 0.0478237 1.44336
-0.178706 0.375287 1.11877
-0.303366 -0.136133 1.70167
0.19365 0.550844 1.00304
-0.231518 -0.228535 1.86415
0.114429 0.425123 1.07377
0.180089 0.368423 1.12639
-0.0447308 0.345397 1.15451
0.0734932 0.226446 1.27469
0.167238 -0.169696 1.35997
-0.35581 -0.170363 1.78804
0.373635 -0.188994 1.75854
-0.086857 -0.0634008 1.23359
0.170752 -0.169374 1.35655
0.301 0.423663 1.07277
-0.181052 -0.224062 1.41334
0.639401 0.327577 1.19531
-0.283589 0.0285164 1.50242
-0.428748 0.171771 1.39661
-0.348165 -0.171606 1.76198
0.369844 -0.148439 1.69261
-0.426957 0.157368 1.41249
-0.427302 0.148026 1.43771
-0.362638 0.143969 1.38882
-0.189203 0.306187 1.19066
-0.225328 -0.143787 1.32132
-0.194467 -0.138594 1.68272
-0.293636 0.0534293 1.47706
-0.0850608 0.277169 1.22056
-0.150705 -0.197691 1.37989
0.479403 -0.160894 1.71323
-0.413272 0.197561 1.34751
0.0597142 -0.114911 1.63913
0.100554 0.366414 1.12885
-0.170797 -0.286623 1.48806
-0.265867 -0.121049 1.67652
-0.413367 0.207026 1.33609
-0.354534 -0.0848596 1.65261
-0.153401 0.0760405 1.27756
0.13105 0.368148 1.12626
0.200723 -0.159554 1.35639
-0.176843 0.374965 1.12076
0.0265468 0.298195 1.19933
0.0734466 0.0694642 1.21096
0.470427 0.385531 1.11157
-0.199287 0.424411 1.07935
-0.355318 -0.0187228 1.58134
0.525065 0.262237 1.23912
0.384577 0.154851 1.17276
0.195778 -0.185331 1.38968
-0.0779412 -0.23483 1.31474
0.676002 0.0572497 1.46823
0.456803 0.170159 1.1641
-0.050377 -0.103349 1.27727
-0.374278 0.301261 1.21555
-0.413748 0.205775 1.33385
0.354339 0.280695 1.21526
-0.273045 -0.0527821 1.58529
-0.280248 0.268698 1.23721
-0.107899 -0.0112468 1.19492
-0.258169 0.301754 1.19585
-0.370337 -0.00227674 1.55821
-0.279287 0.239219 1.26748
-0.30594 0.342603 1.15682
-0.413452 0.0845651 1.49863
-0.274238 0.242499 1.26349
-0.257056 -0.0762335 1.2617
-0.311238 0.189306 1.32401
0.298582 3.0688 0.187016
-0.33721 -0.0224413 1.57564
-0.11315 0.423114 1.07992
-0.178926 0.304552 1.19751
-0.343247 -0.0161503 1.56682
-0.267708 0.187516 1.32505
-0.195572 0.367275 1.12609
-0.126363 0.326633 1.16953
0.187116 -0.170157 1.51272
-0.0136741 0.349952 1.14921
-0.134931 -0.136903 1.68239
0.311767 -0.164082 1.7361
-0.262602 0.14748 1.36638
-0.370525 -0.0332228 1.60412
-0.403934 0.259506 1.28283
0.0132126 -0.226002 1.42097
2.11177 2.88937 0.1614
0.113154 0.546515 1.00995
2.06519 2.5471 -0.339219
-0.28143 -0.0766309 1.6163
-0.308473 -0.0471984 1.59301
-0.327951 -0.100074 1.66647
-0.301793 -0.0623423 1.61314
-0.288954 -0.168131 1.74599
-0.258307 -0.0905175 1.63102
0.0608452 0.391025 1.1088
0.20639 0.231145 1.27146
0.74217 0.12034 1.50503
0.146324 0.487023 1.02538
0.453551 -0.178609 1.73797
-0.0945928 -0.209844 1.77364
-0.278883 -0.0616846 1.60051
-0.235012 0.0519999 1.28386
0.0910223 -0.239491 1.8435
-0.431084 0.181405 1.40462
0.610692 -0.0744272 1.63049
-0.341877 -0.111639 1.6854
-0.274713 -0.0625007 1.59934
0.19723 0.464381 1.03397
-0.105597 0.0744907 1.26428
-0.271223 -0.0721145 1.61066
-0.156025 -0.188217 1.75408
0.0624498 0.143867 1.27864
0.612825 0.232237 1.28498
-0.140577 -0.227116 1.8009
0.254733 0.199304 1.26401
0.69555 0.358983 1.23324
0.127703 -0.234758 1.84067
0.476775 0.434231 1.05968
0.454013 0.408979 1.07436
0.484401 -0.124321 1.66761
-0.221964 -0.0886562 1.62195
-0.0462992 -0.0422937 1.21315
-0.103056 0.390953 1.11019
0.157738 0.0413702 1.15362
0.21146 -0.190054 1.76907
-0.40889 0.217268 1.31714
-0.412018 0.211514 1.32079
-0.07946 -0.230829 1.806
0.320486 -0.00545831 1.18689
-0.384952 0.23221 1.28925
-0.364178 0.00701582 1.5453
-0.414868 0.154522 1.40174
-0.40543 0.161471 1.38373
-0.246386 -0.162159 1.71788
-0.304637 0.249895 1.26343
-0.243232 0.323775 1.17122
0.515545 -0.151949 1.33788
0.485519 -0.15159 1.42575
-0.355535 0.138794 1.3936
-0.186817 0.336096 1.15919
-0.121743 0.375109 1.11943
-0.353769 0.111759 1.4212
-0.232982 0.220853 1.28883
-0.135283 0.32302 1.17747
-0.113126 0.339533 1.15418
-0.363284 0.18643 1.33314
-0.00221412 0.46751 1.03723
-0.278024 0.106427 1.42217
-0.126956 0.254504 1.24948
-0.368844 0.11428 1.42206
-0.301812 0.097669 1.42329
0.145827 0.493365 1.01256
0.0155378 0.331671 1.1655
0.436371 -0.0532152 1.58586
0.537788 0.484074 0.989272
0.430781 -0.123858 1.30875
-0.145261 0.134838 1.33238
0.0925965 0.365597 1.12736
-0.303535 0.149323 1.37016
0.0354867 0.279898 1.22146
0.125551 0.342277 1.15783
0.182144 0.375673 1.12199
0.232022 0.416684 1.07522
-0.134197 -0.246598 1.84078
-0.245018 -0.0320829 1.21584
-0.0552906 0.102365 1.27352
-0.22828 -0.201914 1.76541
-0.181264 -0.000624912 1.2226
0.27087 0.378839 1.11139
0.227119 0.282617 1.21976
-0.153165 -0.0237653 1.20141
0.468604 -0.16153 1.72131
-0.296836 0.144757 1.37471
0.526518 -0.175584 1.74836
-0.119228 -0.23621 1.82219
0.210593 0.194369 1.27496
-0.347459 0.220182 1.30118
0.346514 0.284381 1.22054
0.584837 0.00840823 1.36607
0.382706 0.250549 1.2496
-0.344746 0.440084 1.0817
0.425563 0.272026 1.22589
0.269347 0.15711 1.22624
-0.284604 0.428893 1.08547
-0.128223 0.349338 1.14364
0.585066 0.345867 1.16175
0.578063 0.323135 1.18394
-0.286726 0.0406638 1.49235
0.198783 0.0374265 1.14237
0.242461 -0.0481545 1.21701
-0.209179 -0.0937843 1.60883
0.450923 -0.00864086 1.20732
0.348264 0.351805 1.14774
0.476987 -0.176918 1.74546
-0.360632 0.254471 1.26522
-0.413726 0.413093 1.11258
-0.366459 0.243765 1.27503
-0.357541 0.214397 1.30582
-0.358141 0.214542 1.29745
-0.285169 0.301132 1.20012
0.721377 0.149202 1.43894
0.362599 0.2988 1.19528
-0.415917 0.118137 1.44447
-0.365723 0.125845 1.41244
-0.298126 0.038694 1.4932
-0.391776 0.13819 1.40131
0.226842 -0.101099 1.63523
0.508503 0.3206 1.1644
0.53936 -0.142435 1.33353
-0.263716 0.307296 1.193
-0.0817908 -0.231823 1.43115
-0.239941 0.22908 1.27465
-0.190342 0.358887 1.13413
-0.263934 0.299257 1.20002
-0.237085 -0.108571 1.41514
-0.369787 0.155695 1.37125
-0.286284 0.261757 1.25031
-0.2247 0.338411 1.15911
0.570047 -0.172546 1.76794
-0.00762399 0.431364 1.06646
-0.201816 0.359932 1.13584
0.111226 -0.239136 1.81108
0.347145 0.265414 1.22553
-0.382428 0.120515 1.41556
-0.396486 0.0892659 1.46003
0.156159 0.421025 1.0733
-0.352906 0.391858 1.11945
-0.166207 0.376728 1.11737
-0.203596 0.304515 1.19779
0.644159 -0.0259826 1.57445
-0.20384 0.210862 1.29075
-0.189973 0.320236 1.17757
-0.167464 0.332395 1.16329
-0.210401 0.235657 1.26861
-0.00130763 0.355901 1.14232
-0.115657 0.394116 1.10456
0.524252 -0.0244763 1.52482
-0.309012 0.135482 1.39023
-0.315371 0.126104 1.39846
-0.302014 0.137458 1.38674
-0.344696 0.0815151 1.44305
-0.168064 0.304365 1.19724
0.532783 -0.13044 1.31924
-0.129572 0.347117 1.14723
-0.205359 0.24512 1.25546
0.00819854 0.504659 1.01077
-0.112138 0.356415 1.13978
-0.000318881 0.491646 1.01738
-0.221202 0.245571 1.25002
-0.196903 0.247553 1.25173
-0.301616 0.0992975 1.42202
0.672116 0.436818 1.07673
0.447285 -0.139857 1.68672
-0.232558 0.167507 1.34045
0.0246094 0.489936 1.01642
0.167076 -0.228428 1.82365
-0.287518 0.0878586 1.43785
-0.356643 -0.0166583 1.57398
-0.408622 0.216488 1.3174
0.0366339 -0.227996 1.78739
-0.15007 0.469451 1.03667
-0.30735 0.0257166 1.50702
0.206463 0.328573 1.16531
0.537188 -0.178116 1.82364
-0.180225 0.194221 1.30914
0.332949 0.270324 1.22447
-0.345817 0.150409 1.37351
0.499047 -0.0993778 1.29429
-0.394146 0.0300699 1.54241
-0.0423155 -0.137755 1.3574
-0.232005 0.472534 1.03466
-0.0109042 -0.265456 1.49479
-0.315166 -0.00338759 1.54508
-0.122972 0.212674 1.29055
-0.152862 0.173726 1.33089
-0.372929 0.180221 1.34792
-0.264723 0.271702 1.23187
-0.185267 -0.225862 1.79728
-0.362503 -0.144972 1.75169
0.149269 -0.249606 1.4493
-0.323303 -0.0900626 1.6494
-0.0886395 0.4156 1.0878
-0.0916704 0.212817 1.29188
-0.0196441 0.299634 1.20146
0.482066 -0.172238 1.40016
-0.35334 -0.163903 1.76307
-0.128813 0.387612 1.10731
0.134847 -0.235182 1.82911
0.317152 -0.207416 1.78808
0.0183814 0.295556 1.20721
0.431146 -0.202682 1.82257
-0.062874 0.189182 1.31909
0.0622058 0.340055 1.15406
0.211359 -1.42121 5.76933
0.0659751 0.341953 1.15153
0.634745 0.311151 1.16425
0.0905859 0.368847 1.12368
0.522518 -0.158947 1.35763
0.171971 0.416982 1.07214
-0.0580804 0.172735 1.33505
0.0104199 0.252112 1.24755
0.150822 0.207947 1.27912
0.0641102 0.271145 1.22769
0.281298 -0.213246 1.4213
0.128767 0.344849 1.1517
0.0870802 0.236305 1.2651
-0.373525 0.141319 1.39484
0.234033 0.419708 1.06818
0.121063 0.2764 1.22296
0.198521 0.359862 1.13824
0.209249 0.347224 1.1554
0.206496 0.325092 1.17389
0.152896 0.23501 1.26899
-0.606042 3.81549 -0.852677
0.539669 -0.0966049 1.63952
0.319647 0.411008 1.07761
0.319322 0.407015 1.08077
-0.159676 -0.0207344 1.2018
0.263961 0.318127 1.17256
-0.382245 0.11094 1.42455
0.378998 0.453294 1.03395
0.141845 0.285046 1.21344
0.0633298 0.117614 1.25402
0.09543 0.254228 1.24777
0.516346 -0.182514 1.76037
0.271227 0.288043 1.21256
-0.219426 -0.1915 1.38282
-0.314179 0.0679194 1.45593
0.108106 0.0125669 1.16606
0.458085 0.300663 1.199
0.306992 0.246849 1.25719
0.321323 0.256925 1.25143
0.329068 0.235516 1.2698
0.66841 0.0143571 1.53262
0.493885 0.418553 1.08025
-0.338121 0.237169 1.28145
0.503932 0.407718 1.09567
0.482612 0.365084 1.13745
0.546076 -0.09787 1.63955
0.664517 -0.0489588 1.61
0.480425 0.359101 1.14351
0.0115538 0.42898 1.06652
0.65307 0.239604 1.28275
0.460278 0.275896 1.23784
0.502593 -0.0718211 1.25837
-0.0719916 -0.142476 1.32447
0.581003 0.412469 1.09346
0.726395 0.107106 1.46498
0.569722 0.384169 1.12293
-0.368949 0.045302 1.49168
-0.0615801 -0.244685 1.83787
0.622134 -0.00627491 1.5461
1.38716 3.29231 -0.475541
0.502615 0.287874 1.21974
0.94175 3.83203 -0.887616
0.534034 0.306993 1.20013
0.55863 0.279768 1.22823
0.599909 0.307215 1.20956
0.102704 -0.114921 1.64531
-0.154562 -0.279618 1.83425
0.359406 -0.0280094 1.20496
-0.188877 -0.272074 1.83455
-0.366311 0.231667 1.2862
-0.388705 0.168917 1.36516
-0.361081 0.19795 1.32654
-0.334446 0.215228 1.30858
-0.234191 0.342763 1.15398
-0.349976 0.189889 1.3336
0.110162 -0.234894 1.82293
-0.357019 0.168136 1.3598
0.398898 0.0338586 1.1379
-0.271425 0.263751 1.24509
-0.304686 0.212505 1.30168
-0.289136 0.232448 1.27668
0.649542 -0.106082 1.67304
-0.182156 0.371968 1.11959
0.486021 -0.119546 1.45845
-0.383818 0.105366 1.4305
-0.249268 0.280111 1.22574
0.409381 0.0512911 1.12372
-0.281976 0.190586 1.32121
-1.07821 1.59964 1.7474
-0.367837 0.0645631 1.47172
-0.0216601 0.500842 1.01729
-0.292734 0.144523 1.3662
-0.116599 0.381567 1.11601
0.283951 -0.150667 1.69545
0.610122 -0.0266151 1.56503
-0.28771 0.138958 1.37586
0.00193976 0.488963 1.0175
0.306645 -0.199617 1.40333
-0.301867 0.379634 1.12152
0.558022 0.365679 1.14461
0.599615 0.419769 1.09922
-0.302388 0.092916 1.42886
0.0250295 0.504948 1.00835
-0.0898693 0.357481 1.139
-0.228593 0.179392 1.3266
-0.212129 0.199322 1.30347
0.359228 0.362827 1.09637
-0.255392 -0.183188 1.74931
0.135217 -0.202676 1.7544
-0.0339819 0.424056 1.07499
-0.258896 -0.165072 1.72981
-0.402003 0.329079 1.19255
0.597168 0.102425 1.41337
-0.0521549 0.401391 1.09614
-0.260271 -0.152985 1.71219
0.693783 0.191102 1.33663
-0.197664 0.215637 1.28551
0.324467 0.404899 1.0889
-0.383582 -0.0425189 1.63293
0.586318 0.117848 1.39222
-0.302485 0.0748172 1.45182
0.152804 -0.11901 1.65347
0.00877269 0.468859 1.03452
0.0701132 0.532376 1.00592
-0.324127 0.0291419 1.50579
0.13539 -0.190696 1.75083
-0.317626 0.0282654 1.50566
0.513696 0.0990549 1.10341
0.633457 0.0181269 1.52023
0.221592 -0.227322 1.44855
0.0401254 0.476145 1.03306
0.628975 -0.132837 1.70351
-0.143022 0.222616 1.27801
0.331599 0.389247 1.10355
-0.386436 0.0939427 1.43886
-0.213596 0.500474 1.0329
0.588528 -0.148894 1.7179
-0.31606 0.00906476 1.52654
0.369879 -0.204784 1.7928
-0.139379 0.237052 1.26422
-0.139231 0.230573 1.26973
-1.00067 1.59603 1.73984
-0.142951 0.224919 1.2727
0.41571 -0.18589 1.75909
0.0434395 0.446664 1.04903
-0.32611 -0.112713 1.67749
0.387337 -0.16628 1.71931
-0.184933 0.155833 1.34979
-0.0588236 0.278499 1.23152
-0.195544 0.123404 1.33679
-0.128386 0.191836 1.31037
-0.343575 -0.0989137 1.66533
-0.258805 0.0685068 1.31122
0.157441 -0.16551 1.35759
-0.096411 0.220775 1.28288
-0.313806 -0.0703344 1.62752
-0.232856 -0.198272 1.76863
-0.0977141 0.217456 1.28323
0.0107125 0.351104 1.14517
-0.272367 0.0376803 1.29454
0.372399 -0.185535 1.74824
0.164669 0.37544 1.0793
0.154392 -0.179034 1.72456
-0.191136 -0.122178 1.66697
0.0620477 0.389794 1.10888
-0.0844094 0.199911 1.30476
0.15573 0.487313 1.02651
-0.345247 -0.169574 1.75962
-0.0191266 0.269066 1.23232
-0.0255052 -0.0516357 1.21659
0.020254 0.315633 1.17944
-0.0673032 0.190605 1.31505
0.72627 -0.0798959 1.66342
-0.283432 -0.044538 1.58949
-0.0753555 0.173232 1.3327
-0.106106 0.280846 1.21526
0.120508 0.417583 1.08226
-0.0258317 0.226188 1.27689
0.00907851 0.256607 1.24416
0.182736 0.106476 1.20117
-0.00151065 -0.215744 1.40433
-0.0362423 0.189743 1.31613
0.0422088 0.279618 1.22388
-0.0143287 0.20651 1.29699
-0.120232 0.366175 1.12247
0.246938 -0.215026 1.79421
-0.00285065 0.202198 1.30295
0.140992 0.381261 1.11107
0.122755 0.356723 1.14064
-0.270087 -0.0167259 1.23823
0.246359 0.474481 1.03352
0.579574 0.334811 1.14753
0.59187 0.393274 1.10736
0.322506 0.384267 1.11007
0.0223575 0.199326 1.30652
-0.216897 -0.149708 1.3266
0.470196 -0.137754 1.68292
1.25771 3.2387 -0.160243
0.121917 0.317116 1.18364
-0.199966 0.293597 1.20863
0.164946 0.207129 1.29842
0.190161 0.398959 1.09417
0.232291 0.445226 1.05132
0.133142 0.319343 1.18099
0.144182 0.327293 1.16968
-0.0910739 0.205499 1.29178
-0.208583 -0.130653 1.6781
0.233203 0.433849 1.05615
0.184015 0.364316 1.13197
0.257837 0.447839 1.04484
0.237053 0.413306 1.07735
0.34008 0.0903458 1.14342
0.624258 0.237997 1.2509
0.0916924 0.225799 1.27625
-0.183555 -0.138103 1.69235
0.238502 0.408411 1.08238
0.258121 0.418932 1.07223
0.112921 0.237335 1.26456
0.205404 0.349397 1.14914
0.17825 0.307971 1.19271
-0.411331 0.141288 1.40698
0.42659 -0.206388 1.79583
0.744917 0.0845795 1.55217
0.178867 0.308382 1.18602
-0.259291 -0.200483 1.78043
0.222583 -0.239336 1.43745
0.139987 0.246142 1.25612
0.293902 0.384627 1.09482
0.175103 0.279588 1.21994
0.583828 0.482091 1.00782
0.251311 0.362642 1.13011
0.0783564 0.165643 1.29008
0.299786 0.414186 1.07705
0.538903 -0.0897073 1.63047
0.525377 -0.185746 1.78051
0.274201 0.382412 1.10864
-0.196364 0.255953 1.24439
0.644775 0.110835 1.40857
-0.175305 -1.93539 5.6308
0.363068 -0.173839 1.37046
0.314666 0.40655 1.08237
0.322782 0.280889 1.22194
0.427657 -0.189765 1.39116
0.232602 0.294095 1.20808
0.578718 -0.115391 1.66389
0.317673 0.400334 1.09004
0.301185 0.376558 1.12002
-0.572573 2.08996 1.35491
0.21294 -0.234594 1.4307
0.387677 0.474725 1.02996
0.171763 0.201448 1.29326
0.633137 0.0823295 1.43765
0.273803 0.321841 1.1736
0.236908 0.27047 1.23107
0.355524 0.398634 1.09614
0.311924 0.336349 1.16281
0.116019 -0.168142 1.71469
0.583985 0.122875 1.38486
-0.332122 0.0404476 1.49097
0.316987 0.331025 1.16881
-0.206968 -0.146455 1.33034
0.301197 0.263565 1.23459
-0.372788 0.00273726 1.54587
0.349375 0.309355 1.18882
-0.343661 -0.152013 1.73717
0.465397 0.435578 1.05157
0.469598 0.427959 1.06729
0.507319 0.433971 1.06755
0.430396 0.342308 1.15572
0.365045 0.251933 1.25729
0.235157 -0.223719 1.81311
-0.205943 0.305081 1.19266
0.530035 -0.18049 1.77174
0.50421 0.412447 1.08217
-0.170755 -0.207561 1.39186
0.501884 0.393185 1.10445
-0.00197018 -0.0121033 1.1896
0.208476 0.121174 1.20648
-0.409509 0.356662 1.17126
0.453721 0.289434 1.21711
0.0490031 0.0171624 1.16839
-0.302415 0.0833598 1.43644
-0.388601 0.172001 1.36343
0.369909 -0.212896 1.81576
-0.279416 0.323009 1.17948
0.564783 0.35524 1.14779
-0.359674 -0.0706269 1.63975
0.501608 0.399927 1.1044
0.189612 0.425192 1.06935
-0.201801 0.206826 1.29195
0.627105 0.311169 1.19957
0.659703 0.154802 1.37269
0.259256 0.0765871 1.15323
0.414764 0.364225 1.09994
0.143412 -0.0473577 1.219
-0.334278 -0.142562 1.72232
0.470699 -0.130786 1.67914
0.202779 -0.147769 1.69373
0.403951 0.31238 1.18675
0.260306 0.380281 1.11091
0.360491 0.298516 1.20156
-0.392478 0.326994 1.19848
-0.422279 0.224669 1.32263
0.113599 0.404315 1.09285
0.713124 0.191623 1.37213
0.399562 0.370096 1.12493
0.337356 -0.20546 1.78415
0.0695572 0.288351 1.2073
-0.372023 0.293102 1.22684
0.315433 0.295086 1.20019
0.343146 0.295746 1.19827
-0.234408 0.296517 1.202
0.27912 0.301416 1.19032
-0.384904 0.302112 1.22143
0.125756 0.31163 1.18486
0.455917 0.319805 1.18047
0.0240904 0.316248 1.17913
-0.316107 0.316289 1.19273
0.144896 0.318881 1.178
-0.295886 0.319048 1.17984
0.187993 0.323433 1.1749
0.513277 0.335281 1.16961
-0.211442 0.325904 1.16614
0.173526 0.332278 1.16303
-0.121813 0.331586 1.1608
0.576537 0.347989 1.17291
0.432539 0.349596 1.15164
-0.00057324 0.345052 1.15181
-0.0185968 0.345573 1.15248
0.565108 0.357763 1.16137
-0.247244 0.345088 1.1533
0.280144 0.35005 1.13997
-0.0270167 0.350523 1.14247
0.283107 0.353839 1.13907
-0.226267 0.354334 1.14444
0.214646 0.360285 1.13021
0.239764 0.361739 1.12904
0.394203 0.372064 1.1289
-0.173683 0.366334 1.1261
-0.184482 0.369838 1.12295
0.166781 0.373728 1.12201
-0.193569 0.380104 1.1165
0.172197 0.384455 1.11178
-0.142888 0.383559 1.11383
0.199531 0.387589 1.10463
0.446277 0.399206 1.10603
0.443797 0.400999 1.10374
0.0710069 0.399167 1.09816
0.24448 0.402509 1.09112
-0.173298 0.403047 1.0974
0.365812 0.412917 1.08913
0.371951 0.412784 1.088
0.158473 0.408447 1.08433
-0.166136 0.407609 1.09388
0.12283 0.409821 1.08797
0.419224 0.416982 1.08708
0.323356 0.421052 1.08182
-0.197161 0.415935 1.08939
0.257141 0.423083 1.07622
-0.206766 0.420716 1.08554
-0.165057 0.419695 1.08091
-0.123794 0.42414 1.08597
-0.141394 -1.94687 5.07799
1.61147 -1.75365 4.58488
-0.954419 -2.01526 5.37929
0.131286 -1.89104 5.10415
0.312728 -0.240066 0.655975
1.63874 -1.6829 4.80238
-0.367354 -1.87609 5.33791
0.292886 -1.80998 5.17679
-0.571286 -1.97372 5.66737
0.701796 -1.55508 5.74375
1.05078 -1.46277 5.91908
0.878984 -1.45839 5.9173
1.44665 -1.41454 5.81336
1.58635 -1.38446 5.73599
2.20708 -1.30262 5.56471
-0.012638 -0.0679029 1.22757
0.304685 -0.0410462 1.20314
0.24689 -0.0219078 4.35902
-0.144627 0.0294944 1.22367
-0.2734 0.140609 1.37114
-0.213392 0.162418 1.33457
0.0196346 0.187989 1.3176
-0.084849 0.191525 1.30691
-0.333914 0.230481 1.28711
-0.365136 0.236145 1.28604
0.166789 0.250175 1.25163
0.147953 0.250597 1.24925
0.332363 0.251787 1.24361
-0.0602221 0.251007 1.24817
0.0918421 0.252153 1.24714
0.0587701 0.252898 1.24788
0.33331 0.256629 1.24066
0.223466 0.25931 1.2405
0.0585291 0.260107 1.23683
0.0778548 0.267569 1.23059
-0.316081 0.279763 1.22823
-0.0900003 0.285629 1.20801
-0.0619709 0.288147 1.20849
0.105665 0.292553 1.20397
0.300944 0.29713 1.19739
0.174219 0.299093 1.19874
-0.117646 0.318776 1.17887
-0.228077 0.317591 1.17723
-0.173872 0.32941 1.16601
-0.0594564 0.332708 1.16808
0.191412 0.335934 1.15784
0.235127 0.337157 1.15227
0.203551 0.343564 1.14907
0.596099 0.357522 1.17256
0.365581 0.350212 1.14642
0.317454 0.35264 1.14253
0.270242 0.352265 1.13906
-0.32112 0.351347 1.15782
0.215134 0.35294 1.1389
0.167248 0.356836 1.13801
-0.10725 0.359889 1.13179
0.29869 0.365862 1.12718
-0.214745 0.362706 1.13473
-0.236462 0.365415 1.13434
0.113303 0.36794 1.12549
0.248702 0.369526 1.12144
-0.274648 0.368793 1.13441
-0.234252 0.366993 1.1268
-0.251186 0.368639 1.12945
0.346226 0.377567 1.11827
-0.193942 0.374515 1.11707
0.266168 0.379534 1.11144
-0.242329 0.378982 1.12366
-0.116714 0.385156 1.11139
0.258688 0.405079 1.08881
0.284004 0.408021 1.08824
0.317875 0.408735 1.08773
0.295316 0.409485 1.08826
-0.131049 0.410378 1.0867
0.219146 0.413471 1.08102
-0.125058 0.41364 1.08934
-0.942859 -2.02255 5.27797
0.124835 -1.91987 5.0258
1.80622 -1.70922 4.5715
0.265173 -1.84811 4.95472
1.18422 -1.77068 4.79221
0.581848 -1.83197 4.98495
0.258501 -1.79965 5.19083
1.14363 -1.7546 5.38608
0.243106 -1.72972 5.73848
1.14836 -1.6075 5.59511
1.66227 -1.45073 5.53884
1.50877 -1.38245 5.75198
2.0669 -1.33048 5.57964
0.142606 -0.0467158 1.21348
0.0244303 0.0156296 1.16664
0.102102 0.0194271 1.1564
-0.276417 0.152467 1.35898
-0.258499 0.181224 1.33059
-0.0266004 0.218711 1.28252
-0.121392 0.21979 1.27559
-0.19962 0.234754 1.26343
0.0271071 0.257139 1.24021
0.088903 0.265965 1.23265
0.0390181 0.266018 1.23153
-0.200704 0.279973 1.21888
-0.0199629 0.297786 1.20004
0.0788604 0.303122 1.19404
-0.0603316 0.309368 1.19158
0.29284 0.311494 1.17958
-0.186663 0.326344 1.16929
0.241472 0.332244 1.15707
-0.259334 0.330012 1.16171
0.178903 0.336442 1.15903
0.172161 0.343878 1.1467
-0.232091 0.351534 1.14095
0.0871388 0.355813 1.13123
-0.126391 0.362132 1.1319
-0.131416 0.370513 1.12325
-0.0932569 0.381223 1.11544
0.333072 0.392693 1.10165
0.28322 0.393473 1.09845
0.26065 0.396864 1.09571
0.220328 0.407094 1.08655
-0.245312 0.409739 1.10052
-0.357967 0.415825 1.1103
0.372249 0.417967 1.08295
-0.251077 0.418711 1.0936
0.178106 -1.90686 5.03799
1.70331 -1.61153 5.21751
1.0846 -1.5607 5.64174
1.00456 -1.44991 5.90527
0.0487852 -0.0814221 1.24154
0.112039 -0.0578318 1.22043
0.17197 -0.0341608 1.20041
-0.0336195 -0.000262588 1.17481
-0.153916 0.0148524 1.21404
-0.0561076 0.088954 1.25324
0.634123 0.179028 1.34228
-0.140396 0.258349 1.23901
0.53259 0.267914 1.23816
0.0579802 0.281395 1.21522
-0.386115 0.285425 1.23855
-0.291289 0.347231 1.16226
0.17199 0.372462 1.12216
-0.0992823 0.393678 1.10334
0.22019 0.416216 1.07878
-0.99403 -2.03394 5.28601
-0.0793571 -0.0223819 1.18527
0.261017 -0.0192166 1.18265
-0.119026 0.277194 1.21598
0.335928 0.408305 1.08975
0.138943 0.408266 1.08314
1.29239 -1.50731 5.68988
0.961606 -1.42872 5.90208
1.45177 -1.38221 5.81087
2.21639 -1.27613 5.4867
-0.046948 -0.0528124 1.21686
-0.0433093 0.0832347 1.24845
-0.141117 0.23201 1.26427
0.385538 0.235168 1.24306
-0.517271 -1.98416 5.25676
1.61947 -1.33112 5.70613
-0.0158065 -0.134438 1.29717
-0.0917977 -0.105192 1.26326
0.102968 0.0762913 1.20713
-0.264561 0.325455 1.16706
2.01508 -1.40914 5.7242
-0.182282 -0.0787942 1.23501
0.133672 -0.0363123 1.20218
1.71421 -1.62925 4.87836
1.99202 -1.42722 5.39778
1.63929 -1.38901 5.58229
2.15986 -1.36235 5.58926
0.325549 0.00853661 1.15257
0.104285 0.37318 1.11621
-0.0296575 -0.155672 1.30443
0.295094 0.0592019 1.12631
-0.200798 -0.132118 1.28877
-0.166347 -0.0569592 1.21027
0.256585 -0.0428971 1.21051
-0.260693 -0.0408673 1.20266
0.292646 -0.0305021 1.182
-0.117085 0.0212086 1.20797
0.482331 0.029274 1.13759
0.338215 0.029974 1.12377
0.156292 0.0324477 1.14132
-0.0480785 0.0548042 1.22031
-0.220176 0.0568235 1.27546
0.715686 0.0750566 1.47233
-0.0201694 0.0597008 1.21834
-0.339507 0.0778649 1.45939
0.0616236 0.0764837 1.20948
0.226378 0.0729725 1.15307
-0.31444 0.100775 1.41679
0.00626449 0.095899 1.24502
-0.0926274 0.110863 1.28477
0.0274175 0.117664 1.25829
0.121108 0.117426 1.23247
0.0823756 0.123495 1.24816
-0.184553 0.134667 1.33378
-0.381272 0.157685 1.37972
0.322151 0.152924 1.18892
-0.231607 0.170331 1.32959
0.111137 0.168887 1.28276
0.69608 0.186036 1.35764
0.2482 0.164318 1.22828
-0.0925103 0.179349 1.31929
-0.404738 0.181473 1.34714
-0.376748 0.18533 1.34416
-0.0776039 0.184746 1.31833
-0.239714 0.192323 1.31178
0.667196 0.203688 1.32858
-0.199988 0.198186 1.29572
0.148333 0.20261 1.29814
-0.115974 0.201091 1.29669
-0.0660828 0.201632 1.29795
0.66735 0.220803 1.30698
0.6252 0.229256 1.29306
-0.412672 0.224315 1.31679
0.146992 0.225041 1.27331
-0.230073 0.225203 1.27878
-0.148514 0.224318 1.26618
-0.121125 0.226047 1.26653
0.647071 0.239134 1.29225
0.124537 0.23037 1.26691
-0.361264 0.237313 1.28848
0.124016 0.238128 1.26041
-0.356078 0.23789 1.27993
0.662979 0.251392 1.28939
0.16821 0.242351 1.25366
0.0325741 0.24224 1.25356
0.614379 0.255559 1.26925
-0.377519 0.250379 1.27998
0.247497 0.252332 1.24007
0.386811 0.256552 1.23291
-0.149425 0.253441 1.24199
-0.0220223 0.255513 1.24373
0.0733597 0.259132 1.236
0.360404 0.261755 1.22932
0.557172 0.268825 1.24347
0.461308 0.267216 1.23794
0.393949 0.266482 1.22544
-0.399104 0.269438 1.26444
-0.157316 0.265617 1.2255
-0.172505 0.268348 1.22298
0.464579 0.277002 1.23062
0.347576 0.276633 1.21526
-0.0346897 0.277474 1.22458
0.0572357 0.27718 1.21933
0.142582 0.279596 1.21415
-0.342661 0.281203 1.23914
-0.41012 0.29222 1.25081
0.448874 0.291666 1.20777
-0.393482 0.292531 1.24639
0.402282 0.29088 1.20237
-0.397666 0.292361 1.24314
0.554869 0.297442 1.21521
-0.231338 0.289168 1.21287
0.403855 0.296865 1.19571
-0.00684671 0.294402 1.2023
0.276999 0.295276 1.19323
0.208184 0.298265 1.19197
0.201456 0.298823 1.19185
0.263435 0.300788 1.18778
0.644664 0.315687 1.22374
0.106981 0.303736 1.19186
-0.160762 0.302287 1.19418
-0.163929 0.302928 1.19401
-0.0941902 0.306047 1.1911
0.337648 0.308593 1.18314
0.350263 0.309127 1.18369
-0.307553 0.306948 1.20174
0.304988 0.308196 1.18077
0.0598959 0.309302 1.18899
0.292059 0.316493 1.18191
-0.246098 0.313825 1.18773
0.17047 0.321707 1.17139
0.235013 0.323258 1.16764
0.507774 0.329956 1.17867
-0.39953 0.329783 1.20781
-0.386757 0.3367 1.19598
-0.249801 0.337065 1.16777
0.369141 0.343024 1.15347
-0.380512 0.345849 1.18514
-0.115249 0.342484 1.15386
0.367777 0.34655 1.14818
-0.376422 0.347719 1.18152
-0.0831312 0.343919 1.15224
0.400372 0.355773 1.15183
0.286204 0.352592 1.14145
0.279475 0.354047 1.14002
-0.0518329 0.352538 1.14274
0.0104711 0.353709 1.14481
0.0790346 0.358088 1.13615
-0.432297 0.370079 1.18986
0.303832 0.361961 1.13189
0.4745 0.370645 1.14111
0.0152735 0.366357 1.13185
-0.295049 0.366046 1.1422
0.136931 0.366677 1.12741
-0.438144 0.379177 1.18297
-0.178303 0.366627 1.12844
-0.356867 0.373485 1.15239
0.0219864 0.371456 1.12905
0.258494 0.372806 1.12059
0.188855 0.372206 1.121
0.145585 0.37433 1.12158
-0.0895625 0.376301 1.12361
-0.374873 0.383649 1.15189
0.0336181 0.378192 1.11876
0.323886 0.380974 1.1145
-0.173708 0.376481 1.12016
-0.398599 0.387825 1.15721
0.00864303 0.386752 1.11116
0.394917 0.393112 1.11181
0.479194 0.397674 1.11757
-0.42418 0.407503 1.14551
-0.301035 0.402662 1.1177
-0.107448 0.402752 1.09443
0.337194 0.412082 1.09349
-0.265636 0.411261 1.10364
-0.318175 0.413815 1.11274
0.00132843 0.41245 1.08485
0.296703 0.417296 1.08372
0.414549 0.42104 1.08963
-0.151188 0.419068 1.08577
-0.169286 -0.219466 1.38471
-0.159355 -0.11362 1.26462
-0.226347 -0.105316 1.26341
-0.175323 -0.0607098 1.21418
0.283413 -0.0476945 1.21783
0.00666579 -0.0187394 1.18252
0.0932987 -0.0162503 1.18338
0.198946 0.0447503 1.1382
-0.202434 0.054506 1.2614
-0.368601 0.0670365 1.4697
-0.399505 0.119888 1.43176
-0.217263 0.117855 1.32933
-0.39751 0.133622 1.4078
0.0394402 0.133211 1.27056
-0.179939 0.140697 1.34036
-0.138622 0.144978 1.33342
-0.146527 0.147318 1.33772
-0.324332 0.154665 1.36869
-0.192728 0.166954 1.32566
-0.259333 0.17307 1.33748
0.680754 0.185631 1.35454
-0.41461 0.178882 1.37272
-0.0437018 0.188697 1.31581
0.0372586 0.198374 1.30761
0.295792 0.191767 1.23403
0.332957 0.197346 1.22312
0.599449 0.215429 1.30143
0.166884 0.211997 1.28844
0.170743 0.21474 1.28556
0.0286239 0.214383 1.28682
-0.343924 0.215801 1.31053
-0.0293533 0.214569 1.28311
0.0684894 0.21655 1.28232
0.652508 0.227886 1.30556
0.177792 0.219691 1.27906
-0.228234 0.218696 1.28319
0.0167215 0.221546 1.27554
-0.15353 0.220172 1.27244
0.566686 0.237081 1.2681
-0.233587 0.230069 1.26537
0.550907 0.240038 1.2669
0.26399 0.236866 1.2554
-0.146747 0.235052 1.26004
-0.304528 0.238652 1.27428
-0.39575 0.243032 1.29551
-0.228982 0.238616 1.2583
0.331844 0.242752 1.24805
-0.317979 0.250366 1.26905
0.197966 0.254595 1.23753
0.0376686 0.257114 1.24119
0.17149 0.257725 1.23625
-0.412312 0.265021 1.27976
0.0914308 0.262057 1.23782
0.0230848 0.265721 1.23206
0.189723 0.266695 1.22476
0.262206 0.269207 1.22904
0.0675327 0.268174 1.23104
0.280943 0.268483 1.21843
0.381246 0.273425 1.23495
-0.400942 0.273709 1.2676
-0.425533 0.275687 1.27359
0.26939 0.271616 1.2185
0.200603 0.27151 1.22045
-0.238164 0.271997 1.2362
0.674494 0.294177 1.2595
0.0350085 0.278492 1.2187
-0.0379673 0.28389 1.21692
0.552234 0.300564 1.21723
0.28295 0.292267 1.19594
0.0354492 0.29514 1.19789
0.241273 0.297878 1.19107
0.318589 0.303843 1.18705
0.25303 0.30706 1.18625
0.0404672 0.306516 1.18756
-0.155482 0.30622 1.19131
-0.352695 0.311311 1.21162
-0.26857 0.311064 1.19036
-0.427541 0.328822 1.23014
0.214568 0.320514 1.17136
0.585833 0.333181 1.19675
0.14615 0.321308 1.17344
-0.333685 0.321978 1.19441
0.123535 0.322346 1.17546
0.199328 0.322657 1.17058
-0.40304 0.327654 1.21321
-0.113825 0.321792 1.1757
-0.13119 0.32293 1.17295
0.283829 0.32524 1.1658
-0.292879 0.328118 1.1804
0.38333 0.334361 1.16319
0.0792501 0.331229 1.16249
0.350658 0.335772 1.16014
0.394738 0.339187 1.16318
0.15094 0.336075 1.15738
-0.324179 0.338026 1.17649
-0.191962 0.335288 1.15977
-0.0235928 0.337463 1.15988
-0.361488 0.340813 1.18514
-0.29827 0.337627 1.17131
-0.410897 0.346257 1.199
0.297709 0.341468 1.14863
-0.198685 0.338649 1.15726
0.0288597 0.342358 1.15193
0.311704 0.344958 1.14887
-0.0953756 0.343431 1.14928
-0.349456 0.347265 1.17197
-0.441243 0.355755 1.2021
0.259489 0.347591 1.14404
-0.0714064 0.345703 1.14822
-0.444544 0.359324 1.20298
-0.268511 0.346987 1.15294
0.321582 0.351154 1.14184
0.128515 0.350065 1.1453
0.0155422 0.350018 1.14629
-0.243993 0.3494 1.15104
-0.371341 0.357602 1.17675
0.357157 0.359549 1.14145
-0.433689 0.365599 1.19072
-0.288184 0.355419 1.14943
0.509952 0.369559 1.15237
-0.268207 0.355422 1.13705
-0.245868 0.358183 1.14607
-0.389995 0.365494 1.17261
-0.370517 0.361354 1.15295
-0.202087 0.357661 1.13105
0.409667 0.370631 1.13138
-0.175813 0.365199 1.13099
0.321193 0.370199 1.12397
-0.442305 0.38125 1.1806
-0.406247 0.378816 1.16637
-0.450257 0.385409 1.18359
-0.429799 0.387791 1.17315
0.20868 0.377337 1.11503
-0.191971 0.375236 1.12391
-0.277123 0.380384 1.13142
-0.296802 0.382789 1.12902
-0.0878097 0.38097 1.11575
-0.309822 0.384998 1.13185
0.245861 0.386607 1.10613
0.0173381 0.38692 1.11335
0.0216 0.387132 1.11217
0.268766 0.388114 1.10419
0.288706 0.388529 1.10467
0.261471 0.388947 1.10479
0.0250449 0.388377 1.10788
0.587633 0.410566 1.13068
-0.350207 0.398181 1.13115
-0.306904 0.392264 1.11342
0.602879 0.414134 1.13455
-0.333144 0.397604 1.1251
-0.423151 0.406107 1.15133
0.430603 0.402982 1.10809
0.318616 0.399354 1.09931
0.36344 0.404102 1.10778
0.476526 0.40739 1.11228
0.464776 0.402513 1.09786
0.194539 0.399553 1.09607
-0.435717 0.416835 1.14274
0.345653 0.411041 1.09731
0.349548 0.414192 1.09514
0.11525 0.409786 1.08764
-0.224048 0.410378 1.09976
-0.246369 0.412811 1.10254
-0.268534 0.417825 1.10039
0.273515 0.421077 1.08193
0.479923 0.428542 1.08885
0.292478 0.422851 1.08024
-0.311951 0.42383 1.10349
-0.324541 0.425567 1.1049
-0.389394 0.431918 1.12173
-0.252108 0.422877 1.0948
-0.0664253 0.42069 1.08111
-0.437501 0.436165 1.1324
-0.217337 0.422412 1.08981
0.275165 0.425973 1.07865
0.345466 0.429656 1.0775
0.486584 -0.0930293 1.2593
-0.132706 -0.0960807 1.25019
0.521006 -0.0834758 1.25194
-0.158533 -0.0836678 1.23691
-0.0711292 -0.0807751 1.23584
-0.124447 -0.0804127 1.23484
0.0622414 -0.067246 1.22349
-0.0697188 -0.0647245 1.21886
-0.121645 -0.0620194 1.21578
0.290533 -0.0455554 1.19895
0.177361 -0.0383771 1.19677
-0.176887 -0.0204656 1.18698
0.0962162 -0.0111405 1.1782
0.441595 0.0271474 1.13281
0.233796 0.0470468 1.12576
0.208291 0.0550098 1.14065
0.248559 0.058049 1.12954
-0.373139 0.0843489 1.45966
0.236792 0.0838383 1.15809
-0.383797 0.111823 1.42906
0.333902 0.103691 1.13628
0.187022 0.114727 1.20526
0.0861772 0.122029 1.24485
-0.380571 0.132602 1.39284
0.162131 0.123517 1.22367
0.179779 0.127132 1.21718
-0.187077 0.139591 1.33949
-0.400352 0.144895 1.404
-0.276874 0.152612 1.36073
0.622623 0.18327 1.33481
-0.125941 0.179648 1.32038
-0.119132 0.181403 1.31792
0.612822 0.189972 1.32803
0.290227 0.172808 1.21771
-0.33554 0.19261 1.329
-0.0113905 0.195693 1.30933
0.20184 0.197753 1.26966
0.0228985 0.205252 1.29906
0.00755118 0.205588 1.28805
0.479257 0.200872 1.18394
0.0126089 0.215008 1.28792
0.673304 0.22861 1.31404
0.169881 0.221864 1.2748
0.00945195 0.225187 1.27756
0.354381 0.226032 1.25418
-0.178534 0.225454 1.27067
-0.306489 0.23319 1.28349
0.186019 0.234916 1.26038
0.160993 0.243394 1.25737
0.118453 0.242792 1.25437
0.517114 0.244225 1.2292
0.0898668 0.246025 1.25423
-0.297868 0.246732 1.27146
-0.103536 0.245964 1.2497
0.373414 0.249822 1.2415
0.383809 0.250607 1.23888
0.532285 0.259794 1.2511
-0.378369 0.255728 1.27557
-0.0955137 0.256035 1.24191
0.344994 0.258914 1.23231
0.0499664 0.257763 1.23861
-0.128928 0.258412 1.2434
-0.0168889 0.263812 1.23467
0.273822 0.269224 1.22961
-0.420717 0.275806 1.27301
-0.302435 0.276852 1.23124
-0.00964677 0.286009 1.21466
0.0446056 0.287192 1.2077
0.0622084 0.28889 1.20768
-0.317586 0.288799 1.22148
0.199306 0.289627 1.19887
0.278513 0.291921 1.19749
0.574452 0.30187 1.21612
0.127945 0.295572 1.20016
0.108128 0.300921 1.19331
0.522522 0.308685 1.20137
0.612768 0.320751 1.21606
0.287239 0.311196 1.18309
-0.171398 0.314938 1.1887
0.13088 0.317562 1.17689
-0.100293 0.320573 1.17802
-0.135736 0.32078 1.1738
-0.316847 0.326245 1.18761
0.143807 0.326344 1.16734
0.254083 0.33034 1.15908
-0.323888 0.330505 1.18259
0.00536134 0.332475 1.15881
0.303722 0.337413 1.15498
0.398497 0.341375 1.16308
0.226794 0.336607 1.15411
0.403109 0.341371 1.15815
0.0430738 0.339513 1.15482
0.246405 0.34295 1.14798
0.282201 0.343518 1.14847
-0.0485121 0.34424 1.15716
-0.358023 0.349506 1.17588
-0.230892 0.343938 1.15176
0.260794 0.354514 1.13411
-0.156765 0.351611 1.13739
0.343314 0.359136 1.13972
0.0556791 0.356504 1.14285
0.416564 0.362069 1.13972
0.0753098 0.360617 1.13443
0.311258 0.365315 1.13326
0.00118421 0.363714 1.13617
0.170747 0.364406 1.13004
0.312696 0.368958 1.12883
0.195165 0.366697 1.12281
0.200191 0.368496 1.12568
-0.207878 0.367235 1.1315
-0.266001 0.367624 1.12803
0.212459 0.376827 1.11525
0.329404 0.381358 1.11715
-0.202601 0.379626 1.12114
-0.0779675 0.383845 1.12224
-0.148546 0.382837 1.11986
0.186067 0.3842 1.11069
-0.402774 0.392031 1.15481
-0.406705 0.395299 1.15459
-0.235301 0.387542 1.12199
-0.391088 0.395028 1.14724
0.396456 0.396099 1.10912
-0.162357 0.394272 1.1012
-0.393795 0.405484 1.14033
-0.366975 0.405232 1.13067
-0.112843 0.401431 1.09527
-0.102888 0.402927 1.09834
0.162464 0.404647 1.08848
-0.113327 0.406224 1.09621
-0.435031 0.419481 1.13936
-0.250282 0.41081 1.10217
0.0834159 0.410149 1.08377
0.560275 0.428752 1.10842
-0.424267 0.425019 1.13201
-0.380278 0.424208 1.11809
-0.41155 0.431856 1.12307
-0.398649 0.431297 1.11999
-0.282272 0.425185 1.09986
-0.0921217 0.425117 1.08357
0.60535 -0.160968 1.35168
-0.175725 -0.124681 1.28232
0.569898 -0.101453 1.2828
-0.0435988 -0.0709682 1.22879
0.0122477 -0.0642434 1.22128
-0.0399423 -0.0571837 1.20797
0.427309 -0.00530775 1.1632
0.433079 -0.00518057 1.16319
-0.207542 -0.00639576 1.20829
-0.103575 0.0070162 1.19283
0.175098 0.0219406 1.15014
0.0839859 0.0357444 1.174
0.409255 0.0380115 1.12031
0.156565 0.0396843 1.14302
-0.191018 0.0817899 1.28514
0.477502 0.074648 1.10139
0.105919 0.0880579 1.20899
0.0926275 0.145264 1.26604
0.171089 0.147385 1.24248
0.29487 0.170109 1.21361
0.320028 0.16747 1.19987
-0.401959 0.206876 1.33458
-0.300041 0.204256 1.30645
-0.0668569 0.20731 1.29297
-0.166971 0.226711 1.2662
-0.18845 0.265005 1.23134
-0.21403 0.267278 1.22539
-0.439547 0.284827 1.27944
-0.207067 0.282801 1.21527
0.267962 0.302157 1.18701
0.0885981 0.301828 1.19068
0.481864 0.311794 1.19722
-0.322212 0.308062 1.20556
-0.271434 0.307416 1.1955
0.255816 0.315859 1.17227
-0.32223 0.316785 1.19526
-0.373139 0.323419 1.20345
0.420844 0.327701 1.16738
-0.310388 0.325955 1.18583
0.20666 0.332563 1.1619
-0.216025 0.334695 1.1647
0.129557 0.345616 1.15276
0.214416 0.345049 1.14715
0.397559 0.353531 1.15294
0.0972013 0.356114 1.13122
-0.445033 0.369672 1.19243
0.201777 0.364238 1.12898
0.211985 0.372079 1.11941
0.584246 0.386335 1.14832
-0.407986 0.386988 1.15838
0.111447 0.382689 1.11338
-0.415038 0.396516 1.15085
-0.4282 0.39959 1.15607
-0.34098 0.393151 1.13034
-0.417257 0.401715 1.14996
0.253338 0.402548 1.09497
0.221702 0.40319 1.09259
-0.429981 0.415248 1.14208
-0.4188 0.415315 1.14208
-0.40495 0.414017 1.13706
-0.260646 0.40172 1.09699
-0.272649 0.405297 1.10625
-0.430294 0.424929 1.13408
0.244846 0.418802 1.08109
-0.381643 0.429616 1.11528
-0.276901 0.425449 1.09813
-0.0730842 0.423968 1.07798
-0.0497052 -0.164368 1.30771
-0.135845 -0.11361 1.26518
0.5758 -0.0881046 1.27609
0.35782 -0.0818594 1.21968
0.406331 -0.0186417 1.17643
-0.137565 0.00155855 1.19603
0.0953277 0.0238762 1.14909
0.193958 0.0457235 1.1384
-0.397457 0.0669246 1.49308
0.501701 0.057096 1.12054
0.232829 0.0757711 1.15865
-0.36368 0.125395 1.41449
0.321017 0.160263 1.19488
0.670727 0.185761 1.34414
0.0140934 0.180906 1.32299
-0.341251 0.187657 1.34027
-0.111282 0.214229 1.26863
0.372344 0.225309 1.23211
-0.0560744 0.246122 1.25318
-0.0274181 0.247877 1.25091
-0.0703319 0.271828 1.23444
-0.0743522 0.274966 1.22259
-0.396965 0.311398 1.22561
-0.24743 0.316794 1.18492
0.493221 0.329644 1.17803
0.116981 0.326232 1.16959
0.49934 0.334026 1.17646
-0.399594 0.334938 1.20475
-0.422417 0.381186 1.17009
0.236995 0.372543 1.11753
-0.436361 0.388847 1.17415
0.255141 0.422765 1.08105
-0.189599 -0.139441 1.3032
-0.164565 -0.10664 1.25827
-0.185108 -0.102016 1.25478
-0.186654 -0.0932059 1.24737
-0.122584 -0.0881464 1.24086
0.362639 -0.0310361 1.18304
0.323795 -0.0238272 1.17726
0.107825 0.0102697 1.15941
-0.189054 0.0229261 1.22252
0.504491 0.028199 1.15116
-0.237523 0.0443789 1.27065
-0.236748 0.0761988 1.29839
-0.214317 0.0764278 1.29171
0.114386 0.129724 1.24431
0.223833 0.14794 1.22166
0.281107 0.170346 1.22092
0.223549 0.178453 1.24843
0.245529 0.176458 1.23886
0.0253199 0.238676 1.26074
0.632994 0.251912 1.27888
-0.15161 0.250765 1.24999
-0.140335 0.26587 1.23699
0.490214 0.272709 1.23218
-0.389685 0.304499 1.22733
-0.39756 0.318078 1.21828
0.406626 0.329415 1.17457
-0.387049 0.340984 1.1926
-0.434998 0.360042 1.1988
-0.42984 0.377881 1.18036
-0.429542 0.392987 1.16593
-0.44071 0.39476 1.17
-0.452755 0.398377 1.17477
-0.266861 0.384414 1.12748
-0.169905 0.381856 1.11507
0.20645 0.406442 1.08844
0.510397 0.421137 1.10918
0.487997 0.420512 1.10098
0.0964855 0.418074 1.08387
-0.119352 -0.101452 1.25756
0.00045141 -0.0665292 1.22057
0.406572 0.0481088 1.11079
-0.114017 0.0877197 1.26938
-0.0871999 0.104984 1.28012
-0.0500509 0.1461 1.30746
0.266759 0.143443 1.20714
0.397006 0.260147 1.2367
-0.154938 0.314532 1.18342
-0.226417 0.318946 1.19011
-0.276424 0.346627 1.15338
-0.440614 0.375339 1.18524
0.468506 0.418732 1.09965
0.558113 -0.0915526 1.27258
-0.235358 0.0689472 1.29447
0.0134821 0.112998 1.26527
-0.0581655 0.119232 1.29027
0.338609 0.179073 1.20577
-0.241766 0.345286 1.15352
-0.00374281 -0.125714 1.30032
-0.14419 -0.0921884 1.25058
-0.0751004 0.115698 1.2809
0.691265 0.194757 1.35013
0.180463 0.177499 1.26259
-0.0686679 0.41061 1.096
0.342994 0.420462 1.08539
0.0978588 -0.0259633 1.19597
-0.231738 0.121776 1.3333
-0.0330785 0.131612 1.29387
0.706514 0.224533 1.35209
0.243159 -0.0239612 1.19668
-0.3556 0.195879 1.33
0.295552 -0.0112063 1.16098
0.00978174 0.0677184 1.21428
0.392288 0.373171 1.12364
0.338083 0.352853 1.14347
0.116048 0.166173 1.28098
0.380996 0.302567 1.19201
0.503581 0.440175 1.19176
0.535274 0.447052 1.19589
0.582131 0.487235 1.18269
0.559107 0.358838 1.26117
0.636226 0.44394 1.22437
0.617054 0.392014 1.2488
0.596619 -0.0159196 1.50144
0.603946 -0.037445 1.57152
0.673688 -0.0496594 1.58452
0.722204 -0.0226891 1.57018
0.687491 -0.0461647 1.58629
0.680588 -0.0540808 1.61065
0.661107 -0.0887174 1.62717
0.64273 -0.103613 1.64032
0.62392 -0.11216 1.64992
0.340778 -0.195083 1.78885
0.727132 -0.0971662 1.64374
0.534608 0.500789 1.15817
0.225647 -0.23125 1.43665
0.522752 0.36768 1.2437
0.636106 0.496472 1.20045
0.271968 -0.195274 1.45498
0.228771 -0.191951 1.47523
0.107935 -0.1766 1.54379
-0.23447 -0.188204 1.6521
-0.183535 -0.240453 1.73042
-0.116857 -0.211003 1.71177
-0.155448 -0.237279 1.73201
-0.21147 -0.27104 1.77784
0.450168 -0.0204953 1.53771
-0.10425 -0.251178 1.77607
-0.145774 -0.283831 1.81433
0.188679 -0.167402 1.7204
0.173946 -0.176733 1.72804
0.616458 -0.0234447 1.56105
0.636876 -0.0218084 1.56072
0.57802 -0.0498543 1.5863
0.685453 -0.00426181 1.54753
0.1791 -0.189877 1.7513
0.702997 -0.00178977 1.55116
0.315627 -0.147162 1.70681
0.124153 -0.214533 1.78066
0.316497 -0.149867 1.7095
0.7292 -0.00263451 1.5524
0.368049 -0.140531 1.69636
0.567992 -0.0869165 1.62455
0.492258 -0.115364 1.65895
0.186098 -0.202811 1.78184
0.557305 -0.104305 1.64378
0.50864 -0.119099 1.6637
0.647927 -0.0726547 1.61547
0.0904952 -0.241355 1.83698
0.210154 -0.20869 1.79296
0.251057 -0.198817 1.7789
0.609527 -0.0922712 1.63992
0.213377 -0.209167 1.79561
0.471815 -0.144083 1.6969
0.0687053 -0.244233 1.85667
0.373603 -0.169787 1.74165
0.608358 -0.102325 1.65163
0.161293 -0.224825 1.83079
0.541617 -0.12911 1.68164
0.52571 -0.141883 1.69009
0.623361 -0.107861 1.65383
0.54717 -0.136345 1.68298
0.63379 -0.0991641 1.65015
0.215511 -0.215204 1.81514
0.361831 -0.190237 1.75872
