0.471595 0.353807 1.14276 -0.0259622 0.761534 0.647605
0.0778546 0.261877 1.23704 -0.018259 0.731497 0.681601
-0.00290684 0.233889 1.26868 0.0233789 0.726011 0.687285
-0.433659 0.378419 1.17135 0.508631 0.565697 0.649061
-0.272998 -0.0197733 1.5547 0.110282 0.747058 0.655547
0.619869 -0.164984 1.77263 -0.124979 0.965755 0.227372
-0.333188 -0.14985 1.72874 0.385314 0.728641 0.56623
-0.104322 0.27874 1.22049 -0.0277676 0.736711 0.675637
-0.437276 0.220177 1.35853 0.887831 0.390355 0.243677
-0.262701 0.0154194 1.3711 0.999199 0.040017 -0.000393698
-0.0751883 0.28738 1.21191 -0.0195271 0.731819 0.68122
-0.255073 0.400228 1.10083 0.0801238 0.633136 0.769883
0.584582 -0.0649814 1.60519 -0.0994614 0.808382 0.580195
0.64564 -0.115957 1.68443 -0.13848 0.831649 0.537758
-0.291007 -0.0781935 1.62174 0.202022 0.743053 0.638012
0.664163 0.189853 1.33391 -0.269911 0.697859 0.663431
-0.145579 0.314246 1.18348 -0.00509967 0.72786 0.685707
0.576192 0.024311 1.32816 -0.96921 -0.16572 0.182126
0.574386 0.320508 1.18275 -0.105698 0.745876 0.657645
0.675254 0.429367 1.09953 -0.404587 0.713658 0.571841
0.353928 0.339939 1.15513 -0.00302647 0.709737 0.70446
-0.3832 0.00427204 1.56302 0.632274 0.641165 0.434898
0.132081 -3.40487e-05 1.17919 0.0332568 0.556774 0.829998
-0.422941 0.19683 1.35886 0.690336 0.568616 0.447339
0.770856 -0.0529971 1.6748 -0.679762 0.306328 0.666399
0.766956 -0.106012 1.68987 -0.203894 0.635232 0.744921
0.325926 0.30276 1.19221 -0.0223461 0.716974 0.696742
0.141443 -0.156619 1.70542 0.00980048 0.798656 0.601709
-0.337748 -0.133036 1.71224 0.409653 0.742603 0.529835
0.175356 -0.0817146 1.59809 -0.15851 0.974968 -0.155922
0.662639 -0.137432 1.72358 -0.16385 0.848116 0.503838
0.192704 -0.0792852 1.60267 -0.133396 0.990812 -0.0223129
0.175808 -0.18382 1.73819 -0.00197892 0.809744 0.586779
0.0694605 -0.18115 1.36426 -0.0445221 0.816492 0.575638
0.388857 -0.13372 1.47404 -0.240889 0.659095 -0.712437
0.668867 0.259354 1.26272 -0.291641 0.691209 0.661193
0.562429 -0.0613404 1.26105 -0.709048 0.285205 0.64491
0.588305 -0.119736 1.33173 -0.727283 0.440336 0.526463
0.689322 0.0833427 1.45764 -0.32797 0.695652 0.639143
0.436759 -0.183028 1.751 -0.0413483 0.895531 0.443075
0.59418 -0.0144514 1.54539 -0.310632 0.804285 0.50659
0.306055 0.417562 1.07414 -0.00010435 0.650686 0.759347
0.204731 0.337071 1.15691 0.0504253 0.721552 0.690521
-0.220478 -0.12972 1.30828 0.37975 0.73206 0.565577
0.524 -0.185619 1.78667 -0.219643 0.966999 0.129109
0.0853711 0.323731 1.17552 -0.0176826 0.740251 0.672098
-0.278575 -0.211441 1.80056 0.147038 0.833211 0.533047
-0.376151 0.260321 1.25625 0.197286 0.731982 0.652135
0.605357 -0.0251766 1.44671 -0.981889 0.144061 -0.12305
-0.227469 -0.164854 1.38903 0.894523 0.43937 0.0823594
-0.316457 0.152784 1.36968 0.139069 0.702453 0.698012
0.195738 0.221167 1.28189 0.0781168 0.441943 0.893636
-0.0518775 0.250163 1.25034 -0.0078156 0.698923 0.715155
0.385096 0.308476 1.18658 -0.00810807 0.715835 0.698222
-0.401083 0.357058 1.16811 0.33928 0.641483 0.688033
0.561692 0.20433 1.30191 -0.313965 0.68944 0.652762
-0.239932 -0.127359 1.32523 0.774761 0.572937 0.267374
-0.200071 -0.223051 1.42084 0.646942 0.679443 0.346155
-0.143263 -0.295286 1.51041 -0.056828 0.921719 -0.383674
-0.268943 -0.0989712 1.64213 0.118508 0.800662 0.587278
0.52242 -0.132038 1.68209 -0.0630224 0.815834 0.574841
-0.0549828 0.188219 1.31637 0.0456222 0.570959 0.81971
-0.243888 -0.133393 1.68601 0.0945447 0.76962 0.631464
0.590767 0.274084 1.22742 -0.0616415 0.698124 0.713319
-0.140896 0.0942781 1.29773 0.249099 -0.628677 0.736692
0.735797 -0.114435 1.70112 -0.0546042 0.829355 0.556047
0.336036 0.446277 1.04231 0.020185 0.710347 0.703562
-0.207314 -0.242951 1.83295 0.128969 0.877573 0.461771
-0.208155 0.365055 1.12575 -0.0200261 0.684441 0.728794
0.554998 -0.181322 1.79602 -0.177145 0.973071 0.147487
0.439363 -0.200877 1.79967 -0.0877163 0.987947 0.12754
0.643238 0.332072 1.17852 -0.257873 0.696586 0.66953
-0.0200626 -0.242762 1.43622 -0.00810192 0.80587 0.592036
0.245157 -0.0434185 1.21297 -0.0171465 0.682419 0.73076
0.523826 -0.170473 1.39429 -0.307789 0.791585 -0.527881
0.0145683 -0.241803 1.51445 -0.256232 0.714453 -0.651078
0.339391 0.335929 1.1598 -0.00527198 0.710342 0.703837
0.504971 0.300879 1.19305 0.0173606 0.753159 0.65761
0.0450177 0.116154 1.25633 0.208916 -0.662757 0.719102
0.072957 -0.00645837 1.17823 0.0295339 0.482629 0.875327
-0.36124 0.126552 1.40674 0.205639 0.717357 0.665666
0.254129 0.324657 1.16765 -0.0105563 0.724912 0.688761
0.110606 0.292827 1.20482 -0.00679284 0.721934 0.691929
0.66928 0.0965879 1.43456 -0.265948 0.720211 0.640755
0.124795 0.0138715 1.1632 0.179086 0.228833 0.956851
0.385737 -0.183173 1.74522 -0.0880776 0.853988 0.512783
-0.114365 -0.275033 1.46735 0.0198094 0.852295 0.522686
-0.0111862 -0.102173 1.27094 0.015293 0.717136 0.696765
0.532265 0.0735367 1.1521 -0.951827 -0.106493 0.287548
-0.203115 0.357271 1.13416 -0.0274417 0.718346 0.695145
0.595803 0.007693 1.43706 -0.976915 -0.0898798 0.193798
0.456697 -0.155681 1.70909 -0.063929 0.809382 0.583792
0.662843 0.00559937 1.5312 -0.107656 0.757334 0.644093
0.625275 0.0532591 1.47134 -0.225683 0.732686 0.642058
-0.0599813 0.233919 1.26773 -0.0214271 0.723048 0.690466
0.101003 0.281121 1.21687 -0.0151634 0.731142 0.682056
0.216271 -0.170414 1.35822 -0.0127386 0.756402 0.653983
0.681364 -0.0777828 1.63349 -0.187969 0.748834 0.635544
-0.319657 0.255225 1.25865 0.0493763 0.7613 0.646518
0.343692 0.489439 1.00882 0.0568942 0.474372 0.878484
-0.365774 0.101872 1.43219 0.248427 0.731253 0.635259
0.404867 0.291629 1.20525 -0.0314729 0.725551 0.687449
0.303038 0.276187 1.22074 -0.00376756 0.756675 0.65378
-0.182791 -0.169196 1.72085 0.0745551 0.79981 0.595606
0.71275 0.246306 1.33906 -0.944163 0.232049 0.233902
0.0967341 0.324987 1.17403 0.00220445 0.735264 0.677778
0.148757 0.277837 1.21964 0.00947385 0.71825 0.695721
0.373226 -0.192003 1.39092 -0.0931977 0.964152 0.248444
-0.256435 -0.143218 1.69817 0.109381 0.758428 0.642513
0.389007 0.380558 1.11301 0.0150971 0.747912 0.663626
-0.186806 0.411596 1.08594 0.0194711 0.644152 0.764649
0.341479 -0.189051 1.74887 -0.0195309 0.863298 0.504316
0.0170887 0.50726 1.01247 -0.0566779 0.345246 0.936799
-0.131828 0.0641738 1.26412 0.205166 -0.657253 0.725207
0.530608 0.162545 1.20003 -0.87802 -0.337878 0.338999
0.732017 -0.107337 1.69162 -0.111445 0.810151 0.575531
-0.157077 -0.188531 1.7447 0.0349652 0.80235 0.595829
0.656661 0.000785935 1.53919 -0.100458 0.76856 0.631842
0.749646 -0.0403283 1.62855 -0.556704 0.609619 0.56431
0.00934858 0.270004 1.23019 0.0363405 0.704665 0.708609
0.533984 -0.164756 1.35775 -0.183523 0.934402 0.305308
0.0919231 -0.178051 1.36152 -0.0450719 0.819456 0.571367
-0.344622 0.00266444 1.5393 0.180029 0.765736 0.617444
-0.338859 -0.0814066 1.63971 0.275987 0.75106 0.599783
0.116219 0.534915 1.01441 0.0447439 -0.0372924 0.998302
0.490282 -0.189576 1.77101 -0.121868 0.93311 0.338309
0.591103 0.292486 1.20866 -0.0673819 0.704235 0.706762
0.210437 -0.19568 1.75559 0.0219338 0.847341 0.530596
0.121425 0.444233 1.05693 -0.00474397 0.618651 0.785652
0.320379 0.0975019 1.14305 0.236385 -0.359167 0.90284
-0.128966 0.354944 1.13927 -0.00581567 0.727717 0.685853
-0.255472 -0.111634 1.6608 0.0939691 0.808875 0.580423
-0.00233597 -0.117201 1.63546 -0.195372 0.979476 0.0495702
0.581943 -0.0412016 1.57382 -0.0590231 0.761236 0.645783
-0.375654 0.0259887 1.52527 0.450701 0.70308 0.550043
0.665572 0.22209 1.30813 -0.326416 0.636304 0.698977
0.596884 0.33803 1.16768 -0.102068 0.70374 0.703088
0.276525 -0.14159 1.68786 -0.0252946 0.786558 0.616998
0.729067 -0.0855609 1.66117 -0.297866 0.735274 0.608809
0.222375 -0.220835 1.85397 -0.102704 0.866305 -0.488843
-0.112109 -0.293645 1.50034 -0.103802 0.994191 0.0284398
-0.407155 0.305476 1.2264 0.392604 0.647797 0.652856
-0.418668 0.261929 1.27669 0.517407 0.623373 0.586256
0.566439 0.136476 1.3652 -0.782186 0.254036 0.568903
0.0024561 0.30162 1.19608 0.0266471 0.7396 0.672519
-0.110702 0.025625 1.21436 0.260337 -0.351219 0.899372
-0.0667337 -0.220362 1.40775 -0.019704 0.766263 0.642225
0.010075 0.278619 1.22155 0.0391664 0.7153 0.697719
0.599227 -0.0713489 1.6178 -0.0979697 0.803934 0.586593
0.603686 0.0100148 1.5143 -0.643086 0.705998 0.296661
0.531868 -0.133683 1.68528 -0.0792235 0.818176 0.569483
0.70671 -0.102849 1.6762 -0.193843 0.80971 0.55389
0.585646 0.369846 1.13197 -0.0785866 0.685374 0.723938
0.240347 0.245637 1.25669 -0.0250106 0.743772 0.667965
0.61604 -0.0255931 1.56059 -0.131891 0.702931 0.698923
-0.278641 -0.0349851 1.57233 0.129825 0.730153 0.670837
0.0121532 0.446446 1.05469 0.0977732 0.565433 0.818978
0.160485 0.298741 1.19898 0.00875054 0.724661 0.68905
-0.356707 0.272653 1.23954 0.114817 0.722823 0.681428
0.71663 0.108268 1.44995 -0.684227 0.479933 0.549089
0.588635 0.00875913 1.387 -0.972429 -0.179841 0.148454
0.570477 0.0667823 1.34407 -0.961268 -0.184099 0.205115
0.333098 -0.166653 1.71824 0.0149616 0.788211 0.615223
0.118784 0.280071 1.21853 0.00246084 0.729324 0.684164
-0.260536 0.364219 1.12727 0.12602 0.677566 0.724585
-0.321509 -0.156523 1.7326 0.271173 0.766869 0.581702
0.692369 0.221817 1.31996 -0.597876 0.533225 0.598511
0.133099 0.366535 1.12633 -0.0280015 0.723289 0.689977
-0.333201 -0.193888 1.79311 0.435037 0.77056 0.465812
0.158664 0.502245 1.01511 0.0564045 0.320488 0.945572
0.192109 -0.13207 1.67973 -0.0317681 0.76917 0.638254
0.509848 -0.00882079 1.18926 -0.262026 0.539659 0.800069
0.0597333 0.080488 1.22067 0.220914 -0.651344 0.725912
0.0180718 -0.263877 1.49084 -0.232857 0.916496 -0.32529
0.544406 0.048522 1.18643 -0.94281 -0.111331 0.314188
0.544372 -0.0258621 1.50927 -0.33134 0.713384 -0.617492
0.306712 -0.163969 1.47479 -0.266948 0.648261 -0.713089
-0.260189 0.392375 1.10372 0.0819748 0.621184 0.779366
0.63888 0.0899192 1.43017 -0.154076 0.744539 0.649555
0.179868 -0.132241 1.54908 -0.26143 0.673438 -0.691474
0.29007 -0.0219206 1.19159 -0.0181233 0.713373 0.70055
-0.395051 0.335247 1.18944 0.340394 0.687756 0.641189
-0.185337 0.396441 1.09627 0.022073 0.675429 0.737095
-0.233451 -0.233425 1.82471 0.138815 0.876601 0.460761
0.140986 0.266367 1.23177 0.0137051 0.729692 0.683638
0.601094 -0.0496306 1.41583 -0.999315 -0.0193275 -0.0315511
0.238116 0.282439 1.2136 0.00910848 0.747961 0.66368
0.0868483 -0.233392 1.81948 0.0128367 0.952598 0.30396
-0.290372 -0.190736 1.77408 0.178314 0.816757 0.548737
0.48161 0.371498 1.11791 -0.0357056 0.701139 0.71213
0.175997 0.332596 1.16276 0.0127056 0.720327 0.693519
-0.451609 0.350698 1.21514 0.682915 0.533741 0.498745
0.179428 0.358557 1.13466 0.0412692 0.733864 0.678041
-0.07298 -0.254856 1.85398 0.128277 0.884416 0.448725
0.350469 0.470573 1.02143 0.0389692 0.621431 0.782499
0.512672 0.204724 1.21225 -0.629032 -0.505439 0.590635
0.400881 -0.184686 1.38451 -0.169418 0.90635 0.387075
0.109425 0.248584 1.25118 -0.014654 0.723455 0.690216
-0.253159 -0.223204 1.81522 0.116093 0.847219 0.518403
0.27188 -0.151211 1.49812 -0.259917 0.641112 -0.722093
0.553124 0.418629 1.07498 -0.0432684 0.805458 0.591071
0.380168 0.342752 1.15351 -0.0392582 0.703029 0.710077
0.682203 0.0337877 1.50964 -0.237159 0.69041 0.683439
0.657216 -0.161027 1.77857 -0.180122 0.978656 0.0989395
-0.139035 -0.245339 1.83337 -0.0465281 0.874427 0.48292
0.462377 0.276507 1.2282 0.0601345 0.708555 0.703089
-0.0189154 0.369739 1.12659 0.0252324 0.710279 0.703468
-0.209324 -0.168335 1.72236 0.0802638 0.777615 0.623597
-0.209057 0.470887 1.0401 0.027324 0.368434 0.929252
0.336918 0.0248897 1.14228 0.010159 0.501542 0.865073
0.607785 0.116938 1.39515 -0.0966804 0.735124 0.671004
-0.0171263 0.266193 1.23456 0.0264873 0.699182 0.714453
0.13841 -0.220464 1.79695 -0.0434852 0.876706 0.479057
-0.141672 0.319168 1.1779 -0.0156402 0.730017 0.68325
-0.354641 0.0849278 1.44721 0.226813 0.741665 0.63126
-0.19686 0.314827 1.18093 0.00949809 0.749461 0.66198
0.187655 -0.222008 1.8058 -0.0550046 0.939237 0.338834
0.0771142 0.291596 1.20478 0.0006119 0.703037 0.711153
0.560473 -0.0921868 1.63481 -0.107287 0.765949 0.633886
-0.101852 0.172498 1.33425 0.0603332 0.538609 0.840393
0.717862 0.253071 1.36777 -0.998962 -0.045033 0.00681956
0.171403 0.323297 1.17266 0.0133158 0.724414 0.689237
-0.18761 -0.000502643 1.21913 0.242994 -0.45152 0.858536
0.512079 0.0575358 1.12757 -0.59076 0.49924 0.633847
-0.13013 0.469414 1.04277 0.0397665 0.56029 0.827341
0.222919 0.448804 1.04766 -0.107708 0.599403 0.793168
0.306262 -0.209954 1.78865 -0.0487324 0.939216 0.33985
0.297344 -0.159747 1.48184 -0.263609 0.643054 -0.719022
0.105872 0.331793 1.16552 0.00280442 0.747505 0.66425
-0.230259 0.327221 1.16892 0.00801634 0.745114 0.666889
-0.421789 0.120142 1.46107 0.809888 0.488174 0.325218
0.077556 -0.237466 1.85468 -0.0408795 0.989206 -0.140714
0.0395424 0.0671214 1.21588 0.225637 -0.612849 0.7573
-0.167734 0.315794 1.18116 -0.00282143 0.742843 0.669459
0.0791609 0.477152 1.02947 -0.0211512 0.458775 0.888301
-0.452634 0.314062 1.28657 0.929951 0.328562 0.165039
0.421845 -0.187576 1.75928 -0.0528151 0.90531 0.421455
-0.23943 -0.159531 1.71524 0.0991465 0.767066 0.633861
0.0794968 0.383716 1.11148 -0.000767327 0.686436 0.72719
0.0756953 -0.200652 1.77049 0.045354 0.863161 0.502888
0.469237 0.289428 1.21292 0.0555319 0.725767 0.685695
-0.368582 0.359217 1.15432 0.229453 0.637387 0.735587
0.675307 -0.104691 1.66916 -0.102902 0.847097 0.521381
-0.182326 0.236248 1.26603 0.0411327 0.71436 0.698568
0.304177 0.470824 1.02767 0.0326711 0.676108 0.736078
0.349049 0.315751 1.17866 0.00298598 0.714196 0.699939
0.0270985 0.310909 1.18551 0.00783169 0.7353 0.677696
-0.30757 0.255334 1.2576 0.0871284 0.757761 0.646689
0.278775 0.31936 1.17369 -0.0204914 0.71661 0.697173
0.519616 0.409531 1.09468 0.0140294 0.776742 0.629662
0.433919 0.340607 1.15421 -0.0129488 0.738034 0.674639
0.664094 -0.113116 1.68575 -0.11463 0.84282 0.525847
0.548461 0.0470469 1.19634 -0.946867 -0.201912 0.250351
-0.0258401 0.338451 1.16072 0.0390011 0.726225 0.68635
-0.145999 -0.216487 1.78439 0.0182098 0.84146 0.540013
0.540471 -0.155819 1.71994 -0.114747 0.84067 0.529252
0.530759 -0.0685153 1.25531 -0.217955 0.647343 0.730372
0.0710253 0.221274 1.28152 -0.011708 0.734338 0.678683
0.214959 0.452386 1.04315 -0.136178 0.545562 0.826932
0.313641 -0.216994 1.82649 -0.0969656 0.98331 -0.153946
0.503877 -0.162016 1.7229 -0.0743124 0.833783 0.547068
0.601767 -0.0176602 1.42764 -0.998812 -0.0205246 0.0442031
0.294219 -0.196309 1.76573 -0.0494402 0.864445 0.50029
0.0687679 -0.081064 1.25137 -0.00709154 0.706395 0.707782
0.216783 0.290618 1.20522 0.0173862 0.734149 0.678766
0.0542372 0.49497 1.0197 -0.00857623 0.360093 0.932877
0.538179 -0.0893878 1.62884 -0.0579918 0.773319 0.631359
-0.314027 0.066665 1.45974 0.0594603 0.747743 0.66132
0.0913376 0.137946 1.26421 0.209897 -0.612042 0.762462
-0.257691 0.203269 1.30617 0.0394986 0.737011 0.674725
0.752267 -0.0870499 1.67363 -0.321793 0.629273 0.707435
0.686825 0.139551 1.39588 -0.381952 0.648904 0.658054
0.347775 -0.128031 1.67229 -0.00265307 0.753006 0.658009
0.736246 -0.0959133 1.68398 -0.132011 0.774905 0.618139
0.65464 -0.115406 1.68623 -0.125776 0.837031 0.532504
0.0523875 0.35039 1.14082 -0.0114065 0.72279 0.690974
-0.256809 -0.207241 1.7893 0.148891 0.84523 0.513243
0.158774 0.515861 1.0112 0.0410925 0.19472 0.979998
0.220222 -0.222196 1.81089 -0.056264 0.972267 0.227006
0.0654063 0.331847 1.16236 -0.0415049 0.760848 0.647602
0.574114 0.29498 1.20892 -0.0427973 0.719536 0.693135
-0.00329938 0.312032 1.18469 0.0412297 0.726303 0.686137
-0.357662 -0.168876 1.78083 0.735038 0.592938 0.328852
0.288249 0.285133 1.21002 -0.00416287 0.752128 0.659004
0.460998 -0.119688 1.30542 -0.0341763 0.75469 0.655191
0.182344 0.325936 1.16968 0.0208553 0.722863 0.690676
-0.25631 -0.0502085 1.23815 0.524359 0.37309 0.765409
0.211751 0.357041 1.13542 0.0471866 0.731645 0.680051
0.498736 0.360958 1.13407 0.0031576 0.734878 0.678192
0.631015 -0.162785 1.76611 -0.109266 0.965278 0.237276
-0.209413 0.327328 1.16902 0.0111494 0.743169 0.669011
-0.300049 0.138559 1.37878 0.129224 0.701216 0.70114
-0.326099 0.315443 1.1926 0.131965 0.707634 0.694147
0.0212139 0.385704 1.10797 0.0222271 0.691572 0.721965
0.151067 -0.152791 1.69839 0.0233606 0.802421 0.5963
-0.173565 0.155531 1.34467 0.0673845 0.168511 0.983394
0.624363 -0.168671 1.78989 -0.175097 0.9762 0.12796
0.169723 0.235677 1.26551 0.0232382 0.742887 0.669013
0.0839269 0.220427 1.28163 -0.00761339 0.732899 0.680294
0.521779 -0.134871 1.32764 -0.0478387 0.754617 0.654419
-0.386157 0.258136 1.26424 0.258594 0.725851 0.637393
-0.269051 -0.222481 1.81482 0.125362 0.837617 0.531679
0.497588 -0.194421 1.79203 -0.193388 0.977084 0.0889259
0.523538 -0.119548 1.66566 -0.0591644 0.792856 0.606531
-0.109659 0.25759 1.24618 -0.00191322 0.695038 0.71897
-0.169362 0.395114 1.09864 0.00304905 0.680699 0.732557
-0.405905 0.124173 1.42816 0.56822 0.644212 0.511974
-0.367732 0.0285808 1.51878 0.367877 0.724866 0.58244
0.498356 -0.14616 1.34371 -0.00611643 0.778766 0.627284
-0.200797 -0.0973918 1.27148 0.144047 0.717616 0.681379
0.152003 -0.18978 1.74615 0.0121059 0.812038 0.583479
-0.331818 -0.0759606 1.63297 0.23073 0.750733 0.619002
-0.249298 0.173862 1.33596 0.110112 0.706591 0.699003
-0.0467446 0.355718 1.14092 -0.00897891 0.728497 0.68499
0.545162 -0.106491 1.29483 -0.101637 0.718248 0.688324
0.14858 -0.112894 1.64811 -0.0690725 0.80207 0.593223
0.351538 -0.193671 1.75997 -0.0677421 0.901242 0.427988
0.110967 -0.23884 1.83383 -0.0935417 0.995607 0.00408138
-0.429612 0.214255 1.34794 0.765366 0.516861 0.383496
0.448219 -0.115168 1.47031 -0.292921 0.682981 -0.669129
-0.38314 0.281778 1.23928 0.261905 0.674646 0.690115
-0.383442 0.38853 1.13434 0.293225 0.626096 0.722512
-0.327863 -0.178597 1.76724 0.336863 0.790865 0.510935
-0.405228 0.386497 1.14874 0.379083 0.586667 0.715624
-0.226763 0.332698 1.16268 0.00545872 0.750242 0.661141
0.303074 0.35245 1.14092 -0.0340408 0.729257 0.683393
-0.191923 0.349557 1.14507 -0.0219592 0.734185 0.678594
0.275423 -0.153745 1.70078 -0.0264732 0.794936 0.606115
0.00609105 0.191958 1.31352 0.0322742 0.455968 0.889411
-0.336184 -0.00332581 1.5469 0.13075 0.774961 0.618337
0.58325 0.360012 1.14146 -0.0983631 0.672812 0.733246
-0.309103 -0.0223772 1.56315 0.148476 0.748784 0.64597
0.571211 0.243286 1.26011 -0.125825 0.727976 0.673957
0.169588 0.424206 1.07087 0.0528254 0.684764 0.726848
0.166917 0.229178 1.27339 0.0307025 0.696382 0.717014
0.170206 -0.204436 1.76801 -0.0370952 0.868669 0.494002
0.187441 -0.193291 1.75168 -0.0292335 0.846177 0.5321
-0.26178 -0.0136477 1.54554 0.106269 0.756914 0.644816
0.390061 0.0391622 1.12957 0.0572033 0.469213 0.88123
-0.342923 -0.0532324 1.61012 0.262137 0.735584 0.624661
-0.210179 0.246831 1.25368 0.0264108 0.747236 0.664034
0.123066 0.0489203 1.1642 0.247068 -0.346447 0.904948
-0.154706 -0.0915348 1.25747 0.0281949 0.713083 0.700513
0.529938 0.0450772 1.15587 -0.734065 0.351443 0.581065
-0.0535527 0.284807 1.21668 -0.00931574 0.737162 0.675652
0.24643 0.515736 1.00782 0.0729154 0.268171 0.960608
-0.183297 0.379611 1.11331 -0.00566776 0.690273 0.723527
0.22963 0.0879348 1.17297 0.253245 -0.641134 0.724441
-0.00932091 0.465017 1.0383 0.0177929 0.589069 0.807887
-0.331634 -0.00894141 1.55435 0.137245 0.774987 0.616895
0.56488 0.237084 1.26532 -0.162921 0.719527 0.675083
-0.277756 -0.128912 1.68775 0.123149 0.784222 0.608136
0.483244 0.356376 1.14113 -0.00744372 0.760489 0.649308
0.227122 0.407962 1.08333 0.00343813 0.655087 0.755546
-0.282977 0.101784 1.41971 0.0764519 0.762536 0.642412
0.125558 -0.214282 1.78475 -0.0048461 0.856844 0.515554
0.0918893 0.213103 1.29079 0.0198896 0.649918 0.759744
0.478156 0.381723 1.10923 -0.0504317 0.655964 0.753105
0.266174 0.447366 1.05122 0.0406837 0.702682 0.71034
0.656173 -0.0558194 1.60081 -0.121416 0.758646 0.64009
-0.230009 0.271976 1.2308 0.0697102 0.705375 0.705398
-0.197973 -0.18469 1.74199 0.0529792 0.805735 0.589902
-0.187599 0.247543 1.25416 0.00746853 0.764178 0.644962
-0.381422 0.187161 1.33954 0.209329 0.720811 0.660767
0.133439 0.309751 1.18662 0.00782866 0.724289 0.689452
0.507313 -0.0528348 1.5833 -0.0693168 0.858692 0.507783
0.589768 -0.130391 1.6897 -0.117704 0.814627 0.567916
-0.264179 0.162049 1.35096 0.122664 0.687281 0.71596
-0.218327 -0.184958 1.37969 0.646754 0.669065 0.366143
0.534809 0.26729 1.23495 -0.180547 0.584287 0.791209
-0.259838 -0.0148957 1.369 0.996832 0.0534507 -0.0589018
0.28346 0.304829 1.18779 -0.0158208 0.724621 0.688966
0.262337 0.44233 1.05308 0.0368717 0.703545 0.709694
-0.241589 0.268711 1.23459 0.0535304 0.704875 0.707309
-0.220247 0.275262 1.22525 0.0769687 0.707312 0.702699
0.0706398 -0.240331 1.84618 -0.014871 0.999641 -0.0222986
-0.347943 0.224182 1.29538 0.086148 0.731688 0.676174
0.271162 -0.218686 1.43439 -0.257913 0.96561 -0.0328386
0.387086 0.301709 1.19341 0.00203407 0.717869 0.696175
0.337334 -0.185221 1.4434 -0.310929 0.783843 -0.537506
0.121287 0.114228 1.23366 0.217774 -0.69088 0.689391
0.196053 -0.151275 1.69697 -0.125995 0.711078 0.691732
-0.0424614 -0.0330262 1.19991 0.0863895 0.49648 0.863739
0.551104 0.305523 1.19537 -0.0866123 0.770342 0.63172
0.0957005 0.417429 1.07575 -0.0451637 0.690574 0.72185
0.0980359 -0.253012 1.4607 -0.235548 0.94335 -0.233684
0.218069 -0.231356 1.43126 -0.167961 0.981851 0.0880807
0.550247 0.123231 1.30081 -0.972063 -0.129676 0.195649
0.0194805 0.281549 1.21791 0.0448902 0.719007 0.693552
0.229486 -0.224853 1.81823 -0.105801 0.989156 0.101864
-0.172953 -0.243383 1.8312 0.0521545 0.877916 0.475965
-0.06728 0.400656 1.10077 0.0218418 0.662247 0.748967
0.309019 -0.175372 1.73381 0.0154825 0.826408 0.562858
0.376414 -0.191808 1.76016 -0.0839883 0.897861 0.432195
0.183114 0.301553 1.1946 0.0335817 0.726043 0.686829
0.600213 -0.134911 1.6993 -0.141365 0.824365 0.548122
0.0370639 -0.0812107 1.24935 -0.00927283 0.713497 0.700597
-0.338497 0.291776 1.21939 0.121654 0.722803 0.680262
-0.237325 0.0141404 1.47806 0.914859 0.397231 0.0723914
0.60546 0.107844 1.40502 -0.0772618 0.742176 0.665736
-0.215319 -0.161275 1.71525 0.0871613 0.765743 0.637214
-0.236548 0.338931 1.15562 0.0119414 0.752865 0.658067
0.497764 -0.111541 1.65393 -0.0403269 0.764353 0.643535
0.31008 0.306532 1.188 -0.0305732 0.71305 0.700446
0.0527602 -0.225108 1.41843 -0.0257956 0.794964 0.606108
0.563214 -0.0183606 1.5104 -0.412484 0.771871 -0.483809
-0.1453 0.432872 1.06808 -0.0315902 0.602197 0.797722
-0.440496 0.262066 1.30699 0.843045 0.420394 0.335475
-0.23738 -0.0583659 1.46368 0.984108 0.1593 -0.0784513
0.0721129 0.513698 1.01446 -0.0267739 0.192345 0.980962
0.531142 -0.162253 1.72758 -0.111534 0.852358 0.510927
0.336952 -0.203859 1.7795 -0.0856041 0.928083 0.3624
0.356224 -0.190262 1.39044 -0.145292 0.941032 0.305531
0.66819 -0.0584184 1.6065 -0.143702 0.744867 0.651555
0.178295 -0.164094 1.71071 -0.0200925 0.78848 0.614732
0.431358 -0.187551 1.76 -0.0471976 0.911029 0.409633
0.36751 -0.15861 1.70904 -0.0302168 0.772279 0.634564
0.522276 0.443914 1.04002 0.0430085 0.728465 0.683731
-0.225988 -0.130056 1.68084 0.1151 0.786104 0.607283
-0.222139 0.463682 1.04773 -0.000327987 0.466891 0.884315
-0.290003 -0.0332205 1.57213 0.145783 0.73147 0.666107
0.0609317 0.252853 1.2461 -0.0156071 0.719241 0.694586
0.35222 0.415995 1.08164 0.0137926 0.691342 0.722396
0.495421 0.373409 1.12169 -0.0493281 0.683556 0.72823
-0.3523 0.399451 1.11304 0.163045 0.624334 0.763953
-0.205762 0.121877 1.34076 0.296053 -0.500583 0.813492
0.0801279 0.359242 1.13211 -0.0135337 0.702781 0.711278
-0.0320712 -0.196755 1.56432 -0.307608 0.661617 -0.683842
-0.28593 -0.119406 1.67529 0.118605 0.798706 0.589917
0.0450444 0.257997 1.24019 0.00566017 0.720406 0.69353
-0.109675 -0.195108 1.75136 0.0583674 0.812341 0.580254
0.52808 0.193375 1.27005 -0.935527 0.0982922 0.339304
0.173479 -0.114368 1.56654 -0.244136 0.775237 -0.582585
0.141358 0.414886 1.07906 0.00636938 0.666181 0.745763
0.74318 -0.0535058 1.63823 -0.518039 0.6165 0.592927
-0.403477 0.331827 1.19737 0.369817 0.680466 0.632614
0.305823 0.372898 1.11757 -0.0128293 0.744015 0.66804
-0.345759 0.348661 1.15727 0.126057 0.672322 0.729447
0.18203 -0.207566 1.77841 -0.0328483 0.875041 0.482933
-0.139344 -0.234186 1.81102 -0.0379448 0.866799 0.497212
0.36263 0.300756 1.19663 0.00119206 0.728335 0.68522
-0.305657 0.301288 1.19964 0.121066 0.72643 0.676493
0.251181 0.311309 1.18103 0.00722883 0.730738 0.682619
0.558586 0.20712 1.29815 -0.339437 0.675854 0.65422
-0.0408095 -0.227192 1.41662 -0.031305 0.762466 0.64627
-0.238297 0.323093 1.17347 -0.00374388 0.743175 0.669087
0.5524 -0.0900963 1.63112 -0.088069 0.767274 0.635243
0.609454 0.166751 1.34772 -0.109914 0.701798 0.703846
-0.166286 -0.104162 1.2718 0.0465103 0.732937 0.678705
-0.339017 0.325572 1.18322 0.116042 0.715531 0.688876
-0.0338646 0.216801 1.2869 -0.00120293 0.732025 0.681277
0.191943 0.269813 1.22674 0.00958 0.723297 0.690471
0.0562044 -0.112553 1.65207 -0.0476013 0.979273 0.196872
0.591941 -0.147972 1.71761 -0.131153 0.858489 0.495777
-0.311021 0.159246 1.36103 0.135687 0.719301 0.681318
-0.232285 -0.14755 1.70269 0.0843284 0.758239 0.6465
-0.0791398 0.299767 1.1989 -0.0187303 0.720135 0.693581
0.512017 -0.180394 1.75764 -0.149636 0.911137 0.383977
0.508985 0.360673 1.132 0.00530297 0.69844 0.715649
0.215441 0.226432 1.27796 0.00754802 0.506603 0.862146
-0.192189 0.418772 1.0792 0.0157384 0.619952 0.784482
0.116809 -0.177832 1.53175 -0.246749 0.627876 -0.738164
-0.343217 0.438571 1.08807 0.124166 0.675761 0.726588
0.661021 0.337431 1.18315 -0.482296 0.593004 0.644776
-0.289365 -0.206148 1.79529 0.17266 0.823714 0.540077
0.688012 -0.0752921 1.63517 -0.196418 0.745829 0.636521
0.142862 -0.160179 1.70947 0.00956773 0.796821 0.604139
0.520765 -0.183102 1.76877 -0.191647 0.939353 0.284406
0.486885 0.290591 1.20755 0.0876242 0.70921 0.699531
-0.184015 0.196297 1.30228 0.0233578 0.718322 0.695318
0.0655438 -0.115901 1.60193 -0.286752 0.790415 -0.541311
-0.274875 -0.00530844 1.2489 0.737996 -0.136906 0.660772
0.310545 -0.118313 1.51441 -0.237717 0.681462 -0.69217
0.557372 -0.0828744 1.62266 -0.0935839 0.77495 0.625056
-0.20156 0.161057 1.34167 0.10442 0.483293 0.869209
-0.0231469 0.377592 1.11943 0.0230105 0.705098 0.708737
-0.133171 -0.111584 1.28471 -0.00142729 0.738921 0.673791
0.73536 -0.0760201 1.65709 -0.322662 0.70981 0.626146
-0.395591 0.390573 1.13786 0.346803 0.613023 0.70988
-0.158998 0.210027 1.28904 0.00497591 0.724217 0.689554
0.0116071 -0.201793 1.77151 0.00838851 0.850795 0.525431
0.257533 -0.0859522 1.56692 -0.240015 0.898487 -0.367579
-0.290143 -0.174409 1.74887 0.174111 0.812717 0.556037
0.205249 0.409299 1.08153 0.030649 0.693723 0.719589
0.183094 -0.136144 1.67934 -0.153322 0.701471 0.69601
-0.382141 0.129209 1.40538 0.270796 0.726295 0.631795
0.465616 -0.198708 1.79931 -0.105271 0.991676 0.0741452
0.0867374 0.528195 1.01339 0.00982181 -0.00203566 0.99995
-0.432354 0.196074 1.38037 0.859307 0.423606 0.286618
0.404309 0.369132 1.12415 0.00999109 0.737213 0.675586
0.563615 0.305434 1.19759 -0.0854277 0.755854 0.649143
-0.0688094 -0.0573891 1.22321 0.0483075 0.673209 0.737872
0.717053 0.263792 1.37929 -0.981646 -0.155329 -0.110654
-0.313714 0.189406 1.32432 0.126894 0.735247 0.665816
0.387253 0.266307 1.23293 0.0250615 0.669847 0.742076
0.435121 -0.171926 1.42091 -0.213666 0.90023 -0.379384
-0.343701 -0.113225 1.68468 0.409005 0.754724 0.512939
0.0153376 0.313412 1.18294 0.0226842 0.734538 0.678188
-0.372757 -0.0182471 1.57844 0.51279 0.717982 0.470689
0.196613 -0.095256 1.63281 0.0399044 0.912933 0.406154
0.550916 0.192439 1.31432 -0.535995 0.542005 0.647256
-0.309483 0.261812 1.24875 0.0779834 0.769582 0.633768
0.112709 0.431796 1.06506 -0.0147714 0.6396 0.768566
-0.329892 0.296805 1.21235 0.124015 0.730881 0.671143
-0.395938 0.100162 1.44847 0.485168 0.694513 0.531285
-0.254376 -0.0292327 1.23102 0.458609 -0.115075 0.881156
0.276342 -0.202056 1.45196 -0.348309 0.79272 -0.500276
0.073289 0.200539 1.30358 0.146971 0.367291 0.918421
0.605353 0.307342 1.20057 -0.129627 0.719822 0.681949
0.013513 0.258704 1.24089 0.02987 0.708803 0.704774
0.727968 -0.0957548 1.68145 -0.199437 0.789908 0.579888
0.474569 -0.11604 1.65684 -0.0329225 0.769064 0.638323
0.138968 0.252058 1.24825 0.00648537 0.74086 0.671628
0.0618717 0.390867 1.10539 -0.00519788 0.680535 0.732697
0.0522894 -0.109791 1.61376 -0.240398 0.868673 -0.433147
-0.232072 -0.148633 1.34355 0.737083 0.593169 0.323818
0.691084 0.104324 1.43699 -0.392699 0.674276 0.625411
0.142175 -0.133141 1.67083 -0.0117267 0.775735 0.63095
0.463068 -0.159688 1.71518 -0.0656422 0.814782 0.57604
0.434433 0.252728 1.24829 -0.0322647 0.416466 0.908579
0.0076972 0.43558 1.06225 0.0885039 0.624311 0.776146
0.650224 0.0902621 1.43298 -0.193578 0.738088 0.646339
0.446381 0.371592 1.12221 -0.00762368 0.722367 0.691467
0.616103 0.442487 1.05544 -0.186471 0.772003 0.607651
0.141568 0.380644 1.11199 -0.00905536 0.722212 0.691613
0.492065 -0.195946 1.80134 -0.19409 0.980809 -0.0185116
-0.416075 0.218087 1.32478 0.53357 0.652874 0.537642
0.295373 0.448525 1.04691 0.012052 0.701435 0.712631
-0.031496 0.3081 1.19057 0.0251787 0.720912 0.692569
0.360974 -0.208454 1.81679 -0.110554 0.992388 -0.0542506
-0.120849 0.439593 1.06255 -0.0136292 0.623208 0.781938
-0.212571 -0.116548 1.29409 0.215772 0.735281 0.642499
-0.278804 0.357937 1.14092 0.147905 0.68303 0.715258
0.371445 -0.200408 1.7789 -0.0797461 0.934259 0.347565
0.192406 -0.0837728 1.62058 -0.026881 0.986644 0.160655
-0.250165 0.334613 1.16147 0.0367806 0.743649 0.667557
0.133457 0.238775 1.26319 -0.0151369 0.739729 0.672735
-0.0841469 0.381124 1.11681 -0.0385585 0.659831 0.750424
0.518749 0.212217 1.23651 -0.808482 -0.162384 0.565675
-0.223143 0.404439 1.0941 0.0631153 0.658515 0.749916
0.335851 0.306321 1.18834 -0.0140591 0.716546 0.697398
0.613704 0.0571802 1.46619 -0.352247 0.66506 0.658496
0.230588 -0.084105 1.58524 -0.145645 0.979516 -0.139054
0.591556 -0.0405385 1.57289 -0.0667384 0.757287 0.649663
0.0764686 0.401537 1.09371 -0.00943089 0.705886 0.708263
0.153963 0.350337 1.14563 0.00671788 0.717502 0.696524
0.114606 0.225129 1.2766 -0.0235587 0.729185 0.683911
0.322432 0.266449 1.23125 -0.00566558 0.752878 0.658136
-0.39279 0.210335 1.3195 0.286209 0.712713 0.64041
0.370634 0.398796 1.09412 0.0377377 0.716675 0.696385
-0.28877 0.366988 1.13471 0.146981 0.679866 0.718456
0.272888 0.233299 1.26985 0.0591003 0.680901 0.729987
0.072485 0.252673 1.24662 -0.0134755 0.726988 0.686517
0.207799 0.499345 1.01302 0.0403887 0.394123 0.91817
0.349894 0.471346 1.02046 0.0393181 0.612613 0.789404
0.375656 0.390377 1.10528 3.24514e-05 0.74905 0.662514
0.685983 -0.0565651 1.61671 -0.223861 0.720541 0.656283
-0.23296 0.196331 1.31092 0.11339 0.698559 0.706512
0.0720467 -0.0559983 1.2244 -0.0203128 0.700442 0.713421
0.562484 0.327053 1.16896 -0.118478 0.726667 0.676696
0.755025 -0.0211142 1.61397 -0.583945 0.605097 0.541171
-0.00336402 0.0109582 1.18274 0.172079 -0.0988046 0.980116
0.463292 -0.0931763 1.63226 -0.0125558 0.749701 0.661658
0.59983 -0.0505576 1.45658 -0.737846 0.470328 -0.484123
0.174677 0.0580172 1.16052 0.179841 -0.43547 0.882056
0.420728 0.261596 1.23944 -0.0777241 0.62729 0.774897
-0.0296606 0.372685 1.1241 0.00867655 0.709847 0.704302
0.665173 0.144938 1.38241 -0.26069 0.679268 0.686029
0.163473 -0.166828 1.35399 -0.0358434 0.800109 0.598783
-0.336438 -0.0891743 1.64927 0.296084 0.738123 0.606225
-0.423403 0.27127 1.27098 0.569454 0.593173 0.569094
0.439269 0.383122 1.11361 -0.0161519 0.70713 0.706899
0.654255 0.173519 1.35 -0.202564 0.725851 0.657349
0.664225 0.278401 1.24575 -0.325777 0.62094 0.712953
0.176814 0.368948 1.12381 0.0469969 0.752202 0.657255
0.242377 -0.100194 1.63192 -0.002805 0.93196 0.362549
-0.0756705 0.319758 1.18098 -0.0226146 0.719396 0.694232
-0.216642 -0.207915 1.46212 0.908948 0.413877 0.0502007
-0.0814039 0.194131 1.30914 -0.00618085 0.689595 0.724169
0.500884 0.237458 1.23061 -0.248035 -0.129662 0.960035
-0.161013 -0.250295 1.84143 0.0162668 0.891405 0.452915
0.302214 0.243535 1.25755 0.0474142 0.680926 0.730816
0.21016 0.437273 1.04789 -0.119023 0.669448 0.733262
-0.261874 -0.177021 1.74427 0.165325 0.804331 0.570718
0.675476 0.159708 1.37193 -0.301918 0.685193 0.662839
-0.154902 0.343197 1.15211 -0.0161308 0.728905 0.684424
-0.401678 0.311312 1.21769 0.377909 0.659546 0.649757
0.551812 0.482751 0.999567 -0.0308397 0.781766 0.622809
0.658529 0.43565 1.07846 -0.362741 0.716948 0.595319
0.564016 0.384918 1.11955 -0.0812781 0.691059 0.718214
0.754006 -0.0225038 1.61449 -0.57716 0.60798 0.545204
0.587589 -0.147503 1.35057 -0.611425 0.722269 0.323244
-0.287883 0.0334319 1.49688 0.156191 0.743827 0.649867
0.0654632 0.487226 1.02326 -0.024402 0.389225 0.920819
-0.35047 -0.0444805 1.60202 0.330157 0.719826 0.610612
-0.365533 -0.121463 1.73109 0.830876 0.482808 0.276661
0.223746 -0.10677 1.64101 0.00731298 0.876549 0.481258
0.659607 0.260493 1.2586 -0.234813 0.699596 0.674854
0.317733 0.370115 1.11966 -0.0116336 0.741026 0.671376
0.0734779 0.471816 1.03253 -0.0214005 0.490163 0.871368
0.383965 0.0855178 1.11887 0.245242 -0.288953 0.925399
-0.142366 0.377773 1.11649 -0.00570421 0.701685 0.712465
-0.431408 0.292322 1.26072 0.661556 0.557355 0.501696
-0.318705 0.173263 1.34709 0.139108 0.751122 0.645341
0.10846 0.195705 1.3023 0.12594 0.0780554 0.988962
0.559423 -0.159575 1.73006 -0.130207 0.873915 0.468315
0.69095 0.352757 1.20086 -0.876659 0.239587 0.417213
0.602979 0.0517468 1.46636 -0.647335 0.430068 0.629285
-0.022661 -0.0736371 1.2411 -0.0077409 0.728613 0.684881
-0.145464 0.151765 1.34347 0.0246112 0.143777 0.989304
-0.171308 0.16622 1.33854 0.0124761 0.559313 0.828863
0.178186 0.307943 1.18813 0.0269864 0.725991 0.687174
0.396335 -0.152722 1.34418 -0.0321406 0.778091 0.627329
0.602803 0.465084 1.01806 -0.1201 0.748354 0.652337
0.50595 -0.115072 1.65795 -0.0482389 0.777055 0.627582
-0.192168 0.254748 1.24174 0.0156669 0.755446 0.655023
-0.315513 0.470316 1.04588 0.11865 0.550502 0.826359
0.509613 -0.106238 1.64871 -0.034861 0.76207 0.646556
0.650436 -0.0578106 1.60812 -0.100913 0.772709 0.626688
0.429862 0.00330128 1.17217 -0.0261934 0.726991 0.686147
0.360081 0.399168 1.09781 -0.00418461 0.704581 0.709611
-0.278437 0.00794888 1.52095 0.147562 0.76313 0.629172
-0.249833 0.371046 1.12203 0.0787305 0.647344 0.758121
0.30291 0.455222 1.03897 0.0284803 0.697377 0.716138
0.644108 0.242687 1.27622 -0.200541 0.731491 0.651693
0.486796 -0.122032 1.66439 -0.0459088 0.785736 0.616856
0.306997 -0.126812 1.50799 -0.243495 0.673311 -0.698114
0.0351713 0.260018 1.23827 0.02073 0.714325 0.699507
0.167669 0.331771 1.16383 0.0103461 0.720202 0.693687
-0.247493 0.432341 1.07158 0.0489084 0.679615 0.731936
0.514673 -0.0972459 1.63794 -0.0265573 0.760604 0.648672
0.199435 0.37553 1.11593 0.0239365 0.730812 0.682159
0.422775 -0.204066 1.82124 -0.110473 0.978359 -0.174955
0.588633 0.321368 1.18312 -0.0618792 0.736292 0.673829
0.656581 0.102031 1.42213 -0.217811 0.714895 0.664442
0.0756631 0.532486 1.01467 -0.0215533 0.0330094 0.999223
0.195347 0.278896 1.21803 0.0184815 0.720425 0.693286
0.580057 -0.0491412 1.5831 -0.046001 0.778244 0.626275
0.306486 0.141994 1.19663 0.280287 -0.647412 0.708729
0.212186 0.279498 1.2171 0.00429332 0.730553 0.682843
0.583618 -0.0733909 1.62018 -0.119309 0.787293 0.604925
-0.0593126 0.177031 1.32437 0.127577 0.432613 0.892508
0.658651 0.0730749 1.45738 -0.212305 0.746581 0.63051
0.231181 0.358079 1.13243 0.0373729 0.725278 0.687441
0.667258 -0.0822568 1.63322 -0.127232 0.769982 0.625251
0.121722 0.275105 1.22387 0.00945759 0.729285 0.684145
-0.346076 -0.0845347 1.64802 0.355755 0.748654 0.559424
-0.163864 -0.206512 1.7703 0.0336325 0.829044 0.558171
-0.439874 0.381132 1.17277 0.540623 0.55953 0.628214
0.502185 -0.0662516 1.60187 -0.0361046 0.79485 0.605731
0.70712 -0.119883 1.70563 -0.166035 0.863644 0.475974
0.266353 0.332445 1.15943 -0.0226802 0.726002 0.687318
0.470886 0.017318 1.15964 -0.09621 0.713285 0.694239
0.249931 0.447328 1.04746 0.0377755 0.666577 0.744479
0.641555 -0.145998 1.73032 -0.159909 0.862663 0.479835
0.254119 0.0524664 1.1306 0.190887 -0.188272 0.963388
0.619249 0.0765017 1.444 -0.148577 0.742586 0.653063
0.14485 -0.0470513 1.21768 0.014422 0.67903 0.733969
0.595969 -0.1476 1.36817 -0.757549 0.646945 -0.0870656
0.486768 -0.113998 1.65519 -0.0404828 0.767842 0.639359
0.410115 -0.187841 1.41901 -0.270537 0.91423 -0.301651
0.192257 0.435541 1.05688 0.0296895 0.731941 0.680721
-0.103226 0.0915792 1.27692 0.268322 -0.634293 0.725034
0.539044 0.334553 1.16042 -0.0533093 0.695516 0.71653
0.639574 0.283732 1.23209 -0.228867 0.662903 0.712867
0.668712 -0.108075 1.67642 -0.103328 0.844385 0.525678
0.448919 0.198219 1.1864 0.125177 -0.660584 0.740243
-0.033123 0.445635 1.05322 0.0387007 0.643897 0.764133
0.515305 0.33166 1.16119 0.0403374 0.699216 0.713772
0.49932 -0.18294 1.75989 -0.124634 0.907649 0.400799
-0.360778 -0.114392 1.70305 0.659886 0.650475 0.376075
-0.189313 0.372622 1.12259 -0.015428 0.6909 0.722786
0.202641 0.0708226 1.16308 0.185726 -0.634464 0.750307
-0.0461262 -0.274679 1.50062 -0.260121 0.876719 -0.404599
0.678734 0.225586 1.30801 -0.418296 0.633199 0.65122
0.244055 0.258287 1.24202 -0.0186556 0.761216 0.64823
0.356255 -0.178789 1.73226 -0.0472135 0.819451 0.571202
-0.164264 0.228793 1.27018 0.0430229 0.68613 0.726205
-0.385728 0.152294 1.38111 0.280869 0.731704 0.621065
-0.369143 -0.0895132 1.67907 0.721815 0.597648 0.348997
0.207799 0.499345 1.01302 0.0403887 0.394123 0.91817
0.527286 0.339027 1.15249 -0.00971743 0.696525 0.717467
-0.259166 0.322739 1.1737 0.0219942 0.7239 0.689554
0.485028 0.456931 1.0338 0.00519453 0.756173 0.654351
0.246031 0.33696 1.15394 0.00312759 0.727663 0.685928
0.284916 -0.197941 1.76789 -0.0722861 0.869238 0.489081
0.626592 -0.0480819 1.5848 -0.134451 0.776055 0.616166
0.497078 0.394808 1.10418 -0.0478441 0.661062 0.748805
-0.049939 -0.19176 1.37121 -0.0188588 0.790011 0.612802
0.0914235 0.0572264 1.189 0.25342 -0.646404 0.719681
0.665804 0.425488 1.0958 -0.397645 0.727846 0.558676
0.325342 -0.213216 1.80288 -0.112989 0.979474 0.166925
0.470027 0.33511 1.16502 0.017121 0.725035 0.688499
0.569971 -0.14646 1.712 -0.100119 0.841751 0.5305
0.368063 0.351238 1.14329 -0.037583 0.71479 0.698329
-0.387768 0.366608 1.1543 0.302977 0.63057 0.714553
-0.0910055 0.427829 1.07681 -0.000939248 0.678536 0.734567
0.718812 0.267039 1.3468 -0.99933 0.0323633 -0.0170725
0.237104 0.0646589 1.141 0.218477 -0.483647 0.847557
0.0703183 -0.238821 1.85413 -0.0271894 0.994243 -0.103637
0.448556 -0.12845 1.31526 -0.0597498 0.764924 0.641343
-0.134529 0.347777 1.14776 -0.012573 0.732143 0.681034
0.576699 -0.118627 1.67227 -0.107098 0.801424 0.588429
-0.387678 0.0731363 1.4787 0.483039 0.680652 0.550806
-0.275705 0.261326 1.24496 0.0848184 0.730698 0.677411
0.548647 0.308489 1.19093 -0.0965202 0.769639 0.631142
0.0884397 0.0411851 1.16952 0.18107 -0.256302 0.949486
-0.200721 0.409604 1.08622 0.0484007 0.651311 0.757266
0.233006 0.0762781 1.15687 0.202027 -0.672421 0.712064
0.107659 0.267339 1.23222 -0.00437547 0.727869 0.685702
0.24978 -0.160536 1.347 -0.0209003 0.742937 0.669035
0.454547 -0.146316 1.34217 -0.0404433 0.790509 0.611113
0.649794 0.314249 1.20503 -0.324516 0.711451 0.623319
-0.0548193 0.241007 1.26025 -0.0174437 0.714572 0.699345
0.376145 0.256959 1.24593 0.0871332 0.499956 0.861656
0.368283 0.262037 1.23754 0.0767692 0.66303 0.744646
-0.33215 0.265833 1.24542 0.0548925 0.75611 0.652139
0.474697 -0.166582 1.72584 -0.067508 0.836703 0.54348
0.571607 0.392585 1.11215 -0.0916737 0.727827 0.679606
-0.0522278 -0.253904 1.84421 0.0556587 0.85847 0.509835
0.2066 0.249548 1.24981 -0.0293353 0.748086 0.662953
0.318989 0.080174 1.13547 0.208609 -0.367954 0.906141
0.591009 0.0534281 1.45159 -0.762536 0.364848 0.534251
0.382252 0.0350809 1.13728 0.0498418 0.504224 0.862133
-0.215379 -0.213416 1.79128 0.0963663 0.852184 0.514292
0.250341 0.23418 1.27172 -0.0140719 0.655633 0.754949
-0.35129 0.065398 1.46894 0.221745 0.726193 0.650748
0.615852 0.314703 1.1927 -0.151364 0.738035 0.657566
-0.218382 0.238386 1.26353 0.0171055 0.752635 0.658216
-0.232961 0.387479 1.10928 0.0441145 0.625056 0.779332
-0.385333 0.0562951 1.49696 0.511765 0.666507 0.542093
-0.123067 -0.294148 1.50814 -0.0692755 0.974034 -0.215541
0.272473 0.323477 1.16914 -0.0154325 0.720358 0.69343
-0.396878 0.309232 1.2175 0.361451 0.661234 0.65736
0.347185 0.283121 1.2139 -0.0139299 0.728521 0.684881
-0.13417 0.390102 1.10371 -0.0383289 0.669838 0.741517
0.440056 0.0326046 1.1387 -0.0207873 0.675048 0.737481
-0.208085 0.240934 1.26238 0.00952555 0.758059 0.652116
-0.362065 0.409944 1.10505 0.15485 0.610499 0.776732
-0.186582 -0.247406 1.84538 0.112023 0.883943 0.453977
0.279799 0.345108 1.14683 -0.0407238 0.717089 0.695791
0.0157895 -0.194382 1.76149 -0.0262629 0.853065 0.521143
-0.313062 0.0416042 1.48835 0.067945 0.751744 0.655946
0.373767 0.0892842 1.12278 0.245469 -0.288251 0.925557
-0.387456 0.350964 1.16661 0.29227 0.646794 0.70444
0.714472 -0.136916 1.74574 -0.251539 0.904841 0.343498
0.272573 0.343617 1.14755 -0.0364988 0.720749 0.692235
-0.27272 0.385236 1.11303 0.113684 0.656794 0.745451
0.693183 0.0580725 1.48653 -0.312511 0.711734 0.629104
0.275185 0.26586 1.23359 0.00975622 0.764652 0.64437
0.63219 0.166647 1.35257 -0.147401 0.708198 0.690455
0.410879 0.37506 1.11728 0.00716136 0.742412 0.669906
-0.309295 0.0850419 1.43881 0.0406927 0.754865 0.654617
0.0364682 0.284758 1.21302 0.0295137 0.71394 0.699584
0.364276 0.270354 1.22743 0.00738356 0.746886 0.664911
0.603619 -0.0135101 1.43988 -0.998663 -0.0380122 0.0350207
0.386114 -0.160873 1.35531 -0.0310794 0.773031 0.633606
0.462729 -0.186226 1.76109 -0.0453537 0.904578 0.42389
-0.317857 0.324316 1.17914 0.110109 0.702572 0.703042
0.122173 -0.155321 1.54846 -0.217844 0.654392 -0.724096
-0.331923 -0.139875 1.71835 0.351778 0.745341 0.56632
0.33824 0.344795 1.15041 -0.0114816 0.72815 0.685322
-0.254376 -0.0292327 1.23102 0.458609 -0.115075 0.881156
0.211999 0.338366 1.15499 0.0555995 0.719275 0.692497
0.560612 -0.12988 1.68535 -0.0971239 0.819842 0.564292
-0.241324 0.00591205 1.51314 0.436488 0.805721 0.400364
0.0914804 -0.238999 1.84216 -0.0716413 0.995291 -0.0653013
0.267898 -0.102208 1.6365 0.0113092 0.901817 0.431971
0.619577 0.113618 1.40093 -0.133656 0.727664 0.672786
-0.358795 0.315674 1.19667 0.172346 0.719439 0.672833
-0.134884 0.39959 1.09401 -0.0534712 0.653118 0.755366
0.235252 0.271484 1.22584 -0.0133296 0.754175 0.656538
-0.0340922 0.331141 1.16994 0.0278069 0.717485 0.696018
0.567697 -0.0805196 1.62292 -0.116338 0.778384 0.616914
0.288129 -0.170827 1.72613 -0.0634848 0.815316 0.575525
0.533727 -0.158049 1.72184 -0.1029 0.841606 0.530199
-0.399931 0.106337 1.44473 0.520844 0.678642 0.517849
0.532074 -0.178875 1.76526 -0.189564 0.936553 0.294844
0.608205 0.0743491 1.44698 -0.239022 0.68165 0.691536
0.0554324 0.280527 1.21725 0.0129803 0.714947 0.699058
0.511161 -0.121867 1.66708 -0.0553666 0.792249 0.607681
0.297608 -0.00296279 1.1736 0.00416607 0.702953 0.711224
0.648493 -0.0735112 1.62398 -0.043405 0.760567 0.647806
0.700627 0.175175 1.37097 -0.616553 0.544798 0.568382
0.630109 -0.141176 1.71956 -0.164594 0.845803 0.507471
0.455349 -0.162882 1.71911 -0.0595758 0.825721 0.560924
0.320506 0.232009 1.2653 0.180861 0.37996 0.907149
-0.262568 0.139912 1.36931 0.161323 0.690486 0.705127
0.0541887 -0.179695 1.73146 -0.0146208 0.855821 0.517065
0.680603 0.0933012 1.44227 -0.308781 0.709728 0.633199
-0.279659 0.321195 1.17628 0.0728478 0.698084 0.7123
-0.104093 -0.23753 1.42335 -0.00197742 0.757026 0.653382
-0.126774 0.344523 1.15088 -0.0119908 0.737933 0.674767
-0.325794 0.273107 1.23761 0.0712272 0.757199 0.649289
0.635126 0.178708 1.34031 -0.135836 0.727964 0.672024
0.747461 0.0895754 1.52482 -0.932205 0.197925 0.303018
-0.337123 0.106253 1.41696 0.156407 0.726097 0.669567
0.199992 0.254718 1.24367 -0.0140555 0.742442 0.669763
-0.017987 0.193108 1.31447 0.0714664 0.512679 0.855601
0.394879 0.387291 1.10313 0.0069146 0.746657 0.665173
-0.175219 -0.12503 1.29932 0.0370487 0.743257 0.667979
0.139501 -0.177121 1.73155 -0.0218162 0.789357 0.613547
0.715867 0.0130167 1.5462 -0.387492 0.680925 0.621442
-0.28525 -0.0747915 1.61485 0.189693 0.741093 0.644047
-0.193511 -0.220357 1.41095 0.525215 0.743082 0.414703
-0.35635 -0.133504 1.72814 0.660689 0.62344 0.418106
0.296661 0.471956 1.02373 0.0663635 0.624856 0.777914
0.572601 0.470261 1.01299 -0.0351061 0.737769 0.67414
-0.150347 -0.112203 1.28364 0.0152039 0.743008 0.66911
0.238334 0.494041 1.01775 0.0821024 0.433386 0.897461
0.376048 -0.181083 1.73856 -0.0960098 0.838352 0.536607
-0.411741 0.408428 1.13733 0.40179 0.585937 0.703735
0.223877 -0.22024 1.41876 -0.15682 0.96269 0.220534
0.680059 0.106699 1.42781 -0.315207 0.697387 0.643658
-0.00595581 -0.0529011 1.22084 -0.00714234 0.690213 0.723571
0.261603 0.453323 1.0405 0.0810839 0.666003 0.741529
-0.369482 -0.030004 1.60014 0.543506 0.685422 0.48456
-0.217394 0.178298 1.32391 0.11908 0.69564 0.708452
-0.259433 0.42771 1.08054 0.102481 0.668491 0.736626
-0.218623 -0.123671 1.50805 0.963119 0.236622 -0.128109
-0.190309 -0.124932 1.65666 0.604177 0.796819 0.00704115
-0.108883 0.324647 1.17404 -0.0369326 0.736122 0.67584
0.358453 -0.188916 1.75114 -0.0738227 0.880152 0.468916
-0.352235 -0.139988 1.73262 0.603181 0.64798 0.465075
0.164273 0.34862 1.14644 0.0224373 0.716056 0.697682
0.52507 0.356551 1.13488 -0.0278613 0.683542 0.729379
-0.0708607 -0.264894 1.52838 -0.241465 0.790439 -0.56294
0.117984 0.421515 1.07402 0.00175065 0.657463 0.753485
-0.293184 0.462186 1.04521 0.117868 0.549879 0.826886
-0.352318 0.150126 1.37837 0.121502 0.72766 0.675091
0.263751 0.327083 1.16499 -0.0168771 0.724408 0.689165
-0.231521 0.24773 1.25137 0.0359231 0.724534 0.688302
-0.447874 0.297705 1.2866 0.888496 0.378071 0.260072
0.255252 0.275903 1.22118 0.00282287 0.763705 0.64556
0.375025 0.245957 1.25183 0.170927 0.216796 0.961137
-0.205762 0.121877 1.34076 0.296053 -0.500583 0.813492
0.540267 0.347082 1.14422 -0.0651914 0.686374 0.724321
0.372785 0.120481 1.14644 0.246412 -0.501188 0.829513
-0.260011 0.219096 1.28662 0.0553947 0.75232 0.656465
0.322628 -0.138562 1.49214 -0.251532 0.658049 -0.709721
-0.242379 0.354634 1.1401 0.0447941 0.732874 0.678888
0.110855 0.274743 1.22462 -0.0045474 0.731119 0.682234
0.309499 0.29026 1.20451 -0.0204771 0.735191 0.677551
0.139374 -0.241131 1.43805 -0.119712 0.95959 0.254668
0.417122 -0.202511 1.79692 -0.0882664 0.976543 0.196401
-0.360659 -0.0962144 1.67658 0.601293 0.662554 0.446621
0.124469 0.435503 1.06472 0.00986414 0.622628 0.782456
-0.363679 0.0662111 1.47284 0.28986 0.714906 0.636309
-0.216544 0.37985 1.11526 0.0213961 0.642667 0.765847
0.554624 0.260457 1.23883 -0.11513 0.666414 0.736639
-0.0848123 0.279388 1.22127 -0.0196811 0.730667 0.682451
0.289344 0.164955 1.22359 0.203218 -0.699906 0.684715
0.391587 0.317441 1.17871 -0.021525 0.699276 0.714528
0.50929 0.260767 1.23052 -0.0654017 0.445053 0.893113
-0.382748 0.0970766 1.44694 0.360841 0.724838 0.586859
0.0719284 0.375678 1.11977 -0.015731 0.674816 0.737818
-0.0993988 0.236655 1.2613 -0.014101 0.701406 0.712622
-0.259755 0.0636302 1.45287 0.615938 0.589489 0.522611
0.133845 -0.160665 1.71027 -0.0131353 0.790729 0.612026
-0.151659 0.379045 1.11458 0.00151975 0.702515 0.711667
-0.157521 0.47537 1.03952 0.00125583 0.414334 0.910124
0.361928 -0.17871 1.37329 -0.0603242 0.797119 0.600802
-0.350783 -0.0690048 1.6308 0.344031 0.742415 0.574859
0.684354 -0.103766 1.67285 -0.115758 0.837688 0.533741
-0.165361 -0.147659 1.68311 0.578812 0.810348 0.0911711
0.379714 0.304432 1.19122 -0.00565986 0.720887 0.693029
-0.180352 0.329289 1.16564 -0.000612448 0.73659 0.67634
-0.158535 -0.193182 1.75098 0.038335 0.809493 0.585877
0.352146 0.458236 1.03227 0.0396217 0.695994 0.716954
-0.169138 -0.0507577 1.22361 0.0409443 0.443188 0.895493
0.0704647 -0.226536 1.42138 -0.0436062 0.793505 0.606999
0.59335 0.354254 1.14862 -0.114704 0.670873 0.732647
0.650432 0.12759 1.39636 -0.215139 0.691213 0.689883
0.239795 0.344362 1.14584 0.0266837 0.724974 0.688259
0.0888788 0.301982 1.19517 0.00683573 0.692743 0.721152
