1.81586 3.46659 -0.0308702 0.928814 0.014942 -0.370245
2.35845 6.44004 1.34055 0.972705 -0.0644098 -0.222925
-0.585215 5.18607 3.68426 0.0757871 -0.139409 0.98733
2.63118 7.69174 2.14709 0.977061 -0.0464982 -0.20782
0.196776 4.162 3.55912 0.119799 -0.143877 0.982317
1.74816 3.1988 -0.163 0.979795 -0.194488 0.0466427
1.67467 3.57808 -0.649229 0.951833 0.0915936 -0.292617
1.63657 6.44201 -0.864547 0.96248 -0.0723948 -0.261516
1.48623 4.323 -1.15505 0.870965 -0.0786476 -0.48501
1.75887 7.2959 -0.651316 0.962867 0.00830934 -0.269847
1.38174 4.76671 -1.34219 0.934361 -0.0156543 -0.355985
-0.813368 4.35871 3.61671 0.0633885 -0.0199866 0.997789
0.102284 7.64305 3.64919 0.142111 -0.0460183 0.98878
1.7302 3.13008 -0.17561 0.971494 -0.230665 0.0547155
2.07476 3.14991 0.871175 0.966601 -0.183085 -0.179337
1.76024 6.61521 -0.558826 0.960878 -0.121471 -0.248914
2.18568 4.10981 1.20981 0.933968 -0.0224556 -0.356649
-0.400705 4.69819 3.64565 0.010019 -0.0134325 0.99986
1.85512 2.9111 3.06896 0.334614 -0.0415249 0.94144
2.0208 4.77833 0.495437 0.959363 -0.141238 -0.244282
1.86205 4.62589 0.155956 0.816469 -0.0303035 -0.576593
2.18221 6.61165 0.57235 0.981521 -0.0418837 -0.186716
2.56334 5.96841 2.67353 0.838442 -0.148533 0.52436
2.63181 7.57546 2.6541 0.915144 -0.0147957 0.402855
1.97119 4.16232 3.09432 0.389956 0.0539623 0.919251
2.148 7.14568 0.316453 0.959093 0.0154153 -0.28267
1.46834 4.51291 3.26628 0.332734 -0.0555985 0.94138
0.495617 3.95849 3.52815 0.082122 -0.0322902 0.996099
1.75608 5.23139 -1.01978 0.819681 -0.455563 -0.347253
0.683471 5.22663 3.51647 0.183012 -0.0816453 0.979715
0.0445228 3.5209 3.56629 0.114171 -0.0659455 0.99127
2.69136 7.75851 2.40506 0.993172 -0.103532 -0.0537617
2.37902 3.64042 1.9364 0.977301 -0.0211204 -0.2108
2.2729 6.77679 0.885245 0.974993 -0.00719588 -0.22212
2.12149 6.80168 0.333012 0.947327 -0.130148 -0.292632
1.49665 3.96125 -1.16466 0.917132 0.0379756 -0.396769
1.80149 4.27518 0.0974819 0.850114 0.0363077 -0.525345
2.0653 7.32219 0.135766 0.894954 -0.0203222 -0.445696
2.24532 4.67166 2.98562 0.393732 0.0302202 0.918728
1.83474 7.14843 -0.157036 0.969369 -0.158456 -0.187655
1.58962 5.62788 3.23471 0.350389 -0.0445011 0.935546
1.69667 5.19809 -1.1451 0.807355 -0.49833 -0.315982
-0.818946 3.12346 3.57292 0.00306484 -0.120198 0.992745
2.27334 7.88604 0.736208 0.93082 0.249587 -0.266983
2.03615 4.74177 0.598927 0.97832 -0.0952383 -0.183902
1.97264 3.61374 0.397654 0.961214 0.0643346 -0.268194
2.62157 6.30378 2.58959 0.982288 0.0376306 0.183561
2.33845 7.62796 1.06947 0.978118 -0.0616692 -0.198701
2.2412 5.20057 0.35248 0.900718 -0.236984 -0.364068
2.32277 5.31423 0.739459 0.986579 -0.154995 -0.0513651
2.1213 4.97328 0.607716 0.79281 -0.590324 -0.151556
2.06023 6.36469 0.289844 0.915666 -0.041259 -0.399816
1.67095 3.28729 -0.850721 0.955252 0.0442483 -0.292466
1.77629 3.30271 -0.107365 0.981369 -0.158948 -0.107938
2.25631 6.82242 0.824186 0.971317 0.0261014 -0.236351
0.697908 7.48245 3.57583 0.195395 -0.0733567 0.977977
2.25303 6.31883 0.95909 0.965643 -0.0390012 -0.25693
1.75352 3.52116 -0.201266 0.985812 0.125494 -0.111473
1.85564 6.8241 -0.0888778 0.900632 -0.00221385 -0.434578
2.10716 4.39552 0.910791 0.966857 -0.0391679 -0.252295
0.993945 6.2063 3.44283 0.281337 0.00824866 0.959573
2.5027 6.54272 1.89977 0.96739 -0.0104535 -0.253077
2.64457 7.12891 2.60542 0.952884 -0.0533473 0.298608
0.900089 5.77547 3.47207 0.236901 0.0858465 0.967734
1.88982 4.86215 0.13068 0.821557 -0.319032 -0.472507
2.03475 3.70135 0.773 0.972496 0.075059 -0.220494
2.25588 6.91893 0.869569 0.975782 0.000915688 -0.218744
2.27376 7.46971 0.727293 0.970744 -0.0240795 -0.238905
-1.26849 5.78482 3.69895 -0.168009 0.0178391 0.985624
1.38506 4.84631 -1.35428 0.937125 -0.0631172 -0.343238
2.3091 5.14762 1.34254 0.990188 -0.134328 -0.0385061
2.04126 3.2453 0.626776 0.938895 -0.170948 -0.298752
1.69638 6.31048 3.23978 0.322784 -0.0802986 0.94306
2.14215 6.99376 0.350577 0.962585 -0.085537 -0.257124
0.558424 5.68745 3.55654 0.114181 0.0431619 0.992522
0.873115 6.3265 3.48862 0.330959 -0.0370645 0.942917
1.80109 6.28819 -0.0797308 0.964466 -0.151791 -0.216252
2.3398 5.85215 0.507299 0.964648 0.190349 -0.182266
2.35857 5.57436 1.20061 0.989228 -0.0248548 0.144258
1.51987 2.87305 3.18503 0.328002 0.0588428 0.942842
2.00264 8.1723 0.235776 0.902636 0.329715 -0.276653
2.47391 4.94009 2.05664 0.976584 -0.076066 -0.201242
2.40863 5.76873 1.76683 0.959926 -0.0338726 -0.2782
1.5372 6.2719 -1.15225 0.954312 0.00834871 -0.298695
-0.937833 7.62861 3.79297 0.00184452 -0.160992 0.986954
2.18258 6.38324 0.645298 0.983802 -0.00275168 -0.179238
2.00548 6.28602 0.160247 0.930726 0.0347979 -0.364057
1.68527 3.98916 3.1944 0.26437 0.0413437 0.963535
1.23538 4.91485 -1.77137 0.750629 -0.521614 -0.405555
-0.615449 6.49273 3.74588 0.0702751 -0.0244522 0.997228
2.00373 4.43788 0.455008 0.979281 -0.00132362 -0.202501
1.86406 5.15075 -0.689168 0.896643 -0.407627 -0.172834
1.06935 7.0098 3.43264 0.283518 -0.0178352 0.958801
0.518728 5.04751 3.52742 0.111268 -0.0406901 0.992957
1.75537 7.43481 -0.643519 0.980433 0.0601193 -0.187447
2.10318 6.94831 0.209849 0.946013 -0.0852267 -0.312722
2.37177 5.6302 0.883293 0.991929 -0.0936665 -0.0854579
2.24731 5.42668 0.246875 0.946307 -0.21771 -0.238968
1.40513 5.26971 3.32369 0.369649 -0.0141761 0.929063
1.56634 4.14357 -1.01144 0.943247 -0.0263349 -0.331046
2.49944 6.69141 1.87194 0.968594 -0.0203288 -0.247814
2.07365 4.17884 0.812948 0.966866 -0.0416893 -0.251859
2.14526 4.76627 3.01319 0.36225 0.0591872 0.9302
1.60675 4.7565 -0.911579 0.962155 -0.081401 -0.26006
-0.932396 3.37376 3.64601 0.122513 -0.170974 0.977629
1.64631 3.44421 3.2039 0.386836 -0.0591404 0.92025
1.63871 4.92334 -0.90152 0.861168 -0.403677 -0.308924
2.47005 7.95426 1.6013 0.949446 0.178714 -0.258098
1.58879 4.27071 -0.921112 0.962238 0.0228703 -0.271246
1.72018 3.07657 -0.482719 0.968556 -0.110643 -0.22284
1.9878 6.24085 0.130128 0.931508 0.0395963 -0.36156
1.73691 3.71975 -0.405871 0.993799 0.0521986 -0.098173
2.15165 4.85072 0.977025 0.906515 -0.282281 -0.313922
0.710445 3.63982 3.47958 0.190339 -0.0276565 0.981329
0.306825 7.50415 3.63022 0.136516 -0.0637068 0.988587
0.960078 4.99945 3.42378 0.271953 -0.0625599 0.960275
-0.884551 2.88179 3.56529 -0.0478831 -0.00101356 0.998852
-0.37247 3.7263 3.66184 0.0572092 -0.146631 0.987535
2.09626 6.87695 0.209998 0.935516 -0.142899 -0.323093
1.86955 5.12097 -0.454242 0.895615 -0.438099 -0.0770897
2.35751 5.42637 2.89037 0.656481 -0.116229 0.745334
1.67441 4.40268 -0.552749 0.988798 -0.0439895 -0.142631
1.2639 5.09215 3.37477 0.253663 -0.050724 0.965962
1.73448 4.39599 -0.217981 0.981176 0.0484669 -0.186936
-0.718235 3.64727 3.63354 0.0442372 -0.131725 0.990299
1.64236 4.57675 -0.672765 0.963734 0.0662159 -0.258519
2.43038 3.98723 2.20192 0.97781 -0.0275253 -0.207678
2.37251 4.81814 1.71383 0.966203 -0.0516887 -0.252547
2.54883 5.97588 2.28755 0.977205 -0.0880024 -0.1932
-1.19399 4.74189 3.70827 -0.131967 -0.0711555 0.988697
0.184595 6.42503 3.6637 0.119682 0.0738386 0.990063
0.120629 3.64834 3.56422 0.183179 -0.0177536 0.982919
0.516686 6.37461 3.58042 0.201217 -0.04683 0.978427
2.13841 3.09669 2.96829 0.524357 -0.137186 0.840375
2.28604 7.07026 0.983627 0.969513 -0.116929 -0.215344
1.08477 4.66983 3.3969 0.270818 0.0166052 0.962487
2.42259 5.14055 1.77621 0.949624 -0.049583 -0.309443
2.07716 7.42608 0.138116 0.918175 -0.0966946 -0.384193
0.641669 4.1819 3.51449 0.286867 0.00157691 0.957969
1.77713 6.29348 -0.306672 0.977249 -0.196294 -0.0803318
2.16093 6.35519 0.521203 0.965806 -0.0546454 -0.253441
1.64139 4.84012 -0.753967 0.931763 -0.311572 -0.18639
-0.246299 8.16206 3.74406 0.172049 0.0618502 0.983145
-0.511332 4.9778 3.63968 0.00762956 -0.03391 0.999396
1.75176 4.81612 -0.227886 0.984086 -0.175854 -0.0255058
2.18648 6.16166 0.708308 0.9716 -0.031574 -0.234514
1.57865 4.7012 -0.989198 0.947796 -0.0320116 -0.317267
1.99001 5.81497 -1.0466 0.939 -0.0314225 -0.34248
0.776078 4.17998 3.45627 0.30314 0.0619172 0.950932
1.64044 4.7178 -0.636991 0.974368 -0.0707625 -0.213542
1.35183 6.02999 3.37251 0.357902 0.0210066 0.933523
2.36023 5.6798 0.725143 0.994138 -0.0679638 -0.0840831
-1.11249 6.35891 3.75615 -0.0792881 -0.0090542 0.996811
2.38262 5.65269 2.92672 0.626306 -0.0689143 0.776525
1.739 3.31129 -0.417914 0.967833 0.0294936 -0.249859
2.00117 5.27595 3.08699 0.466518 -0.0695901 0.88177
1.68923 3.14856 -0.597534 0.996736 -0.0187785 -0.0785148
-0.993157 4.65943 3.71196 0.0262657 -0.139314 0.9899
1.40771 4.76106 -1.28068 0.870123 -0.0245694 -0.492222
1.49515 4.31845 3.24353 0.348595 -0.0323979 0.936714
1.94527 5.47147 -1.04641 0.900117 -0.297644 -0.318116
2.30978 6.84669 1.12889 0.963796 0.0102078 -0.266446
1.44172 6.21693 3.31996 0.349306 -0.00805889 0.936974
1.36657 5.06929 3.33685 0.325387 -0.0399422 0.944737
1.8649 3.71394 0.12614 0.902961 0.0305013 -0.428638
2.4258 3.4409 2.39742 0.990439 -0.0985702 -0.0965113
0.997836 3.03919 3.30161 0.0425199 0.425757 0.903838
-0.672109 2.99176 3.58521 -0.0564876 -0.0300403 0.997951
0.164448 4.24904 3.583 0.109547 -0.0877278 0.990103
2.18943 3.02552 1.47119 0.945802 -0.209095 -0.248472
0.0364287 7.30774 3.66019 0.229035 0.011251 0.973353
2.33214 6.1674 1.27008 0.974784 -0.04353 -0.218865
1.71699 4.11127 -0.162676 0.98011 -0.101907 -0.170294
1.7976 3.24447 0.0784624 0.866893 -0.246545 -0.433258
-0.427235 7.13587 3.75025 -0.00753012 -0.072184 0.997363
1.427 6.81687 3.33766 0.365765 0.107181 0.924515
2.24378 4.18694 1.34248 0.940372 0.0312169 -0.338712
2.32551 5.25366 0.661929 0.981352 -0.180592 -0.065839
-1.08045 3.14504 3.57709 -0.193635 -0.230306 0.953659
0.0595343 7.02462 3.66624 0.150158 0.00886193 0.988622
1.79792 7.72321 -0.455362 0.958286 -0.193076 -0.210735
2.08656 4.61891 0.813373 0.966529 0.00482314 -0.256514
1.44302 4.32311 -1.22075 0.873442 -0.0822821 -0.479926
2.39061 4.88815 1.76621 0.96226 -0.0638966 -0.264525
1.72849 4.32215 -0.224836 0.976703 -0.0402064 -0.210796
-0.850868 4.12716 3.67609 0.00849794 0.148276 0.98891
1.74535 7.58726 -0.57709 0.992892 -0.00628055 -0.118853
2.3692 3.13347 2.17302 0.990768 -0.0959297 -0.0957929
1.05883 5.03722 3.4019 0.233743 -0.0709465 0.969706
2.35411 5.97032 1.46664 0.974575 -0.0866794 -0.206616
1.7047 4.60558 -0.175893 0.998012 -0.0160149 -0.0609571
2.10362 6.25499 0.407567 0.931279 -0.0424728 -0.361823
1.60907 3.53765 -0.821982 0.92119 0.271204 -0.279031
2.05327 3.16478 3.00988 0.420298 -0.106789 0.90108
2.02443 5.51686 -0.650633 0.974133 -0.222105 -0.0416574
0.396926 7.64279 3.62045 0.151432 -0.0429158 0.987536
2.39687 3.49371 2.86644 0.569318 -0.197578 0.798022
2.09603 6.06052 0.319971 0.888565 0.326253 -0.322509
0.973017 3.21117 3.15133 -0.397614 -0.202304 0.894973
0.0718872 5.32735 3.58358 0.198286 -0.126083 0.972001
1.42811 4.87743 -1.26935 0.887293 -0.105517 -0.448973
1.53543 4.08346 -1.07969 0.917746 0.0020028 -0.397164
2.04256 5.77295 -0.864497 0.985816 -0.0656489 -0.154455
1.8707 5.12735 -0.523979 0.913079 -0.401011 -0.0740005
-0.767617 3.83372 3.66397 0.0439059 -0.119747 0.991833
2.01225 6.56217 0.1669 0.879255 -0.0592553 -0.472651
2.12265 4.02983 1.00847 0.963081 -0.0475851 -0.264974
1.57043 3.59493 -0.980809 0.973524 0.119785 -0.194684
-0.304523 5.92859 3.67549 0.0170821 0.0172414 0.999705
1.61803 3.67499 -0.758297 0.924117 -0.00799879 -0.382025
1.1656 5.44506 3.42615 0.317035 -0.0539303 0.946879
2.52982 7.63072 1.76821 0.963661 -0.0659886 -0.258848
1.64896 5.21621 -1.33403 0.750298 -0.638862 -0.170023
2.11955 5.65319 -0.0793043 0.990761 -0.0870602 -0.103989
-0.519593 6.36495 3.7288 0.0757467 -0.165248 0.983339
2.55725 7.18465 2.75645 0.885345 -0.0235179 0.46434
2.32763 5.77431 1.28157 0.980309 0.0770399 0.18182
2.39519 5.71673 1.70965 0.966121 -0.0287769 -0.256481
-0.738457 4.79615 3.69968 0.153155 0.0114835 0.988135
1.65581 3.0978 3.1375 0.308043 -0.0898199 0.947123
1.9793 3.72933 0.426416 0.97147 0.031095 -0.235113
2.44335 4.15639 2.20866 0.978348 -0.0333116 -0.204269
1.94688 4.37726 0.222635 0.837551 -0.00310035 -0.54635
1.66474 8.1877 -0.148379 0.738433 0.527226 -0.420416
2.01948 3.50025 0.601613 0.968495 0.0947238 -0.230315
1.45607 3.55248 -1.38861 0.910608 0.18198 -0.371047
2.62996 7.98529 2.62127 0.891806 0.12025 0.436145
0.988886 4.00798 3.43367 0.27966 0.0846937 0.956356
-1.08995 5.33169 3.73561 0.00804081 -0.0364488 0.999303
1.91295 3.64534 0.246366 0.931891 0.0297037 -0.361519
2.04212 4.11433 0.722509 0.970158 -0.0820409 -0.228174
0.60365 6.94346 3.57648 0.222025 -0.00676713 0.975017
0.932562 7.91691 3.50509 0.268515 0.0300241 0.962807
1.81399 3.74269 0.0341648 0.886317 0.0371793 -0.461584
-1.0468 6.43895 3.77144 -0.0588182 0.00564455 0.998253
2.53444 4.20913 2.78945 0.93759 0.026489 0.346731
1.74671 6.6795 -0.64143 0.964114 -0.0921732 -0.248975
1.98677 4.39296 0.328328 0.958448 0.00258368 -0.285255
1.59279 3.96656 3.21917 0.259841 0.0454532 0.964581
0.325858 4.40774 3.56092 0.100989 0.0298404 0.99444
1.90834 4.69944 3.0794 0.404708 -0.00774033 0.914413
1.8011 4.38161 3.14717 0.369948 0.0207492 0.928821
1.76245 5.33907 -1.44043 0.813645 -0.563926 -0.141314
2.33524 5.30753 1.29782 0.993045 -0.100102 0.0619728
2.10456 6.15415 0.436335 0.933866 0.123178 -0.33574
2.11506 4.57763 0.906978 0.961732 -0.0278675 -0.272571
2.30944 2.80683 2.7959 0.750567 -0.194875 0.631405
0.897238 3.95368 3.46626 0.221262 0.0595351 0.973395
2.37129 7.16213 1.19384 0.942125 -0.0744012 -0.326903
1.82768 6.72577 -0.144595 0.955694 -0.0132572 -0.294063
2.10165 4.93585 0.694586 0.85609 -0.479708 -0.192327
1.31529 3.05544 3.23549 0.234537 0.0673193 0.969774
2.05877 2.96025 0.931318 0.97143 -0.123206 -0.202841
-0.155846 7.51074 3.71747 0.260384 -0.00936131 0.96546
1.89715 5.6828 -1.24837 0.926552 -0.0773934 -0.36812
2.35567 5.37631 1.17187 0.993196 -0.0587609 0.100544
0.876604 6.04331 3.49036 0.27513 -0.0492497 0.960145
2.49743 4.2419 2.48548 0.986216 -0.00677044 -0.165324
1.90919 5.65571 -1.21767 0.926552 -0.0773934 -0.36812
1.57325 6.6803 3.29591 0.368072 0.0502444 0.928439
1.0414 3.38737 3.42437 0.156846 -0.0612807 0.98572
0.768576 7.38571 3.54605 0.230687 -0.0903926 0.96882
1.74504 4.7812 -0.273487 0.985822 -0.152852 -0.069219
2.15449 4.35272 1.10515 0.957686 -0.0385733 -0.285218
1.53012 3.05057 3.1728 0.306168 -0.07626 0.948918
1.55999 3.65001 -1.03458 0.961768 0.10392 -0.253385
1.84811 3.62532 0.0815824 0.901578 0.0662742 -0.427509
1.69177 5.80039 3.22126 0.352431 -0.0567839 0.934114
1.71326 4.66484 -0.128998 0.986501 -0.142574 -0.0805519
2.31484 3.9326 1.53053 0.960726 -0.101949 -0.258093
-0.140358 5.68293 3.68634 0.116352 0.0189305 0.993028
1.88684 5.71325 -1.26912 0.92178 -0.0485556 -0.384662
2.19975 6.49847 0.771553 0.973733 -0.0506299 -0.221993
2.31928 5.89628 1.25867 0.997402 0.0683705 0.0226966
2.02296 6.42894 0.190242 0.909051 -0.0270957 -0.415802
1.70497 3.23924 -0.509694 0.970633 0.00526296 -0.240509
-0.31203 4.93812 3.68247 -0.0320417 -0.0403298 0.998673
-0.0529615 4.60286 3.6211 0.209676 -0.0436488 0.976796
2.39991 6.74517 1.4381 0.980158 -0.0663482 -0.186784
1.56371 3.85233 -1.01226 0.947835 0.0515699 -0.314564
2.5149 4.11142 2.49654 0.990241 -0.0144098 -0.138622
2.29277 5.49213 0.41145 0.965236 -0.16051 -0.20629
1.78849 4.96625 -0.131652 0.888175 -0.406129 -0.214953
1.79621 7.66915 -0.389855 0.961921 -0.174453 -0.210415
1.16932 2.92659 3.31288 0.229194 0.199842 0.952645
2.10017 3.1805 0.982393 0.970732 -0.183998 -0.15435
1.77519 4.38278 0.0550971 0.890227 0.0308468 -0.454471
1.8134 6.96124 -0.196583 0.976318 0.0153073 -0.215799
2.24793 6.80196 3.00215 0.587061 0.00161152 0.809541
-0.324007 4.16234 3.6615 0.0961705 0.00662235 0.995343
1.75892 5.13076 -0.93452 0.822738 -0.417661 -0.385567
2.50534 6.11469 2.79207 0.767852 -0.111603 0.630831
1.93842 3.60461 0.310972 0.940879 0.0589337 -0.333578
1.46243 3.83945 -1.25715 0.922268 0.0614981 -0.381629
2.23654 7.16401 0.637241 0.9666 -0.129711 -0.221041
1.79547 2.91279 0.0851587 0.863266 -0.188967 -0.468042
2.39691 3.1439 2.37805 0.993241 -0.0657746 -0.0956374
2.06484 6.47339 0.289635 0.905505 -0.0464883 -0.421781
0.4755 6.90745 3.59163 0.191362 -0.0469745 0.980395
1.71481 3.78222 3.18803 0.318016 -0.0217799 0.947835
0.557755 7.29881 3.5687 0.166442 -0.0364091 0.985379
-0.193106 3.62269 3.60355 0.15609 -0.150284 0.976243
1.42085 3.87429 -1.37008 0.925297 0.0895132 -0.368527
2.30899 5.5654 0.392826 0.965718 -0.170371 -0.195862
2.01622 4.39333 0.526994 0.980975 -0.0181738 -0.193282
2.51416 4.13702 2.80018 0.757966 -0.0144812 0.652133
2.4597 6.34414 1.75946 0.960864 -0.0295601 -0.275439
1.76863 3.3345 -0.315569 0.988505 0.0420307 -0.145227
1.51818 4.29936 -1.09981 0.876141 -0.0462417 -0.479832
1.49316 7.02894 3.27994 0.339795 -0.0270656 0.94011
2.23621 5.50497 2.98638 0.454716 -0.0720483 0.887717
2.05375 3.20552 0.704204 0.948172 -0.174714 -0.265413
1.69343 4.14391 -0.537982 0.982644 0.074345 -0.169952
1.601 3.42959 -1.05892 0.958974 0.0901167 -0.268789
1.95406 3.8457 0.351788 0.962429 0.019195 -0.270856
0.194078 6.70726 3.63592 0.128901 -0.0163184 0.991523
2.04219 5.41941 3.07537 0.444892 -0.0373475 0.894805
1.13247 4.87566 3.37945 0.215009 -0.0363693 0.975935
1.25755 2.87283 3.29038 0.266768 0.231005 0.935666
2.51356 4.51353 2.77 0.914025 0.0255904 0.404849
1.46538 6.09332 3.29817 0.378151 0.0211787 0.925502
1.87352 2.84446 0.40667 0.928578 -0.267174 -0.257607
1.99445 5.43193 -0.676359 0.926078 -0.358472 -0.117806
-1.10918 5.98167 3.74713 -0.134345 -0.0717775 0.988332
1.64202 3.69077 3.20901 0.326436 -0.0327384 0.944652
2.21572 7.17455 0.546588 0.960912 -0.0373795 -0.27432
2.08 4.9453 0.526367 0.841844 -0.495388 -0.214218
-0.262322 7.97133 3.76587 0.18563 -0.0113906 0.982554
-1.04345 3.33519 3.66509 -0.108706 -0.271156 0.956377
2.09335 3.98556 0.905478 0.956995 -0.0645387 -0.282834
-0.000749642 7.18984 3.67205 0.236641 -0.0037315 0.97159
0.0269418 3.02814 3.46728 0.0949445 0.497118 0.862473
2.07716 4.72086 0.803124 0.959415 -0.0458619 -0.278243
1.63491 5.29654 3.2341 0.343876 -0.0137629 0.938914
2.02157 4.71271 0.525248 0.978726 -0.049769 -0.199045
2.19072 7.94017 0.484588 0.944397 0.276015 -0.178687
2.09422 7.60564 0.122445 0.883929 -0.0707865 -0.462233
2.19623 8.07694 0.842959 0.816869 0.55416 -0.1601
1.64408 8.17332 -0.20289 0.738433 0.527226 -0.420416
1.43612 7.2453 3.34559 0.360418 -0.0854148 0.928872
-0.240175 7.41799 3.74293 0.204982 -0.0126729 0.978684
2.43213 5.08296 1.82913 0.953719 -0.0724291 -0.291847
2.49502 5.2044 2 0.979736 -0.0429044 -0.195643
0.296152 5.03758 3.56112 0.167196 -0.035673 0.985278
1.96023 5.00621 3.09602 0.435723 -0.0613446 0.897988
1.80169 6.37771 -0.230664 0.973831 -0.205769 -0.0965046
1.33164 4.82288 -1.60148 0.957492 0.0685166 -0.280204
2.18529 7.05729 0.484332 0.965638 -0.11579 -0.232672
-0.887035 3.00597 3.55963 -0.0122481 -0.0550126 0.998411
1.40222 4.73808 3.30342 0.301668 -0.0518487 0.952002
1.06843 3.59834 3.40654 0.22314 0.0434093 0.973819
2.00034 4.76936 0.415958 0.945878 -0.138648 -0.293413
2.03391 4.13727 0.645313 0.976833 -0.0850525 -0.196377
2.53836 7.48562 1.85914 0.960138 -0.0730563 -0.269811
-0.994918 3.73334 3.66716 0.00483238 -0.0561747 0.998409
2.34373 5.27729 1.19417 0.987173 -0.116717 0.108937
0.153539 4.87364 3.59007 0.210309 -0.039644 0.976831
1.71376 4.91535 -0.605495 0.867919 -0.470565 -0.159011
2.16922 4.27309 1.16237 0.95008 -0.0351423 -0.31002
2.24384 3.50793 1.50719 0.968815 -0.00353406 -0.247759
0.790213 4.65614 3.4817 0.224936 -0.0524821 0.972959
1.23301 2.99528 3.29461 0.247777 0.194132 0.949168
2.41913 4.12832 2.09482 0.982833 -0.0326688 -0.18158
1.54125 4.81627 -1.07309 0.893941 -0.0555714 -0.444726
1.85602 3.50483 0.0608775 0.910286 0.0743052 -0.407256
2.23833 8.15298 1.35227 0.813482 0.531294 -0.236589
1.70609 5.17843 3.19843 0.355618 -0.0494733 0.933321
1.67058 2.93359 -0.763179 0.980881 -0.143255 -0.131721
1.01306 4.25377 3.39138 0.179685 0.0551162 0.982179
2.16318 3.93912 1.17645 0.938888 -0.0823796 -0.33422
1.44989 5.04847 3.30629 0.357111 -0.028944 0.933613
2.31788 6.54441 1.13909 0.965958 -0.0492562 -0.253965
1.87164 5.09104 -0.204347 0.845965 -0.526355 -0.0853985
2.3973 3.04722 2.66195 0.933798 -0.194734 0.300167
1.71486 4.36567 -0.286737 0.975623 -0.0466051 -0.214447
1.53797 4.75096 -1.07836 0.897123 0.00543671 -0.441747
2.33939 5.38513 1.35898 0.999147 -0.0412975 0.000488636
1.76657 6.10461 -0.293119 0.99753 -0.0102919 -0.0694877
1.63757 3.6172 -0.718243 0.927423 0.0886909 -0.363345
1.29859 4.21425 3.33417 0.357161 -0.0415159 0.93312
1.82968 7.97638 -0.163937 0.888756 0.266299 -0.373092
1.90988 5.54566 -1.18365 0.913192 -0.213877 -0.346897
2.35413 3.02044 2.10044 0.980632 -0.16162 -0.110629
2.64705 7.98531 2.15305 0.980757 0.0191972 -0.194287
1.47494 4.74434 -1.18652 0.853717 0.0268353 -0.520046
2.5129 7.00356 1.87205 0.969589 -0.059106 -0.237496
2.10661 5.90788 -0.0700311 0.969626 0.228323 -0.0877204
-0.981923 3.97488 3.68498 -0.137751 0.00433781 0.990457
-1.18425 3.66358 3.65999 -0.318507 0.0549973 0.946324
-0.930732 5.59859 3.7149 0.0439719 -0.0165656 0.998895
1.48403 4.05714 -1.18335 0.881082 0.0645057 -0.468544
2.41722 4.3615 2.86295 0.517816 0.0115988 0.855413
0.928985 3.4006 3.43045 0.11796 -0.10296 0.987666
-0.00889847 6.83931 3.66078 0.11613 -0.0626702 0.991255
1.61324 3.74707 -0.793859 0.953671 -0.0492041 -0.296799
2.30164 5.82402 0.336735 0.944461 0.273454 -0.182255
0.398932 5.3742 3.57772 0.126994 -0.0626265 0.989924
1.27843 3.38399 3.35786 0.387209 -0.0519518 0.920527
0.725323 4.91689 3.505 0.224828 -0.0290275 0.973966
0.285293 5.75269 3.56816 0.267172 0.0194226 0.963453
2.0563 6.85515 0.143032 0.865631 -0.159944 -0.474449
2.61968 7.71777 2.68847 0.89743 0.0209327 0.440659
1.70822 4.53388 -0.344887 0.997432 -0.0192836 -0.0689771
1.98216 4.52018 0.335285 0.951506 0.0622322 -0.301271
1.86671 3.21837 3.07989 0.340264 -0.097995 0.93521
2.36103 5.40718 0.898745 0.994389 -0.0667793 -0.082048
2.53094 5.40355 2.27116 0.992491 -0.0288017 -0.118882
2.09636 3.72684 0.99722 0.96722 -0.00914827 -0.253776
1.24786 3.73226 3.34271 0.353043 0.0616721 0.933572
1.57762 3.41173 -1.14905 0.954107 0.0854087 -0.287029
-1.2084 4.36259 3.6583 -0.209813 -0.136691 0.96814
1.25611 4.30571 3.355 0.290538 -0.00997781 0.956811
1.70823 4.05679 -0.17542 0.978918 -0.0595368 -0.195385
-0.268481 7.54381 3.75147 0.171769 -0.0171965 0.984987
0.250351 4.06955 3.51322 0.100794 -0.108419 0.988982
0.0472216 3.42918 3.56984 0.109041 -0.0746794 0.991228
1.9725 5.74013 -1.07757 0.935998 -0.0538582 -0.347861
1.46262 3.61031 -1.33287 0.901936 0.186508 -0.389521
-0.305531 7.65828 3.75869 0.170942 -0.0316556 0.984772
1.71434 5.04779 -0.920924 0.79713 -0.479495 -0.366972
-0.753413 6.07009 3.74936 0.180274 0.00987732 0.983567
1.73081 5.0203 -0.855974 0.78624 -0.509255 -0.349981
1.08766 3.31716 3.4196 0.14735 -0.365222 0.919185
-1.11644 6.91277 3.76105 0.0533362 0.0572962 0.996931
1.73183 6.52934 -0.585138 0.949984 -0.149691 -0.274085
1.85368 5.17417 -0.738705 0.890037 -0.384748 -0.244546
-1.11374 6.46506 3.76062 -0.0817366 0.00917262 0.996612
2.13708 4.61591 0.98843 0.953417 -0.0496636 -0.297539
1.83538 5.07651 -0.584161 0.859987 -0.5018 -0.0928337
2.19306 6.55673 0.699708 0.979106 -0.0747809 -0.189104
-0.546993 5.29732 3.6892 0.0975414 -0.123057 0.987594
1.70409 3.85937 -0.519037 0.972674 0.107639 -0.205718
-0.116418 4.21434 3.6137 0.209632 -0.0369273 0.977083
1.58646 3.3333 -1.09503 0.942 -0.0599835 -0.33021
-1.26436 4.82541 3.69819 -0.162537 -0.04896 0.985487
-0.324754 3.18691 3.41511 0.402112 0.0108849 0.915526
1.90002 5.57898 -1.2364 0.923446 -0.0806667 -0.375153
0.444251 6.45835 3.59605 0.214072 0.0157652 0.976691
1.70942 5.19879 -1.10974 0.823689 -0.456013 -0.33703
2.07834 3.11046 0.943882 0.970009 -0.158976 -0.183871
1.42986 4.80415 -1.25315 0.870123 -0.0245694 -0.492222
1.80866 4.14906 0.0694339 0.869891 0.061931 -0.489341
1.76228 3.27468 -0.174443 0.984026 -0.173158 -0.0413385
1.52967 3.53225 -1.24653 0.921222 0.209404 -0.327872
1.55375 4.56347 -1.0853 0.92834 -0.000551714 -0.371731
1.67476 6.41786 -0.759406 0.960381 -0.0666954 -0.270591
0.952253 3.60794 3.43197 0.188237 -0.0199118 0.981922
0.152546 3.33178 3.525 0.0614726 -0.347359 0.935715
1.07778 7.2611 3.44082 0.285159 -0.0217589 0.958233
0.234593 4.95057 3.57239 0.192349 -0.0249244 0.98101
0.851172 4.73501 3.4629 0.273873 -0.0174213 0.961608
-0.64702 6.34176 3.73483 0.124994 -0.118564 0.985048
-0.241234 6.86986 3.69603 0.151008 -0.0299421 0.988079
1.89324 4.02155 3.13285 0.369545 -0.000246579 0.929213
2.19554 3.02145 2.90517 0.612924 -0.122891 0.780527
2.55431 7.59424 2.77008 0.879406 0.00464652 0.476051
2.12235 7.48605 0.198274 0.947279 -0.134324 -0.290895
1.71029 4.07908 3.18756 0.256614 0.036403 0.965828
0.998959 7.31608 3.47054 0.286002 -0.0317594 0.957703
1.65804 4.43691 -0.667376 0.964187 0.0402817 -0.262147
2.13344 6.10432 0.513909 0.948494 0.145657 -0.281323
1.72241 4.65844 -0.297953 0.991912 -0.118934 -0.044337
1.13853 3.40111 3.41824 0.260082 0.0239927 0.965288
0.300116 7.6107 3.636 0.137063 -0.0453119 0.989525
2.1995 4.85319 1.07371 0.909139 -0.265476 -0.32092
-0.365021 7.9507 3.78001 0.15268 0.00751633 0.988247
1.61083 4.81152 -0.906826 0.949677 -0.123723 -0.287762
1.45648 3.90529 -1.26901 0.915857 0.0704709 -0.395271
2.2017 6.92951 0.670808 0.970859 -0.0624272 -0.231377
-1.27801 4.53582 3.66555 -0.151789 -0.149637 0.97702
-1.25573 4.03435 3.57365 -0.353703 -0.00598015 0.935339
0.4456 5.78591 3.54734 0.127743 0.0180304 0.991643
2.21906 5.35174 0.205042 0.922894 -0.242463 -0.29913
2.04585 5.6168 -0.513255 0.95695 -0.0680521 -0.282161
2.5949 6.20304 2.33766 0.98295 -0.101016 -0.153642
2.32671 6.6334 2.9589 0.59447 0.0309431 0.803522
1.75706 3.20407 -0.234825 0.983535 -0.177662 0.0330907
1.47842 4.19159 -1.16665 0.859586 0.0414573 -0.509306
1.56834 4.01091 -0.955922 0.968049 -0.0278054 -0.249213
-1.13817 4.84444 3.71779 -0.111311 -0.0406623 0.992953
1.86346 7.67766 -0.145392 0.973301 -0.0629624 -0.220727
-1.29573 5.34964 3.70726 -0.146156 -0.0243871 0.988961
0.629565 3.84114 3.49692 0.14127 -0.025411 0.989645
-0.151364 4.00088 3.61948 0.237322 0.017566 0.971272
0.573522 6.29534 3.56878 0.18831 -0.0506864 0.980801
1.69814 5.22033 -1.1731 0.789449 -0.544233 -0.283869
0.0585142 6.02343 3.68081 0.166197 -0.102535 0.980747
1.82486 6.58752 -0.150469 0.965546 0.023158 -0.259198
1.84534 7.91523 -0.422367 0.988153 -0.0687807 -0.137199
-1.02791 4.80139 3.72584 -0.0264954 -0.0544567 0.998165
2.13445 2.82096 1.54783 0.940203 -0.229775 -0.251439
1.81682 3.40183 3.11598 0.35177 -0.0890526 0.931841
1.79075 7.43675 -0.418574 0.980912 0.134717 -0.140228
1.85286 4.02761 0.108493 0.875127 0.0210752 -0.483435
2.06939 5.37429 -0.310688 0.821163 -0.546334 -0.164958
2.51546 6.02589 2.06749 0.975618 -0.091252 -0.199606
2.18659 3.74226 1.29315 0.943868 -0.0762288 -0.321407
1.84968 4.80693 0.0831335 0.847198 -0.247817 -0.469939
2.32945 4.12071 1.66202 0.977978 0.0185499 -0.207882
2.02058 4.07639 0.618539 0.974106 -0.101744 -0.201907
2.24996 6.12788 2.9771 0.507735 -0.066386 0.858952
1.67029 4.31402 -0.52859 0.995992 0.00060152 -0.0894381
1.8088 6.39029 -0.16185 0.973163 -0.202882 -0.108599
0.885882 2.92103 3.37574 0.13179 0.543888 0.828744
-0.431199 8.04201 3.79393 0.114579 0.0668529 0.991162
0.880863 6.49973 3.50533 0.320904 -0.0700868 0.944515
2.35042 5.74952 1.2023 0.96458 0.122125 0.233816
-1.24889 3.51642 3.62455 -0.453455 -0.093887 0.886321
2.51531 5.01831 2.71043 0.936463 0.0305182 0.349437
-1.03358 6.90239 3.75451 0.0533362 0.0572962 0.996931
0.998412 3.8943 3.44004 0.27826 0.0237899 0.960211
1.98327 4.60841 0.363447 0.944768 0.0487711 -0.324089
2.51329 3.91446 2.51162 0.991942 -0.0531369 -0.115014
1.98703 5.09296 0.000655461 0.717657 -0.523734 -0.458988
1.67952 3.78557 -0.649094 0.945245 0.05849 -0.321077
2.24595 3.65957 1.51146 0.957102 -0.0948487 -0.273788
1.79996 6.36677 -0.319402 0.974768 -0.185629 -0.123977
2.49151 4.77609 2.2122 0.981494 -0.056601 -0.182937
0.986683 5.53164 3.48729 0.257503 0.00394637 0.966269
1.62206 4.73581 -0.787275 0.983548 -0.119212 -0.135724
1.81525 3.34959 -0.0222469 0.932523 -0.200908 -0.300061
0.118911 6.88008 3.65744 0.121027 -0.0554005 0.991102
2.22011 5.13476 2.94938 0.469488 -0.0505227 0.881492
-0.430494 7.26967 3.75374 -0.0189611 -0.0412513 0.998969
0.945953 4.73003 3.43498 0.280665 0.0124684 0.959725
1.75084 3.21449 -0.392975 0.981232 -0.0242448 -0.191303
1.82581 6.52319 -0.15261 0.965428 -0.0243365 -0.259533
-0.436267 4.57689 3.64343 0.0208123 0.0182616 0.999617
-0.991845 2.82231 3.56121 -0.112313 -0.0307932 0.993196
2.50539 5.12663 2.71684 0.936615 0.00428452 0.350334
1.94405 3.1632 0.398385 0.974748 -0.145871 -0.169079
2.53803 3.92374 2.74517 0.965302 0.000497487 0.261136
-0.915854 7.39905 3.74983 0.0241599 -0.166343 0.985772
2.39234 4.04008 1.95723 0.981653 -0.0217888 -0.189426
-1.01786 2.96308 3.56678 -0.118968 -0.0558154 0.991328
1.96049 8.16296 0.142151 0.890186 0.267008 -0.369156
0.0338024 4.35206 3.59327 0.168706 -0.0239268 0.985376
0.14513 5.26709 3.57451 0.111783 -0.0593189 0.991961
1.19476 5.58748 3.4161 0.332021 0.0248063 0.942946
-0.152568 2.86965 3.54467 0.18305 0.353296 0.917428
2.27941 6.24627 1.06752 0.965762 -0.0320045 -0.257448
1.79804 4.05005 0.0149073 0.882547 -0.00384315 -0.470208
-1.09895 7.00109 3.75913 0.083384 0.0479077 0.995365
2.55467 4.77606 2.53928 0.998414 -0.0114812 0.0551155
1.37914 6.97981 3.32729 0.340983 0.0101215 0.940015
2.21631 3.48181 1.37504 0.966591 0.0193242 -0.255594
1.8245 7.80833 -0.423443 0.972519 -0.149643 -0.178366
1.62687 4.10922 -0.71429 0.952768 -0.0802845 -0.292896
1.57309 3.62107 3.23562 0.346778 -0.00798294 0.937913
1.78756 3.01889 0.0843243 0.866497 -0.119355 -0.484703
-0.492467 3.36307 3.57936 0.116276 -0.337549 0.934099
1.90877 4.75954 0.216895 0.881596 -0.155366 -0.445701
-0.370562 5.03181 3.66129 -0.0716089 -0.0361124 0.996779
1.69544 3.30153 -0.583775 0.994626 -0.0224072 -0.101083
2.12515 5.24589 0.0677786 0.816743 -0.385943 -0.428928
2.37818 5.6081 1.11343 0.986554 -0.0802229 0.142392
2.12566 7.55999 0.18266 0.938174 -0.0875146 -0.334919
2.4197 7.11977 1.33916 0.967611 -0.0762968 -0.240639
2.55361 4.71564 2.52803 0.998955 -0.0455012 -0.00429981
1.3142 7.03491 3.35429 0.31106 -0.0409571 0.949507
1.86747 3.00657 0.162563 0.83815 -0.132902 -0.529001
2.05525 4.27986 0.745175 0.972673 -0.0345718 -0.22959
0.194029 7.31452 3.62907 0.178095 -0.012603 0.983933
1.89977 5.20913 -0.41426 0.921467 -0.378835 -0.0859209
1.66161 5.20703 -1.26357 0.795949 -0.55518 -0.241332
2.3755 3.19344 2.12331 0.990042 -0.11298 -0.0839845
2.14676 3.36661 1.05509 0.983023 -0.039722 -0.17913
0.721156 5.01298 3.51167 0.230337 -0.0343562 0.972504
1.54291 3.45025 -1.24347 0.9371 0.111763 -0.330687
-1.07114 5.7569 3.7378 -0.100223 -0.0831644 0.991483
-0.711168 8.19696 3.7589 0.0253466 0.11997 0.992454
1.82045 7.56596 -0.226896 0.955428 -0.0707579 -0.28662
2.25739 5.157 0.417404 0.866228 -0.388398 -0.314317
2.62638 6.89995 2.60571 0.967011 -0.046219 0.250507
1.76766 6.11575 -0.209334 0.995849 -0.017313 -0.0893612
-1.05479 3.82853 3.67157 -0.172629 0.00974149 0.984939
0.411159 4.71589 3.54064 0.128353 0.000524671 0.991728
2.07092 3.29223 0.712314 0.959365 -0.0897572 -0.267512
2.32226 5.14972 1.14511 0.964087 -0.250702 0.0876633
2.23965 3.42775 1.4453 0.967043 -0.00278825 -0.254598
2.12395 5.79271 3.05014 0.421998 -0.0538111 0.904998
1.72306 3.36819 3.17083 0.394777 -0.0858736 0.914755
1.81754 5.37015 -1.12966 0.791354 -0.55869 -0.248243
2.22957 3.02187 1.6 0.933987 -0.194813 -0.299526
2.19205 5.35758 0.112138 0.891049 -0.286904 -0.351736
-1.30031 5.63923 3.69701 -0.212782 0.0412203 0.97623
-0.725582 7.52736 3.77052 0.022359 -0.19578 0.980393
1.57038 4.28927 -0.986368 0.95309 0.0250368 -0.301651
-0.511263 7.57612 3.77472 0.0520625 -0.127778 0.990435
1.92482 3.85936 3.11861 0.40229 -0.0399623 0.91464
2.10843 2.97196 1.11832 0.969978 -0.133532 -0.203253
-0.0638145 4.43283 3.60007 0.22453 -0.0200578 0.974261
1.65447 3.69628 -0.702304 0.926348 0.00354511 -0.376652
-0.322669 8.07499 3.76969 0.137261 0.0755301 0.987651
0.0129425 7.43058 3.65697 0.227627 -0.00561162 0.973732
2.44393 6.61106 2.86838 0.670462 0.0266187 0.741467
1.01692 6.92483 3.44035 0.292255 0.0353205 0.955688
-0.660105 4.74794 3.68704 0.16598 0.025987 0.985787
0.901935 6.66785 3.50793 0.276403 0.0114371 0.960974
1.99761 3.05769 3.02323 0.404372 -0.0706357 0.911863
2.18053 7.79913 0.364179 0.97834 0.0337354 -0.204238
1.89465 3.69855 0.201206 0.919385 0.00263754 -0.393351
0.297967 6.20134 3.64405 0.272018 -0.090939 0.957986
2.31256 5.08323 1.08574 0.942745 -0.33265 0.0240175
2.44128 7.39275 1.43793 0.977123 0.0188356 -0.211841
-0.139155 7.40281 3.70995 0.258356 0.00353771 0.966043
0.653643 3.38559 3.4757 0.203485 -0.176785 0.962985
2.12692 3.22117 1.14372 0.968999 -0.140877 -0.202965
2.50116 5.56813 2.07386 0.97977 -0.0108596 -0.199834
-0.68972 4.06773 3.67844 0.0550189 0.0786201 0.995385
-0.537258 7.66775 3.78845 0.0928527 -0.102838 0.990355
2.06321 4.24094 3.04955 0.414635 0.0524266 0.908476
1.64647 3.9681 -0.639833 0.944696 0.0592982 -0.322542
1.54631 4.28627 -1.04443 0.914471 0.00312766 -0.40464
2.37021 5.7504 1.61867 0.969517 -0.026128 -0.243626
2.06479 4.4214 0.742756 0.973451 -0.0323836 -0.226593
1.69895 3.4496 -0.686822 0.962242 0.170329 -0.212318
1.90343 4.27318 0.178718 0.827509 -0.0251213 -0.56089
-0.350168 3.37422 3.56879 0.0979346 -0.461168 0.881891
0.87565 7.46607 3.52082 0.271976 -0.0685145 0.959862
1.57574 7.47199 3.27393 0.349403 -0.017328 0.936812
1.69894 4.46407 -0.44675 0.987648 -0.0711749 -0.139594
1.7068 4.57631 -0.394443 0.988568 -0.0086673 -0.150529
2.17861 7.72836 0.340234 0.972574 -0.0136937 -0.232189
1.14582 7.08237 3.41276 0.278751 -0.0643745 0.958204
0.502719 2.94643 3.46856 0.197643 0.388699 0.899917
1.07822 3.72796 3.40226 0.294667 0.00451343 0.955589
2.26149 7.21853 0.709428 0.969671 -0.113678 -0.216369
0.521303 4.92129 3.52639 0.108931 -0.0222409 0.9938
2.39231 6.53321 1.44925 0.981193 -0.0518479 -0.185934
1.61505 4.65912 -0.801921 0.982055 -0.0717405 -0.174416
0.425529 4.22085 3.54278 0.0626571 -0.0810289 0.99474
-0.193452 8.07457 3.74942 0.20576 0.0192561 0.978413
2.15695 3.94045 3.01913 0.368767 0.00239694 0.929519
2.47798 4.55399 2.19434 0.977259 -0.0953877 -0.189384
1.51659 4.38376 -1.11853 0.884824 -0.0957386 -0.455983
-1.08428 3.95812 3.66152 -0.249495 0.0280295 0.96797
2.07468 7.24593 0.150334 0.896118 0.0318971 -0.442669
2.42257 6.54701 1.62386 0.971771 -0.033438 -0.233546
2.11828 5.61594 -0.338046 0.978854 -0.0596789 -0.195659
-1.20054 4.46057 3.66787 -0.167083 -0.152549 0.97407
-0.809864 3.729 3.6506 0.0637081 -0.13186 0.989219
0.0488873 6.11378 3.68584 0.146437 -0.0373467 0.988515
-0.919166 6.46175 3.78115 0.00598166 0.016471 0.999846
2.49923 5.63427 2.03579 0.973334 0.00134436 -0.229388
2.61304 6.81143 2.38084 0.990418 -0.0494483 -0.128947
2.25269 6.56188 3.00286 0.569579 0.0401704 0.820955
1.70244 7.08818 -0.770761 0.965387 -0.037762 -0.258073
0.498666 4.05672 3.52786 0.0730136 -0.0570429 0.995698
0.884251 4.14704 3.4247 0.249827 0.114131 0.961541
0.161283 5.7938 3.62634 0.278109 -0.0383116 0.959785
1.18314 3.09009 3.28277 0.145369 0.0180442 0.989213
2.26874 7.56933 0.702433 0.956887 -0.0269206 -0.289211
0.8808 6.41342 3.49458 0.340046 -0.0791404 0.937073
2.09203 2.84998 1.20575 0.968521 -0.148182 -0.200021
1.73896 7.18142 -0.696335 0.959726 -0.047402 -0.276911
1.69679 3.82437 -0.575789 0.959038 0.101703 -0.264391
1.41253 6.32536 3.33427 0.340828 -0.0435147 0.939118
2.19051 3.1149 1.40751 0.952247 -0.174371 -0.250642
-1.10815 5.83141 3.74236 -0.135332 -0.0592566 0.989027
2.03112 8.20968 0.479109 0.883376 0.454444 -0.114573
2.49686 5.78464 2.02577 0.972824 -0.0257885 -0.230106
-0.0136178 5.65288 3.66369 0.182672 -0.0214443 0.98294
2.38826 6.93534 1.30526 0.949431 -0.0962461 -0.298862
1.37717 4.39625 -1.4208 0.908379 -0.0709797 -0.41208
0.406638 3.91303 3.52872 0.0193069 -0.00948383 0.999769
2.28203 7.12181 0.903946 0.97236 -0.137629 -0.188612
2.03808 5.48756 -0.525373 0.943693 -0.149689 -0.295021
2.18666 6.08469 3.00971 0.493381 -0.0614316 0.867641
2.10525 3.67251 3.01324 0.385631 0.000822871 0.922653
0.0747093 3.75487 3.58057 0.233444 -0.000304017 0.97237
2.35315 4.43439 1.76218 0.972095 -0.0648558 -0.225444
2.21039 6.28608 0.773115 0.977555 -0.00934152 -0.210472
1.65196 4.89593 -0.820693 0.918231 -0.33575 -0.210059
1.36547 4.74761 -1.49662 0.973899 0.0452741 -0.22242
1.54198 5.27717 3.26808 0.363033 -0.0198525 0.931565
2.20475 6.18408 0.786823 0.975274 -0.0113436 -0.22071
2.26159 6.08531 0.988715 0.947696 0.229856 -0.221445
1.64609 4.50356 -0.679598 0.958972 0.0563946 -0.277836
1.10751 4.57526 3.39342 0.256942 -0.0258053 0.966082
0.174339 3.26262 3.11786 -0.262999 0.888219 -0.376695
1.81087 4.69867 0.0739333 0.864523 -0.158243 -0.477031
1.73038 5.2832 3.2026 0.348431 -0.044955 0.936256
0.208058 5.69059 3.6161 0.263914 -0.0154635 0.964422
1.60564 4.53358 -0.796955 0.966243 0.00755772 -0.25752
1.0837 7.81495 3.46066 0.268886 -0.00216331 0.96317
1.93388 2.90762 3.03624 0.378559 -0.0524423 0.92409
1.37423 2.87372 3.25118 0.314272 0.109884 0.942952
2.29809 5.21821 0.46285 0.94145 -0.177211 -0.286823
2.10397 4.05587 0.928838 0.961862 -0.042066 -0.270283
1.43615 4.45776 -1.28182 0.891762 -0.0681988 -0.447336
2.03443 3.01247 0.795925 0.966804 -0.15011 -0.206776
1.46831 6.73102 3.33695 0.353971 0.0777346 0.93202
2.26386 7.02842 0.903648 0.970789 -0.12718 -0.203457
2.52093 5.20229 2.20251 0.992707 -0.0588396 -0.105216
2.54716 4.8365 2.52149 0.998997 0.0373286 0.0247434
1.70551 4.07431 -0.326197 0.999708 0.0240161 -0.00270435
2.20988 7.71865 0.541685 0.973398 -0.00714142 -0.22901
1.06475 7.39351 3.44749 0.29289 -0.0259702 0.955793
0.112758 6.77875 3.64775 0.114915 -0.0557729 0.991808
-0.696401 3.88965 3.67529 0.0272365 -0.10323 0.994285
-0.237362 6.97893 3.70555 0.152835 -0.106797 0.982464
2.06574 5.3704 -0.194003 0.849079 -0.519719 -0.0946435
-0.368835 5.71596 3.71515 0.107081 0.0254061 0.993926
-0.873399 6.25723 3.7691 0.0822129 -0.0541697 0.995142
2.04141 4.30223 0.661215 0.981725 -0.0361885 -0.186834
1.06338 7.70927 3.46656 0.308436 -0.0249805 0.950917
1.74847 4.81835 -0.158866 0.973745 -0.202298 -0.104383
2.53116 6.81553 2.78948 0.812858 -0.0416315 0.580972
2.28747 6.77229 0.975124 0.97937 0.032262 -0.199482
-0.849057 5.97942 3.77157 0.0635619 -0.0479454 0.996826
0.281552 7.71667 3.64512 0.130378 -0.0381775 0.990729
1.79007 4.00821 3.16532 0.294907 0.0320992 0.954987
0.133246 4.99445 3.59916 0.191685 0.00989649 0.981407
1.5949 3.85814 -0.916001 0.972067 0.0370194 -0.231767
2.12179 5.64154 -0.263591 0.996147 -0.0725819 -0.0492255
0.211554 6.5057 3.65245 0.140251 0.0838882 0.986556
1.09898 4.43776 3.3905 0.207642 -0.058875 0.976432
2.12669 7.63588 0.18179 0.929952 -0.0499286 -0.364276
1.79113 7.07091 -0.468418 0.986939 -0.101598 -0.125018
0.210602 3.71352 3.53099 0.20301 0.0385481 0.978418
2.17276 7.86719 0.311897 0.960476 0.117002 -0.252578
1.74506 6.10158 -0.549261 0.978188 0.0425028 -0.203329
-0.725849 3.46845 3.61683 0.0900849 -0.0890384 0.991946
1.36603 5.17249 3.33718 0.332614 -0.0149263 0.942945
2.43199 6.04669 2.86057 0.685798 -0.0802453 0.723355
-0.0814833 8.049 3.72632 0.222236 0.00579627 0.974976
1.37187 7.14918 3.35695 0.323243 -0.0889121 0.94213
0.00365874 4.70722 3.60853 0.214961 -0.0728368 0.973903
2.31159 7.27033 0.967088 0.979003 -0.0795329 -0.187692
2.17424 6.67307 0.530322 0.969962 -0.0153226 -0.242774
2.25624 3.39772 1.53088 0.969231 -0.0186725 -0.245443
1.72879 4.2541 -0.216723 0.970312 -0.0732958 -0.230482
-1.27657 5.28478 3.71269 -0.0918325 -0.0398055 0.994979
1.75626 3.16185 0.0587191 0.911017 -0.169359 -0.375986
-1.06515 4.19858 3.66964 -0.136967 -0.00483612 0.990564
1.62514 4.32678 3.20155 0.296159 -0.0167461 0.954992
2.63853 7.84003 2.14677 0.977388 -0.0302305 -0.209282
1.37688 4.91087 -1.40847 0.955985 -0.0710256 -0.28469
1.65421 3.3331 -0.897445 0.940087 0.0589842 -0.335794
1.94936 3.19253 0.328307 0.965778 -0.151843 -0.210275
1.7728 7.48939 -0.499816 0.985468 0.0776546 -0.151071
1.52675 3.13458 3.18031 0.293957 -0.108069 0.94969
2.3164 7.72096 0.831655 0.971299 -0.00921749 -0.237683
-0.714288 7.13242 3.70677 -0.0121583 -0.000758871 0.999926
2.38458 2.89766 2.36365 0.991339 -0.0991084 -0.0861619
2.062 6.73465 0.218604 0.898224 -0.164863 -0.407448
0.18495 7.49395 3.63842 0.126415 -0.0530607 0.990557
2.37019 6.28169 1.43576 0.974922 -0.0439031 -0.218175
-0.0320861 4.82379 3.63057 0.225052 -0.0769701 0.971302
-0.408041 5.28336 3.67832 0.0181755 -0.068485 0.997487
0.942386 6.98797 3.46775 0.290732 0.013627 0.956708
1.87041 3.59579 3.1209 0.347262 -0.0488632 0.936494
0.0109799 5.56244 3.65768 0.217169 -0.0941857 0.97158
1.6245 4.84106 3.22669 0.378987 -0.0123144 0.92532
-0.338407 6.91769 3.70888 0.113983 -0.0603075 0.991651
2.1082 5.68434 3.04051 0.401736 -0.0473914 0.914529
0.587361 4.09724 3.51575 0.183498 -0.0324636 0.982484
2.42238 3.40846 2.81467 0.606373 -0.259668 0.751588
-0.169755 7.32122 3.72989 0.232262 -0.0164939 0.972513
1.25825 4.09976 3.33909 0.357022 -0.0213648 0.933851
2.19656 5.02533 2.95023 0.46218 -0.0054232 0.886769
2.10599 4.77795 0.88233 0.932621 -0.137482 -0.333643
-1.28242 4.69435 3.69019 -0.147777 -0.102769 0.983667
1.74807 3.5129 -0.260929 0.990854 0.0845105 -0.105197
0.150483 4.36804 3.58101 0.114476 0.00124606 0.993425
2.03173 3.31049 0.566085 0.951811 -0.100488 -0.289755
0.787679 6.56948 3.54685 0.23886 -0.00704057 0.971028
2.14193 6.86261 0.394122 0.966255 -0.0874504 -0.24229
2.17893 7.58381 0.372019 0.968646 -0.106982 -0.224231
1.67924 4.17718 3.18711 0.277611 0.0254287 0.960357
1.40083 4.94588 3.32072 0.330261 -0.0471242 0.942713
-0.73238 7.01671 3.71461 0.0145123 0.0458265 0.998844
2.04122 7.97711 0.129202 0.807401 0.302851 -0.506345
2.51185 5.25349 2.10577 0.98779 -0.0347426 -0.151871
0.211864 8.0364 3.66164 0.157479 -0.0473389 0.986387
2.36726 3.19055 1.96574 0.985207 -0.111046 -0.130522
2.37551 3.21917 2.04595 0.990185 -0.112484 -0.0829463
1.52913 4.58831 3.25141 0.317087 -0.0562716 0.946726
0.764126 5.37706 3.52842 0.198142 -0.0865905 0.976341
2.13772 7.39883 0.36654 0.966574 -0.116376 -0.228455
2.42955 6.92431 1.46968 0.980994 -0.109508 -0.160186
2.23686 6.31439 3.0142 0.509599 -0.0356029 0.859675
2.26823 3.57902 1.6222 0.957577 -0.0502566 -0.283761
2.37103 5.52768 0.911651 0.994898 -0.08116 -0.0599223
2.20638 3.41338 1.29039 0.972981 -0.00139358 -0.23088
1.6853 2.94308 -0.247989 0.953206 -0.301676 0.019736
2.10289 3.22519 0.909314 0.968325 -0.181883 -0.171069
2.344 5.13291 0.999517 0.941632 -0.33597 -0.0213064
1.69747 2.99168 -0.213839 0.96631 -0.255793 0.0285315
2.1315 5.73282 -0.214526 0.995094 -0.0828597 0.0540655
1.86605 5.5006 -1.27961 0.909686 -0.245403 -0.335034
0.0381492 4.11956 3.56548 0.243513 -0.0619156 0.967919
1.69563 2.95196 -0.306965 0.939978 -0.339713 0.0321908
1.5951 4.01831 -0.800213 0.974957 -0.0151195 -0.221881
2.38659 4.50415 1.8578 0.968519 -0.0869147 -0.233274
1.71476 6.19894 -0.582019 0.96756 0.0520691 -0.247219
0.676079 3.93909 3.49586 0.159418 -0.0147138 0.987102
2.0593 5.67861 -0.487255 0.949993 -0.0750082 -0.303129
1.34248 4.91701 -1.52316 0.956783 0.0913318 -0.276087
2.69753 8.0101 2.40921 0.994459 0.098703 0.0361858
2.35645 6.3282 1.3624 0.97327 -0.0546886 -0.223057
0.397894 7.73607 3.61703 0.154964 -0.036667 0.987239
2.5481 5.82045 2.31501 0.990593 -0.0303307 -0.133439
1.99389 4.37877 0.404283 0.976536 -0.0126594 -0.21498
1.93488 4.82329 0.251275 0.877505 -0.22678 -0.422558
1.49019 3.57717 3.26253 0.343024 0.0143061 0.939218
1.96485 2.85807 0.621146 0.941887 -0.164713 -0.292778
1.93726 3.97851 0.317747 0.957061 -0.0243806 -0.288859
1.70765 3.34117 -0.687698 0.995496 0.0337722 -0.0885869
2.38549 3.27944 2.16026 0.991778 -0.103036 -0.0758984
1.59027 3.61887 -0.828558 0.955242 0.102965 -0.277329
1.79407 7.55057 -0.305455 0.969145 -0.0327607 -0.244306
2.12419 3.1135 1.19548 0.964035 -0.129528 -0.232074
-0.731955 7.43594 3.7478 0.0130193 -0.185191 0.982616
0.721515 5.13859 3.51032 0.194817 -0.042518 0.979918
1.62784 5.20595 -1.44457 0.752791 -0.647068 -0.120867
0.975581 5.3229 3.45387 0.271833 -0.134244 0.952935
2.49783 5.47005 2.71629 0.888585 -0.101644 0.447309
-1.14192 4.22827 3.66121 -0.234493 -0.125419 0.963993
2.11725 6.52849 0.376049 0.913268 -0.0467631 -0.404666
1.88482 2.87215 0.332183 0.925478 -0.289122 -0.244741
1.73414 3.79404 -0.0843001 0.92277 0.0975193 -0.372807
1.76473 7.79268 -0.665396 0.971391 -0.110014 -0.210468
1.91227 5.72905 3.13199 0.376024 -0.065144 0.924317
2.24599 6.45481 3.00737 0.542716 0.0125381 0.839823
-1.0278 6.02664 3.76269 -0.0925488 -0.0504752 0.994428
2.42582 3.13977 2.6693 0.975929 -0.131954 0.17364
2.22456 4.37152 1.30559 0.94288 -0.0617575 -0.327358
0.889015 6.59161 3.51184 0.302371 -0.0258842 0.952839
1.67521 4.23313 -0.552424 0.989417 0.0589456 -0.132588
1.181 3.89319 3.36676 0.376384 0.0168609 0.92631
2.14098 5.43609 3.02383 0.459661 -0.0567905 0.886277
2.05123 4.43354 0.667686 0.976908 -0.0357813 -0.210643
2.10936 5.65897 -0.160577 0.996261 -0.0630384 0.0590697
1.96144 4.44007 0.262915 0.923124 0.0164526 -0.38415
2.53907 6.48048 2.74502 0.850865 -0.0375109 0.524044
2.17341 6.4133 0.576224 0.980765 -0.0337748 -0.192246
1.24551 5.78991 3.39321 0.265697 -0.0173928 0.9639
1.73763 3.382 -0.403686 0.975271 0.0447844 -0.216426
2.0416 4.69245 0.661149 0.979298 -0.0334487 -0.199641
1.66883 2.90463 -0.518053 0.954707 -0.281438 -0.0965782
2.23046 6.33181 0.868926 0.970284 -0.011215 -0.241708
1.59573 4.46188 -0.832834 0.963803 0.0424606 -0.263214
-0.145689 5.98723 3.69985 0.0167031 -0.0754159 0.997012
1.76766 6.10126 -0.386654 0.995181 -0.0155854 -0.0968065
0.739924 7.89013 3.54985 0.233057 0.0318836 0.97194
2.5447 5.91648 2.28251 0.98168 -0.0753724 -0.174994
-0.498965 3.46051 3.60321 0.034935 -0.171239 0.98461
-0.971902 6.12759 3.77033 -0.00804389 -0.019771 0.999772
2.33182 5.70495 0.448299 0.983136 -0.0123821 -0.182456
2.22858 5.97789 0.487214 0.812666 0.526805 -0.249099
2.1676 4.94068 0.899352 0.850117 -0.451504 -0.271008
-0.499606 6.27854 3.69891 0.0601614 -0.150297 0.986809
1.84119 7.89617 -0.308981 0.992633 0.00936405 -0.120799
2.41179 6.31702 1.61052 0.965847 -0.0400369 -0.256001
1.69501 3.04878 -0.648258 0.992905 -0.0952987 -0.0711184
0.449734 4.61912 3.537 0.127296 0.0248807 0.991553
2.53734 4.29081 2.79545 0.805278 -0.00660424 0.59286
2.28113 6.34781 1.05218 0.961934 -0.056398 -0.267398
-0.308581 4.05405 3.66049 0.140791 0.0235223 0.98976
1.5534 6.59522 3.30411 0.354814 -0.00405988 0.934928
-0.750541 4.13111 3.68623 0.0380639 0.154942 0.98719
2.23504 3.84553 2.99138 0.375054 -0.0421014 0.926046
1.55421 5.15526 -1.66396 0.74651 -0.659307 -0.0896563
2.00053 3.50141 0.511664 0.973009 0.0795147 -0.216637
0.337625 7.07838 3.62006 0.162497 0.0522236 0.985326
0.739241 3.42361 3.45994 0.216504 -0.168682 0.961599
2.55518 6.31853 2.10187 0.972019 -0.0436583 -0.230811
1.60491 5.1784 -1.42423 0.752791 -0.647068 -0.120867
-0.209203 4.28014 3.64418 0.196686 -0.0284463 0.980054
1.83738 5.99821 3.17634 0.335498 -0.019178 0.941846
2.07103 4.05547 0.822754 0.95703 -0.0794333 -0.278898
-0.861751 4.52509 3.66839 0.0584358 -0.237346 0.969666
1.68962 6.24012 -0.656523 0.965704 0.0665546 -0.250973
-0.154401 6.088 3.70589 -0.00414082 -0.0527012 0.998602
1.78112 5.11192 -0.869051 0.814859 -0.45354 -0.360979
-0.276446 5.7935 3.68514 0.0761575 0.053809 0.995643
2.38947 5.90119 2.89064 0.652215 0.0010913 0.758033
2.29486 3.75662 1.61027 0.95777 -0.144111 -0.248813
1.88082 4.59054 3.10599 0.425488 0.0116582 0.904889
-1.23551 3.88176 3.60076 -0.306812 0.0638796 0.949624
1.81435 6.81667 -0.21676 0.978922 -0.00205398 -0.204223
1.14286 7.18208 3.42458 0.280239 -0.0546174 0.958375
2.22571 6.24088 0.845658 0.975865 -0.00786736 -0.218235
1.81595 6.37593 -0.102699 0.940304 -0.205998 -0.270912
2.1941 4.74895 1.10331 0.92803 -0.145423 -0.342946
2.54952 6.90338 2.06886 0.971513 -0.0562121 -0.230222
2.21326 6.59886 0.765686 0.963361 -0.11526 -0.242179
1.43574 6.92059 3.30989 0.340744 0.0767886 0.937015
1.24659 7.11499 3.38419 0.293815 -0.0887222 0.951736
2.05821 4.15654 3.05708 0.426053 0.060866 0.902649
2.28342 3.3877 1.63141 0.965834 -0.0227043 -0.258164
-0.757628 6.17778 3.7401 0.185152 -0.0261294 0.982363
1.77483 3.85534 -0.0151658 0.872082 0.0124506 -0.489201
