2.4066 7.5 1.28441
1.23561 7.8421 3.38518
-2.15156 4.50373 -2.07827
0.727578 4.35569 3.49016
0.576624 7.34335 3.57783
-2.23144 7.20617 -0.10293
1.75387 4.17552 -0.147835
-1.08281 7.01002 -3.96737
-2.08959 4.34577 -1.44637
-2.14096 5.06289 -1.14534
2.21034 7.47111 0.584117
0.362553 6.74958 3.61537
-1.9417 6.58735 1.01912
-0.710448 7.25275 3.76455
-1.98422 4.63876 -3.65568
2.29016 5.0245 1.17121
-0.959901 3.12015 3.27139
2.15634 7.85291 0.535213
-2.18547 5.68316 -0.456434
-0.358317 7.35705 3.73225
1.66323 4.27165 3.22585
-1.75004 4.81335 1.32645
1.71348 7.61858 -0.567161
0.326308 5.42095 -4.08677
2.32811 5.39382 1.00048
1.9756 4.0386 0.502466
2.51433 5.44795 2.60667
2.36119 5.24392 1.33882
2.55101 5.84301 2.40142
1.9653 7.39338 -0.0601113
-0.482357 3.38977 -3.78955
0.738189 4.3386 -4.05263
-1.62782 5.89043 -3.87957
-1.99255 4.26638 -3.61603
-2.24848 5.82131 -1.44853
-1.8793 4.57122 0.718576
0.464201 5.78505 3.58169
-2.20964 6.2994 -0.181969
-2.28202 6.17865 -1.34643
2.307 5.66916 0.698328
-2.06487 3.87586 -1.52989
-2.05455 3.51098 -1.27123
-1.69461 4.99451 -3.79076
-0.824604 6.46886 -3.99199
-1.84284 5.43594 1.14307
0.318616 6.32129 -4.15122
1.85782 6.47636 -0.210728
-2.24286 4.73933 -3.28916
1.1162 6.07576 3.42768
-1.9713 5.90068 0.800734
0.563231 5.79744 -4.13619
-1.98635 3.44773 0.0280281
1.83603 6.08417 -0.812624
-1.84031 2.85823 1.04308
0.466454 6.73992 -4.19622
2.39603 3.12021 2.24438
-2.10542 6.10694 -3.63112
-2.12297 7.91113 0.152136
1.81754 7.36831 -0.393049
2.49088 6.38144 1.85935
-2.35646 5.98958 -2.73114
0.635033 2.87331 -3.94385
1.41458 4.48191 3.2997
2.24891 6.69291 0.828223
1.3794 4.11234 -1.38816
-0.805663 7.29006 -4.03882
-0.718844 2.85544 -3.58281
2.37861 7.83388 1.27219
-2.16425 5.68217 -3.57478
-0.596447 4.14997 -3.91014
1.83922 8.40671 0.157342
2.49345 7.44008 1.6679
2.0521 5.45574 -0.239666
-2.14348 5.26305 -0.79577
1.69782 8.2509 -0.300963
-2.23258 5.80369 -1.1496
-2.12492 7.66067 0.291883
1.99968 4.65007 0.422072
0.698304 6.00191 3.53688
2.54396 7.02186 1.88422
1.51152 4.75529 -1.22207
-0.104905 7.06636 -4.14673
-2.10322 4.65515 -1.26849
-2.07745 5.44724 0.156692
-0.204662 4.04553 -3.96153
0.328578 3.21161 -3.92529
-0.865551 4.43453 -3.90064
2.033 7.87561 0.23095
0.0867235 5.84514 -4.09955
-2.16465 6.46292 -3.58152
2.03536 3.22011 0.777324
-2.01569 6.23082 0.717046
-1.22739 3.50885 3.13564
1.97124 2.83902 0.704196
-0.048801 5.65784 3.65689
1.99277 5.84486 3.13736
-2.03369 5.17428 0.169849
2.17922 6.19164 0.453318
0.0945795 7.93832 3.68816
-2.2923 5.99148 -1.97894
0.639968 5.05661 -4.07893
1.39097 6.35791 3.3505
-2.12657 7.0611 0.417414
0.103624 7.25444 3.67008
2.56795 7.46169 2.70875
-0.553139 3.02929 -3.70139
-2.19691 7.82057 -0.161702
-0.513934 6.85817 -4.06613
-1.87239 3.43825 0.748221
-2.07112 7.46321 0.542645
-2.332 5.60041 -3.01541
-0.555187 2.91243 3.53758
1.37083 4.54443 -1.476
-2.20916 5.38662 -1.62674
1.60082 3.28934 -0.867643
2.57073 7.69412 2.07811
2.33265 6.13827 1.1956
-2.01992 3.99936 -0.430655
1.25671 3.1622 3.29032
-0.377581 6.51357 -4.07497
-1.84876 3.03664 -3.30263
1.9421 3.13635 0.483006
1.67763 6.70289 -0.802007
1.78951 6.33814 -0.65266
2.46305 7.92855 1.68307
-2.31623 7.65178 -1.18056
-2.08019 5.72689 0.302496
-2.0401 2.82244 -1.69582
-2.29701 6.88365 -1.03983
-0.0751408 2.86827 3.48489
-2.04534 3.23637 -1.04101
2.39388 6.06976 1.51818
2.43017 4.94601 2.7658
-2.29502 7.07427 -0.767337
-2.36712 7.16679 -2.15592
-0.396631 4.12389 3.64638
-2.03379 2.82323 -0.935645
2.28429 6.01949 0.720748
1.69218 5.63717 -1.2955
-1.92163 6.11701 1.03102
2.5188 5.99783 2.66673
0.771574 4.99018 3.48774
1.00759 7.43193 3.47009
-2.25972 7.46523 -0.285513
-1.9883 5.34524 0.494352
-0.29529 5.80437 -4.04316
1.71908 3.08587 -0.401596
2.34571 6.93954 1.14969
-2.32945 7.35635 -1.39486
-0.721027 6.17496 3.73141
1.44891 2.85309 3.11648
-1.92568 2.90631 0.464478
-0.111928 5.34018 -4.03116
-1.69284 3.41878 -3.64001
-2.00077 6.96278 0.859939
-2.16712 6.48411 0.142307
-2.10179 5.04761 -0.473796
0.906059 6.82188 3.49134
-1.19522 2.90833 -3.5427
2.14579 3.51031 1.0702
2.37192 5.66076 1.29488
2.25407 6.37931 0.833322
-2.05156 3.88826 -1.17819
2.32161 7.23206 0.957186
1.31316 4.83201 -1.73942
2.33647 3.08755 1.89373
1.56687 3.95585 -0.912616
2.29006 4.64895 1.44513
1.46332 3.82432 -1.22957
-2.18098 6.9242 0.0802735
1.08935 6.40416 3.43991
0.53338 3.7403 3.47289
-2.31092 5.95505 -2.30591
1.8692 3.13036 3.1144
1.72429 4.89981 -0.604773
-0.698978 5.17984 3.69786
0.44455 4.73325 3.54582
2.60161 7.66786 2.40913
-1.17054 4.31987 3.66813
-0.643315 4.58653 3.67187
1.88119 3.39328 0.217663
1.49349 3.42625 -1.25254
-1.0355 7.00326 3.77483
2.38651 5.71627 2.86708
2.48832 7.99841 2.31344
0.433415 4.0469 3.5157
1.02577 4.27991 3.41752
-2.32693 6.45871 -2.03603
1.29042 3.66783 3.31791
2.30989 7.61465 0.951369
-2.34016 6.819 -1.80289
-2.14332 5.41341 -0.440261
-2.12969 3.3529 -2.62685
1.69089 5.03623 -1.04383
0.779788 3.92375 3.4397
-1.9755 2.80011 0.0308162
-1.08808 5.96826 -3.93447
1.76721 6.62932 -0.433736
0.0985901 4.80138 3.60589
1.89767 4.36945 0.285582
-1.9278 3.27618 0.415536
-2.03358 4.32246 -0.382483
0.197757 3.358 3.50119
-2.15851 5.05288 -1.46135
2.2236 3.64382 1.39323
1.38219 6.75316 3.35972
-2.05087 4.30599 -0.744012
-2.00884 7.97287 0.525534
1.76711 7.90969 -0.357984
-2.29542 7.62632 -0.812459
-2.07249 4.67286 -0.522978
2.37885 4.04617 2.84606
2.53949 4.59955 2.49167
-1.42095 7.15069 -3.92514
1.6105 4.72916 -0.892837
-2.19763 7.55632 6.11491e-05
2.54232 5.09767 2.36867
2.42181 3.40291 2.55777
-1.89617 4.89636 0.695105
-2.13825 8.14595 -0.27144
2.18283 4.59538 0.986706
2.18137 4.32609 1.1559
1.33988 3.68451 -1.54519
2.58938 6.8018 2.5087
-0.96866 3.74982 3.64166
1.99362 3.46393 0.569517
-1.24413 3.97719 3.66048
1.62739 7.2482 -0.691942
0.521289 4.03516 -4.0281
-2.04534 3.5937 -0.990795
-0.412707 5.8775 3.70764
2.03128 8.14063 0.3954
0.497771 3.16759 3.42693
2.31706 6.56692 1.10352
2.1469 6.4969 0.53253
-0.0158655 4.09051 3.58887
-1.948 4.16289 0.22077
1.34029 5.60992 3.35052
-2.25986 6.72887 -0.702086
-0.521858 5.52331 3.70325
2.06151 3.78639 0.777718
1.85975 4.6556 0.0747016
-2.06014 5.96157 0.474426
2.43899 7.10645 1.4903
2.30207 6.66023 3.0123
-2.00263 3.09824 -0.158587
-0.302405 5.05875 -4.00391
-2.1525 5.88067 0.00952067
-1.70182 4.11599 1.53704
1.50559 4.95665 -1.42556
0.726135 3.17103 3.38392
1.48672 4.82676 3.28775
-2.01768 3.69021 -0.267483
-1.27487 4.95231 -3.86131
-2.23094 5.37157 -2.00121
-1.81382 3.55122 1.01897
-2.37679 7.41048 -2.37055
-1.88585 3.06817 0.724727
-2.08117 4.60151 -0.937524
1.64355 4.56578 -0.630938
1.6056 3.53236 3.25216
1.75613 2.89326 -0.191774
-2.17665 7.475 -3.48475
-0.406498 6.55736 3.72019
-1.76549 3.3479 1.32021
0.0688489 6.60577 -4.13729
2.51273 5.24416 2.037
-2.3273 7.93433 -2.17426
1.44798 5.29269 3.31235
2.13992 8.21564 0.729811
2.47978 3.95169 2.13256
0.456351 3.53615 -3.98841
2.24939 7.06459 0.697963
-0.90094 3.79946 -3.80238
1.71992 5.63483 3.22843
-1.02567 4.1521 -3.83115
2.25726 5.74511 0.433538
-1.96158 5.02181 0.446519
-0.964836 7.61455 3.79531
-1.24526 6.30539 -3.94813
-2.10152 3.35399 -2.0839
-2.31468 4.31217 -2.99247
-2.32978 7.16605 -3.11628
-2.31301 7.77064 -1.51815
-2.2554 8.05984 -1.29052
-0.0653163 3.31797 -3.86297
1.74003 6.36168 -1.10466
-1.46188 5.45401 -3.87121
-2.07936 3.58606 -1.7341
-1.769 4.10485 1.17325
-2.23922 6.84188 -0.342632
-0.708596 5.73943 3.72808
2.1465 5.03466 0.471413
-0.399305 3.76653 -3.88302
-1.03299 5.38847 -3.90759
1.89028 8.0565 -8.80061e-05
-1.17378 3.79959 -3.79538
0.0894504 8.27774 3.70321
-0.558031 7.76983 -4.10766
-2.3211 5.08038 -2.75467
1.65487 3.69002 -0.642775
-0.429005 7.2721 -4.10599
2.3662 4.41281 1.70792
1.54931 3.07247 -1.08774
2.21385 4.64035 2.98162
1.97015 6.72249 0.119386
-2.0326 3.67812 -0.588615
1.66528 5.24588 -1.24519
-2.17513 4.98109 -3.4782
-2.03875 4.00153 -0.814942
-1.27656 3.29576 -3.68137
-1.91805 5.57102 0.89773
2.06823 5.8109 -0.126495
-2.06633 4.86254 -0.242144
1.81902 5.16136 -0.782871
0.694041 6.47946 3.54155
1.85497 6.17988 3.22538
-1.90147 4.33547 0.492443
-2.32654 6.57054 -1.65284
-1.8184 4.66661 1.01266
-2.01375 2.94705 -2.47744
-1.31463 4.84255 3.68625
1.8733 2.78817 2.9783
-0.527433 7.67572 3.7617
-0.317159 3.46557 3.57048
-2.27089 5.43791 -3.36134
0.120635 2.87719 -3.81932
2.04259 5.45292 3.10757
-2.05478 6.79846 0.650094
-2.23859 6.18089 -0.605762
-2.00862 3.79506 -3.5879
0.845378 3.57192 3.39906
2.09335 4.34826 3.09153
1.77631 3.28961 -0.172796
-1.85538 4.09158 0.675202
-2.03592 2.94265 -2.02732
2.51887 5.55357 2.04907
2.52833 4.31857 2.27046
-1.23978 5.58814 3.72092
2.10973 7.48862 0.270784
2.18917 5.27339 0.268002
1.87287 2.80963 0.315698
0.0267561 6.96481 3.67562
1.9152 5.72015 -0.687221
-2.13806 6.72711 0.298019
1.88089 6.16052 -0.426497
-1.86439 5.77668 1.15481
-2.17364 4.26814 -2.32357
1.52683 5.93144 3.29978
0.181328 5.42981 3.61584
-2.20979 4.4761 -3.47661
-2.13522 3.72378 -2.21842
0.236716 4.25924 -4.03914
2.3473 3.49127 1.79275
-2.19322 5.52264 -0.848315
-0.636227 6.07703 -4.00793
2.27585 5.38883 0.586345
2.15596 2.79633 1.50884
1.64037 2.9499 -0.703245
1.73458 6.96088 -0.492141
0.732196 7.71216 3.54864
1.7314 3.58746 -0.370857
2.0253 7.07619 0.137031
-2.25311 7.74944 -0.49567
1.80653 5.78177 -1.08925
0.391845 2.78527 3.40115
-2.01129 2.88796 -0.336694
-2.27498 6.50644 -0.868122
-2.31225 7.22763 -1.0072
-2.26457 7.91824 -0.998643
-1.74669 3.77508 1.32271
2.36598 3.9426 1.76204
1.58432 7.28478 3.30076
2.09905 2.97633 1.10388
1.83601 5.1152 3.15799
-2.25117 5.63346 -1.8505
-2.00926 5.64823 0.57731
0.137399 5.03835 -4.04834
1.50141 4.16832 -1.10955
-1.61568 3.84932 -3.73287
-0.821242 8.04502 3.80754
1.17539 7.16282 3.42108
-2.20185 6.65468 -0.0910426
-0.312365 2.94382 -3.72651
2.38123 5.01408 1.57563
2.35165 5.80976 1.08814
-0.0146716 6.1168 -4.10216
-0.407928 8.06791 3.76463
-2.35197 6.66832 -3.12477
-2.01983 3.36381 -0.394645
1.65825 4.04121 -0.557445
-1.82281 3.19396 1.056
-1.9642 3.11427 0.189814
0.979776 4.64629 3.42804
-0.75759 4.94275 -3.92633
-0.7003 3.26266 3.58204
2.09794 4.13662 0.876099
-1.95052 4.69804 0.396171
2.14894 5.03473 3.00604
1.56872 3.58147 -0.96748
-1.2195 5.19961 3.70582
2.50537 4.05953 2.57879
-2.29922 6.55297 -1.2479
-1.94697 3.56947 0.286335
2.44254 5.58943 1.71323
-1.37555 4.59764 -3.819
2.33079 2.91683 2.6066
2.16358 3.1957 2.9346
2.15957 3.82953 1.13888
-2.32507 6.24454 -2.44001
1.51305 4.519 -1.08456
-2.16474 7.29496 0.243633
1.75776 4.48593 -0.150022
-2.05089 8.21157 0.104195
-2.22315 5.90442 -0.742065
2.57098 6.24724 2.32195
0.0624079 4.58495 -4.02295
2.27067 7.93707 0.916749
2.16262 7.22037 0.429126
-2.21397 3.4656 -3.05885
-2.37248 7.11224 -2.64395
2.16935 5.59178 0.104087
-2.25553 4.6369 -2.61655
1.67841 3.37056 -0.550648
-1.9625 5.28001 -3.72646
-0.130039 5.28208 3.65269
2.39636 5.30743 2.82862
0.981718 2.92951 3.31251
-2.24509 6.5178 -0.473453
0.890307 8.12372 3.50164
-0.0575886 6.49155 3.67734
-2.35012 7.58864 -1.96479
2.46053 3.45117 2.22035
-2.35563 6.77868 -2.27533
1.88165 7.10889 -0.207058
-2.20006 5.98823 -0.294488
-0.165371 4.52201 3.63301
-2.12791 4.65099 -1.69719
2.37931 6.39269 1.45358
0.897308 5.74027 3.48244
-2.02752 4.54257 -0.14544
-0.216906 7.63604 3.7247
0.95515 5.29972 3.45405
-2.11714 4.28831 -1.86822
2.10036 6.82762 0.404508
2.02853 4.98471 0.199273
0.405918 7.62253 3.6204
2.32046 6.23096 2.97135
1.8502 6.7774 -0.211191
-0.567962 5.21068 -3.96653
0.0147523 3.72131 -3.94341
-1.75853 5.63476 -3.81296
1.74348 4.7187 -0.363863
-2.29889 7.40816 -0.662589
2.06151 3.91644 3.08429
-2.06055 3.1565 -1.61164
2.53599 7.8727 2.65515
1.91816 3.76358 0.311044
2.62457 7.14608 2.34956
1.8139 4.75246 3.19721
1.88485 7.67393 -0.18282
-2.04613 2.98381 -1.32683
0.62216 6.87912 3.56195
1.85749 4.92585 -0.18553
2.06073 3.58856 3.05561
-0.783336 3.38655 -3.75804
-1.84853 3.03662 -3.30288
-0.890087 4.22765 3.66434
0.128041 4.47266 3.61912
-1.12689 6.11654 3.7471
2.03046 6.38416 0.20216
-2.10607 4.90679 -0.769049
-2.04578 7.24308 0.67917
2.48595 6.44919 2.80693
-2.07605 6.48198 0.561393
0.639261 5.37964 3.53069
-2.01625 4.8395 0.0994943
-0.0762811 7.49422 -4.17548
-2.08688 5.20669 -0.127426
1.94898 5.42441 -0.587002
1.58112 4.29058 -0.791716
-1.8824 3.71333 0.647666
2.26693 5.10831 0.871154
-2.32958 6.98469 -1.47714
1.9811 5.70193 -0.462703
-2.07153 4.30823 -1.09225
-2.03428 3.3124 -0.689422
-1.75477 4.42062 1.25114
2.04582 5.22854 -0.093833
-2.21947 7.98926 -0.643897
1.81672 3.66431 -0.0110948
-0.431983 4.90377 3.67227
1.90394 5.13233 -0.397481
0.3441 5.0274 3.56861
-1.96377 3.57344 -3.49806
-1.8204 4.31801 0.910212
-0.640008 6.81627 3.74765
-2.21132 3.87685 -2.80952
2.13853 6.00501 0.176423
1.85439 3.97597 0.153779
-1.98482 4.49559 0.152317
2.47298 4.74471 2.00963
-2.21034 5.00176 -2.24464
-0.83177 2.98749 -3.62082
2.54476 6.73253 2.1076
2.28313 4.11992 1.54378
-2.37537 6.60046 -2.73249
-0.415544 4.60554 -3.97074
0.77506 5.38823 -4.10428
-0.134299 6.21732 3.68728
0.396203 4.64558 -4.04521
-2.13799 5.56599 -0.161936
-2.16923 6.12935 0.0720847
-2.27785 5.51969 -2.42722
2.03409 4.44722 0.631773
-2.16822 8.24479 -0.871482
2.39656 4.37651 2.83966
2.35662 3.62021 2.83263
-1.0246 6.54692 3.75593
2.2041 3.1596 1.39563
-1.92097 3.9311 0.363868
-2.09793 3.10319 -2.86691
-0.891731 4.76076 3.68813
2.51373 6.05292 1.92805
-2.10816 6.255 0.390708
-2.11099 8.29278 -0.481436
0.221737 6.03871 3.63313
-1.99684 4.14661 -0.125633
2.52249 7.06183 2.73923
-1.79174 5.10403 1.24032
2.29883 8.21253 1.23962
-0.426039 3.76062 3.60497
2.12259 4.75 0.701426
2.43547 6.80867 1.55927
-1.98158 3.82954 0.0557095
1.10998 5.08725 3.40281
1.83182 3.06037 0.0676969
-2.25137 6.14058 -0.942861
0.0539849 3.63415 3.54205
-0.339265 6.91819 3.72033
-2.30285 7.47917 -2.86041
1.72951 3.92315 -0.289122
-0.0945356 8.0033 -4.21149
-2.29719 6.22651 -1.63431
-2.19514 3.91503 -3.42404
0.335757 6.32635 3.61349
1.38925 3.99193 3.3098
-2.03463 3.002 -0.684656
-1.84663 4.98332 0.976084
0.350132 7.16227 -4.21066
-2.3171 6.06271 -3.24766
0.32692 7.6768 -4.25016
-1.51579 4.28816 -3.83712
-2.35199 7.28054 -1.69938
-2.10059 3.8313 -1.96875
1.68592 3.8188 3.24935
1.99232 6.17914 -0.0563892
-1.81034 3.8567 0.933411
-1.91 5.26071 0.810303
1.64163 6.68341 3.2798
1.67854 4.30596 -0.423673
1.46467 5.2299 -1.62186
-0.792302 5.68121 -3.94668
-2.19584 5.06855 -1.97485
-2.19117 5.42456 -1.18178
-2.26344 7.14608 -0.395518
1.81808 5.43192 -0.9645
