2.233 7.03169 0.762384
1.68085 4.4976 -0.562502
-2.04485 6.95345 0.635135
1.64439 4.64996 -0.639454
1.74351 3.59377 3.15927
-0.142441 3.05073 3.44269
0.288548 6.90543 -4.17033
1.9737 6.40755 0.0968386
1.70848 4.46932 -0.385184
1.73945 3.15826 -0.0365643
-2.22014 5.67951 -0.506492
2.34811 3.08809 1.9285
-2.0734 3.37464 -1.47282
-1.25631 3.66407 3.62016
-2.03903 4.41051 -0.189356
-0.313727 5.87797 -4.03416
2.24786 7.05545 3.00487
1.57366 3.69141 -0.966143
-0.239751 7.08987 3.72686
0.270674 2.85255 3.4835
2.49205 4.30371 2.451
1.99322 6.17365 0.128545
0.831145 7.69239 3.53913
0.691691 3.59678 -3.07157
2.28639 5.88113 0.39241
1.71368 4.6084 -0.338677
-0.2566 7.86307 3.75101
-2.28985 6.11668 -3.64403
1.96896 5.55381 -1.05293
1.88595 5.11412 -0.303186
2.50617 3.982 2.79127
2.35431 5.19252 1.04924
2.22781 5.41153 0.182071
-2.06571 3.10907 -1.06253
2.35765 5.55039 0.780314
0.808587 3.50669 3.4556
2.34703 5.27232 1.5484
1.33908 4.83661 -1.56449
-2.29236 6.85075 -3.68108
-2.12195 5.44802 -0.594135
-2.36153 6.68953 -2.35232
2.30698 6.30479 1.15501
-2.10793 4.10416 -1.84606
-1.99635 3.04261 0.231483
-2.18025 6.27349 0.0644472
0.533886 6.33167 -4.21714
2.22968 3.95839 1.30715
1.65526 6.06655 3.22661
-2.27214 6.56974 -1.2607
-1.69351 5.31456 -3.80986
-2.20947 7.28646 0.0303486
1.67778 4.85345 -0.619848
-1.23255 4.40593 -3.82449
-2.11344 5.37313 -0.281565
-0.89542 3.13113 -3.33168
2.12756 5.09993 2.99301
1.94896 4.93128 0.155442
0.20908 5.62846 -4.08464
-2.26191 6.45751 -3.63814
-2.14974 3.24454 -2.53931
-2.24084 5.41808 -2.64605
2.04071 3.3534 3.04576
-2.07003 3.53006 -1.93398
0.707279 2.90789 3.41338
-2.01856 3.6965 -1.08716
-2.02082 3.04247 0.150438
-2.04784 6.74309 0.57823
2.29833 6.00648 1.13372
-1.84868 5.53635 0.916802
1.7098 5.09042 -0.984031
2.26272 4.75829 2.97197
-1.82138 5.73246 -3.78831
1.76889 3.2434 -0.295261
2.46763 7.23798 1.62091
1.60823 4.08666 -0.775945
-1.59918 3.87755 -3.73065
-2.1988 5.72403 -0.657839
-0.765881 6.26876 -3.99085
1.96176 3.05503 0.548931
2.31189 6.0953 1.21051
-0.675197 3.28829 -3.79868
-0.0164159 7.08993 3.68072
1.21981 7.28716 3.40693
2.57309 7.01492 2.73525
2.35465 3.15216 1.91218
2.00942 3.92141 0.668407
1.74567 3.59327 -0.331286
1.49952 4.68007 3.2664
-0.996365 5.15196 -3.90308
0.130336 4.92046 -4.07549
-2.20233 5.71199 -0.571863
-0.595387 3.74796 3.65177
2.54555 6.18741 2.1214
-2.29825 7.02226 -0.798651
-0.375836 5.61652 3.70537
-2.30667 7.55642 -3.7091
2.27293 5.47678 0.320338
2.49685 5.35864 2.01927
2.13264 7.45964 0.264353
2.47692 6.76733 1.78827
1.93336 3.03272 0.323098
2.30673 5.97834 0.938047
2.53587 7.82518 2.78511
-2.12936 5.20337 -0.232967
2.47878 4.85132 2.0956
1.3081 5.65123 3.35925
-1.84849 4.18119 0.766135
2.39904 6.6289 1.47327
-2.33557 5.40564 -3.37139
-2.05889 3.90418 -1.21133
2.1186 5.76562 -0.391174
-2.33441 5.49972 -3.35986
0.515368 3.86087 3.52634
-0.916573 2.86819 -3.59403
-1.81321 3.98771 0.878324
1.68242 2.93217 -0.201093
2.67873 7.66406 2.44767
-2.0308 3.99258 -0.728259
2.12163 3.94147 1.00963
0.73247 3.85945 3.48895
0.711783 8.00598 3.56613
1.48443 3.8908 -1.19013
1.68429 2.98891 -0.566792
2.17452 7.51619 0.405215
2.17477 5.14063 0.272022
-0.495038 5.38169 3.68649
2.36046 5.72964 0.58992
-2.28341 6.92538 -0.8076
-1.01533 4.29082 -3.93007
-0.698716 5.03163 -3.93091
-0.590108 4.12435 3.65143
2.33977 5.61238 1.34134
2.50268 8.03678 2.74485
-1.94364 4.63486 0.403833
-2.03241 5.33504 0.361792
0.318523 6.10065 3.61581
1.93477 8.22654 0.117514
0.33358 3.73623 -3.988
0.634537 4.84677 3.51665
-1.75984 4.711 1.24519
0.118106 7.88063 -4.22323
1.70183 3.85643 -0.236481
0.513213 7.74063 3.60284
-1.9721 5.03109 0.504412
-1.9349 2.86688 -0.0608307
-1.92306 4.897 0.626883
-2.24341 4.98047 -3.60228
-2.17505 6.91331 -0.0529843
2.37741 3.46582 1.9162
2.0047 4.92561 0.333976
-0.386002 6.12177 -4.05923
-2.35738 7.20027 -2.50914
2.39928 3.21578 2.38413
-1.40801 4.84171 -3.77635
-1.93355 4.13224 0.32667
-0.266331 5.53122 -4.00766
1.86409 7.43346 -0.128996
-2.23917 7.35903 -0.289358
2.31902 5.22464 0.733385
-1.91848 5.90322 1.05028
-2.05208 4.01411 -1.13993
-2.02502 6.5503 0.683879
1.50955 5.58205 3.26593
-0.277662 3.73632 3.65496
-0.143892 4.88511 3.66689
0.0827001 4.0932 -3.99618
2.26043 3.28532 1.57956
-2.20939 6.67701 -0.223838
2.43511 7.50612 1.45342
-1.30076 5.52873 3.70568
2.13983 6.78043 0.402628
0.857667 3.21779 3.05036
1.32782 4.85493 -1.59166
2.41014 3.4177 2.18761
-1.37972 3.42218 -3.72339
2.61619 6.80895 2.61378
2.54887 3.78896 2.76117
-2.08872 5.24675 -0.0313351
-2.08359 3.42547 -1.78506
-1.27931 4.62757 3.68181
-2.13257 6.00748 0.323788
2.55649 6.03455 2.2979
-2.34303 6.98814 -1.70181
-2.30363 7.34434 -0.908925
2.54093 6.41402 2.05794
-2.26102 6.32002 -3.66222
-1.09837 3.69587 3.66123
-1.58186 4.88972 -3.76801
-2.01726 3.67636 -0.736606
1.8801 5.1669 -0.570993
-2.0474 4.25974 -0.418479
2.32861 7.2347 1.06447
-0.604593 6.55403 -4.04923
-2.13657 4.78893 -1.42846
-1.98873 3.23626 0.242393
1.65884 6.31336 -0.785362
2.24143 6.09385 0.911822
2.13291 2.91732 1.30669
2.05892 3.9363 0.824545
1.34707 3.62193 -1.61116
0.876526 2.94469 -3.84613
1.95073 4.06122 0.362097
-1.94079 3.44529 0.364839
2.02663 4.29657 0.557379
0.213759 8.12588 3.66983
1.67533 4.1013 -0.585335
2.09882 3.56271 0.941501
-0.0941441 6.28131 3.69684
1.45012 6.5387 3.33118
-1.02266 4.64143 -3.87347
-1.83865 3.56444 0.88942
1.93943 6.01553 3.14202
1.9973 5.14824 3.07807
2.3033 5.16434 0.709191
2.23025 5.24406 2.95123
-2.0328 3.55241 -1.09863
1.69876 2.94833 -0.393228
-2.28912 5.72268 -3.62615
-2.32077 6.4161 -1.62366
-1.8525 4.98976 1.19334
-0.682329 2.89764 3.58436
1.98873 8.31863 0.239782
1.72056 4.45409 -0.252829
2.63098 6.98219 2.61844
-2.32731 6.24492 -1.7088
1.69196 6.5944 -0.770045
-2.16095 4.9393 -1.246
-2.0659 3.55912 -1.42054
-2.03968 3.43414 -0.40827
-1.83593 3.57998 0.6635
-2.3211 6.27391 -2.30665
-2.09481 3.33146 -2.04169
-1.88836 4.51919 0.584825
1.49772 3.54433 -1.3094
-2.31848 6.80821 -1.61521
2.35153 4.65412 2.91961
2.17782 5.33011 2.98514
2.16246 7.44999 0.424022
-2.11718 4.50991 -1.90403
-2.01804 3.10817 0.119043
1.72186 3.5771 -0.45125
-2.023 3.47734 -0.76956
2.01045 2.84779 0.772113
0.180647 7.22769 3.63037
0.322718 7.80642 3.63684
2.14504 7.8178 0.222139
-1.47915 7.18508 -3.89494
-1.04772 3.62714 3.67252
-2.10396 5.72326 0.357424
-2.25904 4.8136 -2.9348
-0.360058 5.44536 3.67869
-2.31639 7.24829 -1.18115
-1.25931 4.6687 -3.82879
-2.33004 7.80379 -1.39177
2.27674 7.37925 0.753274
1.89966 5.2181 -0.540735
-1.71801 4.07127 1.39682
1.55096 3.12091 -1.1042
-2.35706 6.85192 -2.24451
0.601553 4.56429 3.51107
2.45916 7.43559 1.5338
-2.20151 6.66881 -0.404448
-0.724765 6.90551 3.72997
-0.0113099 3.57691 3.57061
1.93481 3.26885 0.254348
1.15564 2.82555 3.33517
-2.39376 7.5901 -2.56078
2.65299 7.35403 2.61673
-1.8854 3.33554 0.912536
0.511235 6.70039 -4.23577
-2.11412 4.91125 -0.939153
-1.92966 3.16673 0.524995
1.5986 4.94854 3.23932
1.53449 6.42628 3.30136
-0.994912 5.73442 -3.88554
1.56907 4.852 -1.01987
-2.29887 7.18308 -1.34111
2.0946 7.36453 0.181969
1.64607 6.25068 -0.83962
-1.80154 5.39979 1.08637
-2.02233 3.71649 -0.563508
-1.69233 4.12646 1.45951
-2.3261 7.23449 -1.0898
2.11997 5.16413 0.12771
-0.0511919 5.77135 3.66261
-0.586521 5.33955 -3.94464
-2.29932 7.89608 -1.1685
-1.86419 5.26821 0.998509
-2.30223 6.96914 -0.57945
0.534689 6.03544 3.56139
1.16064 6.07485 3.41537
-2.00688 2.86587 -0.649356
-2.13803 5.00826 -0.867251
-2.18945 6.69313 0.0607269
-0.485984 6.06943 -4.04193
1.78084 6.31573 -0.224517
-2.08625 3.02122 -1.81378
-2.06211 4.34406 -0.944524
-2.15719 3.22573 -2.80652
1.64303 8.17063 -0.221256
-1.83263 3.07877 1.10963
-2.19325 6.55686 0.015463
-2.07718 7.3617 0.634233
-1.99143 5.79685 0.690261
-2.39259 7.14113 -3.56086
0.298895 3.91632 -4.01169
1.8196 7.0632 -0.151898
0.510845 3.41451 -3.95404
-2.11712 3.17856 -2.24275
1.85541 4.39791 0.147745
0.0578393 4.79893 3.60265
1.07802 5.15614 3.40993
-0.529842 6.17565 3.6947
-0.450713 7.42537 3.75135
2.18378 3.56295 1.28745
0.890587 3.53537 3.44134
2.4953 5.37161 2.71081
-2.22614 5.76922 -0.442824
-1.33868 5.48153 -3.86612
2.19847 3.74551 2.98671
-0.859542 5.63968 -3.91202
-2.01912 4.68869 -0.0848834
1.66867 4.17415 -0.61142
-2.01976 2.81662 -1.29796
-2.32855 7.66129 -1.46835
-2.03954 4.0016 -0.320227
2.06772 5.5173 3.05397
-2.04878 3.23195 -0.748684
-1.88417 3.828 0.467901
-1.84759 5.34386 0.978818
1.51598 2.96573 3.17911
-1.97444 4.96399 0.486552
2.28422 5.33111 2.93108
-2.17581 8.13681 -0.864897
0.175637 5.16393 3.57906
1.58581 4.34152 -0.917426
-1.99191 6.13496 0.810481
1.61398 2.99282 3.14414
2.34648 5.41147 0.784608
1.70509 3.97438 -0.431006
0.706223 7.64887 3.57321
-0.926658 7.48966 3.75921
-2.18123 4.38964 -2.57745
0.756784 6.03389 3.52383
-2.28493 7.4268 -0.596257
-2.30079 6.74946 -1.02721
1.48916 4.17904 3.2398
-1.13032 4.33004 3.67764
-2.22678 5.63263 -0.353055
-2.19562 6.75631 -0.112831
-2.18778 3.23353 -3.565
-0.884901 3.47373 3.64027
1.52473 4.8584 3.26375
-0.444476 3.63593 3.63525
-2.04987 3.38139 -0.857132
-1.89996 3.97381 0.435443
1.33017 4.05742 3.30135
0.359288 3.82567 3.51514
-2.00452 3.48423 -3.6597
2.1131 5.54997 -0.367583
-2.06967 3.18812 -1.03165
1.74436 3.08659 -0.317763
-0.248206 3.63664 -3.8814
2.39729 5.22151 2.86677
2.2955 5.62543 0.259398
1.50811 4.85379 -1.1477
0.39097 6.19682 3.60305
-1.23318 3.29459 3.52541
-2.02269 4.00093 -0.915097
-0.148102 7.90138 3.73493
1.72007 6.94431 -0.71393
1.69082 3.96643 -0.228855
0.385806 5.13105 3.55144
2.15272 8.1697 1.18574
-2.3952 7.64415 -1.97903
0.13656 4.47644 -4.01098
-2.10114 3.07966 -2.01444
-1.80216 3.88104 0.983923
-2.17096 3.95448 -2.53436
-2.24275 7.0489 -0.458761
-0.0168885 3.71857 3.59306
0.871693 4.3875 3.41834
-0.738952 7.84717 3.8103
-2.01911 3.55867 -0.325384
1.74617 3.14562 -0.40452
-2.03317 3.79186 -1.11865
0.0330061 3.64399 3.57413
-1.83176 5.59797 -3.79254
0.197837 7.59256 3.64836
-0.112881 5.24949 3.63945
-2.12308 8.08588 -1.36693
-1.35574 3.54802 -3.72455
2.41226 3.71356 2.125
-2.20276 5.05569 -1.40931
2.35293 5.57125 0.60623
-2.37032 6.6421 -3.41034
-2.25487 4.29481 -2.92488
1.37498 5.45567 3.34073
0.454326 5.29455 3.55978
1.03323 7.59489 3.47558
-2.26027 4.99861 -2.67284
1.84031 6.98796 -0.088
-0.747496 7.19074 -4.02763
-0.0415813 4.16299 3.59388
2.6604 7.64952 2.5855
-2.40158 6.93843 -3.13813
-2.27037 5.82785 -1.22384
-0.845967 5.55108 3.72
-2.21605 5.11907 -3.63503
-2.02334 3.82931 -0.220269
-2.05368 4.67828 -3.71792
-1.81933 5.38987 1.02049
-2.07336 4.91498 -0.44285
-2.2675 6.64946 -0.742825
-1.41857 4.33856 -3.75859
-0.494368 4.48395 -3.91636
-2.28068 7.68145 -0.476434
2.07022 5.51 -0.45436
2.13646 7.42378 0.319118
1.93751 5.29057 -0.471149
2.1652 6.94438 0.478699
-1.93885 4.75648 0.477811
2.47196 4.4705 2.25886
-1.17108 5.24617 -3.8687
-2.15972 4.77385 -2.10369
-0.404458 7.87522 -4.12515
-2.23341 7.9857 -0.753349
-2.0456 4.58303 -0.253931
-0.731558 4.68802 3.70244
-2.27648 7.75166 -0.412005
-2.02135 4.22829 -0.0200405
-0.677665 5.24528 3.70347
-2.13759 6.36007 0.232789
1.70815 4.57942 -0.265658
-1.83421 5.469 -3.79798
-2.29827 7.63475 -0.83784
-1.84522 2.95572 0.802257
2.38102 7.86763 1.15223
-0.982516 4.52066 3.6841
-2.05676 2.81073 -2.40805
-2.189 5.75484 -0.740595
1.64478 4.1917 -0.688301
-2.29241 6.54282 -1.46571
-0.589768 3.98669 3.66941
1.66679 2.89865 -0.42435
2.01486 4.23054 0.499934
0.910453 8.20531 3.48661
1.79204 6.09748 -0.107955
-0.626305 5.69017 -3.9649
-1.16668 3.69827 -3.73454
0.0280813 8.11586 3.69734
-2.22036 6.51055 -0.249751
-0.31235 2.94496 3.57378
-2.11118 3.03148 -2.45123
-2.05508 3.50064 -1.32443
2.46268 4.76728 2.03449
-2.04067 4.13371 -0.46925
-1.21299 3.20823 -3.74895
2.53873 6.25233 2.05987
1.67798 4.74109 3.20613
2.25335 4.9018 1.20741
2.11518 5.5128 -0.173307
2.58845 7.72376 1.95207
2.39021 4.99132 2.85804
-2.05807 3.09278 -0.969478
1.7578 4.46067 -0.00741734
1.56621 7.40984 3.28547
-1.82319 4.8623 0.995317
-2.26409 4.3999 -2.9608
2.63053 7.50602 2.16572
2.42062 7.72609 1.34683
1.76648 7.16902 -0.611951
-2.11415 5.26474 -0.152304
1.29951 3.50916 3.34597
-2.0536 6.28462 0.615515
0.159048 6.96922 3.65592
2.29347 7.21735 0.875142
-2.18184 5.1524 -1.05761
-2.01796 2.8459 -3.42344
-2.22241 5.8155 -0.90424
-0.0739787 5.32621 -4.05867
2.11244 6.71828 0.349803
2.07259 4.54811 0.74184
-1.91684 3.74122 0.168454
2.30675 5.72264 0.253128
2.3672 6.05618 1.46927
2.01792 5.44368 -0.583534
-1.21885 5.9141 -3.87377
0.396571 6.07079 3.58325
2.42017 6.33924 2.90823
-0.850768 5.41828 -3.93096
0.509009 3.30557 -3.96273
0.524444 3.48839 3.50836
-2.0245 5.14424 0.214482
-2.15158 5.34756 -1.93305
-1.67679 4.94896 -3.77157
-0.905134 3.69943 3.65603
-0.419354 3.15411 -3.81825
2.01561 4.40724 3.05339
-2.24869 3.92178 -3.23152
-1.36105 2.86445 -3.64978
-2.21849 5.86743 -0.572326
-2.19503 3.28749 -3.18934
-0.539816 8.08866 3.79283
0.256539 3.67497 -3.95644
-0.403167 4.53619 -3.93309
1.83838 7.91261 -0.195139
2.63526 7.25596 2.63032
1.49235 3.61364 -1.25901
-2.12103 3.62119 -2.27253
-1.91057 4.73198 0.587527
0.234074 6.90893 3.64671
2.02115 3.66127 0.692695
0.724155 5.21886 -4.05367
-0.336368 7.12395 3.74982
1.44406 5.97174 3.3253
-0.836996 4.68882 -3.89023
-0.579975 4.41688 -3.90647
-2.16419 5.4518 -1.64113
-2.36529 7.30331 -2.2845
-2.04347 4.88314 -0.309829
-2.23555 4.7247 -3.62262
0.332701 7.40577 -4.22003
1.89747 2.99591 3.05669
2.29682 5.80733 2.96316
-0.293273 4.66295 -3.96618
2.08927 5.97703 0.0765903
2.36256 5.60742 0.701895
2.12786 3.48013 0.969369
-2.016 4.84959 0.18656
0.693285 7.17462 3.5384
-0.750644 5.88061 3.7515
1.76107 3.1623 -0.323711
0.0567037 4.87126 -4.07183
2.62008 7.41921 2.13466
-0.260503 6.0424 3.68908
-2.33835 6.8249 -2.00632
1.92417 5.16768 -0.172305
2.12178 4.12412 0.998533
2.24565 7.26685 0.64
1.80975 6.74661 -0.205224
-2.04563 4.05882 -0.357647
2.42302 5.9119 1.78212
0.876458 6.92302 3.4934
0.363982 4.30417 3.56284
2.11981 4.48529 0.943847
-0.021458 2.92234 3.51129
0.329916 4.25304 -3.98398
1.72664 4.71529 -0.337972
-2.05518 4.10573 -1.31319
-2.31631 7.8166 -0.914654
-1.82324 3.01152 1.12141
-2.36119 7.41328 -1.82037
1.4236 2.95886 3.21587
-1.01039 5.13313 3.72425
1.83906 7.19107 -0.181602
-1.74961 3.70133 1.35222
-1.89128 5.13262 1.10297
0.514008 3.75863 -3.99551
-1.98349 4.3023 0.0891391
2.11051 8.11393 0.612701
-2.35567 7.28014 -1.87482
-2.28369 7.21906 -0.585563
0.548587 5.06152 -4.05964
-2.21153 5.01825 -1.49766
1.60733 3.03967 -0.99156
2.46914 7.91896 1.51587
2.20129 7.84774 0.487343
0.158397 4.07318 -4.00902
-0.0445479 5.23206 -4.06142
-2.21548 7.03419 -0.320656
-0.632416 5.93657 -4.00006
-0.683735 4.6929 -3.88681
0.185925 3.82214 3.53752
1.70567 4.0832 -0.491817
-2.27839 6.07851 -1.49169
-1.01873 6.64336 3.76251
-2.04803 3.35117 -0.313763
0.721686 4.84442 -4.04021
2.60832 7.41397 2.68963
-2.08112 3.16728 -1.65204
-2.01842 3.90281 -0.426325
1.78765 6.31577 -0.154655
0.916058 5.22587 3.45906
-1.75628 4.597 1.22669
1.72253 3.73023 -0.482297
-2.03405 4.38531 -0.479189
-1.94442 2.77786 -0.546125
1.72312 6.58212 -0.663636
1.92502 3.18449 0.26982
2.43937 7.90888 1.3176
-2.23454 4.79284 -2.60124
-0.598466 8.18334 3.76501
1.6654 4.3806 -0.631444
-2.36069 5.96356 -3.39761
-2.28801 4.45452 -3.28412
2.39087 5.61803 0.999034
1.75862 4.88588 -0.240653
0.734314 7.77123 3.5565
-0.302384 5.28105 3.68123
2.16129 6.15844 0.614881
0.584101 4.01183 3.51671
-2.24689 4.14319 -3.29599
-2.02629 3.18569 -0.503376
-1.84111 3.64807 0.859832
1.41177 5.61114 3.31492
-2.00965 3.82845 -0.748723
-0.462863 3.08566 -3.37283
2.37717 4.87842 2.88333
2.30714 6.39435 1.1354
1.3758 6.73515 3.37836
-2.23785 6.45812 -0.564726
2.26317 5.68764 2.98115
-2.03213 3.39238 -0.764999
-0.354785 4.25284 3.66394
1.05736 5.73567 3.43319
1.90014 4.68191 0.210092
-2.17545 6.63097 0.211006
-2.32779 7.32825 -1.1293
-0.847773 6.37404 3.77156
-1.06497 4.47339 -3.84873
2.21479 6.99457 0.697894
-2.29044 7.76528 -0.534007
-1.93223 5.833 1.01153
0.561497 6.1861 3.55995
2.51385 7.38554 1.79187
1.75698 7.35464 -0.651767
-1.84264 3.62201 0.578185
-1.74535 4.0276 1.23668
-2.00753 6.79463 0.731248
2.66445 7.08143 2.37663
-2.28454 6.47734 -1.2024
2.0849 4.85812 3.01904
-2.27867 6.72976 -1.23503
-1.08935 5.64223 -3.8906
2.42952 5.33872 1.78958
2.41601 3.51713 2.24226
2.03689 4.36395 0.607641
-2.05094 6.42067 0.595477
-2.01721 3.75164 -0.63143
0.693976 4.36085 3.49166
-1.8592 3.77053 0.777438
-2.06726 3.39954 -1.38231
-2.08083 8.09892 0.00851973
0.1273 5.69943 -4.0779
-2.25032 7.86533 -0.0752841
2.27728 7.20168 0.797184
2.54204 5.13874 2.55929
-2.11256 5.91852 0.469135
-2.17458 5.94116 -0.119853
-2.28622 6.67746 -0.956745
0.448901 4.24463 -4.00842
0.581513 4.38326 3.53345
-1.84519 3.72168 0.85452
0.468686 5.13419 -4.07876
-2.01981 3.25518 0.0944306
-2.17474 4.94887 -3.67337
-2.02472 3.21741 -0.658888
-2.16425 3.40145 -2.82169
2.2861 5.67949 0.203801
-2.1717 5.66091 -0.701087
-2.24116 5.05121 -3.59357
-0.493653 4.09651 -4.03961
-2.04289 5.16257 0.146847
2.50453 6.53932 2.79843
-1.9982 5.73302 0.645064
1.84388 7.73817 -0.241323
-1.99325 3.33897 0.194764
-0.512016 7.32155 3.73535
-1.92702 5.16143 0.721766
2.53024 6.63503 2.77552
-2.05734 6.01624 0.616401
2.34315 4.21399 1.7283
2.36885 5.37397 1.03528
1.89358 4.80489 0.172154
2.34556 7.84647 1.04965
-0.0969213 3.77634 -3.94327
0.322544 2.7687 -3.91248
0.44208 3.36215 -3.94632
2.07933 5.85878 3.07874
1.06794 3.47079 3.42789
-0.0795188 7.72449 3.69631
-1.89492 5.1102 0.945303
2.25958 6.16294 1.01876
1.88118 5.23385 -0.718902
2.35313 5.76645 0.512047
2.22467 7.56777 0.568825
2.48486 5.03609 2.00115
-0.0500179 4.92603 -4.05121
2.05725 5.90771 -0.60481
-2.10912 5.69457 0.172561
-2.35799 7.44264 -1.97202
-2.22879 7.64999 -0.193279
-1.36861 3.31065 -3.72327
1.2313 4.91139 3.36284
-2.22505 7.96731 -0.0360763
-2.22722 6.38486 -0.605808
-1.26222 3.38081 -3.748
-2.08985 5.9611 0.543726
1.93356 5.41661 3.12789
1.51373 3.70023 3.25673
-0.352837 6.67341 3.73642
2.05195 5.60795 3.06206
-2.20505 5.8208 -0.311057
-0.776247 5.09687 3.69893
-1.93058 4.16007 -3.63219
-1.28051 4.76092 3.6931
-1.83715 3.11677 1.04828
2.03206 3.40444 0.576924
1.52541 3.91482 -1.09426
-1.96752 5.50929 0.328139
-2.34069 7.42053 -1.58222
-0.184471 5.41958 -4.0253
-0.0699603 5.41131 -4.06091
-2.15795 6.51975 0.286624
2.29184 5.80398 0.208397
-2.07835 3.05948 -1.61222
1.63937 4.42302 -0.73135
2.13958 3.89909 1.09886
1.73774 3.0613 -0.430841
-0.728995 2.8029 3.57005
-2.05269 4.06864 -1.20972
2.39184 4.18426 1.93395
2.5025 4.17105 2.47913
-2.27679 6.71756 -0.689491
0.33169 2.95174 -3.90903
2.53501 6.78416 2.0295
2.22469 6.91548 0.760612
-0.0532491 3.85454 -3.94928
-2.05605 5.93407 0.601212
1.6958 3.23079 -0.674889
2.24742 7.10145 3.00399
1.50787 4.96766 3.28147
-1.90995 3.67667 0.31731
2.37966 4.45808 2.88303
1.65057 5.17142 -1.22271
1.73819 3.64362 -0.39643
1.7202 5.23743 -1.12991
-1.87133 3.41849 0.892148
-0.206523 5.89911 3.68223
-2.3106 7.81345 -0.815361
1.32201 4.78244 -1.63747
2.27277 4.83905 1.2881
-2.25331 3.99655 -3.17709
-1.88315 3.2635 0.925032
-1.95211 3.35342 0.450084
1.69456 2.97134 -0.162176
1.62813 4.63506 -0.714171
-0.697201 3.09498 3.57357
-2.11922 6.12522 0.335026
-2.03214 5.48804 -0.0537576
1.64698 3.54895 -0.73915
1.58614 3.76563 3.2413
-2.10537 3.77919 -2.12613
-2.20496 5.42757 -2.31946
2.3385 4.89398 1.54877
-2.38875 7.50402 -2.51199
2.2623 7.09399 0.834032
-1.01757 3.07429 3.58148
-2.00418 3.72504 -0.377362
-2.22587 7.6215 -0.296098
0.159572 6.52843 -4.14444
2.14982 6.42698 0.463371
-2.06341 3.63354 -1.50245
2.41223 6.77801 1.52287
2.42718 5.58499 1.80466
1.67597 4.95952 -0.861618
-0.836124 7.26579 -4.01761
0.523286 6.01174 -4.15433
-2.21956 3.58247 -3.18982
-0.702135 5.14927 -3.93938
2.10376 3.17403 1.07092
1.75449 3.56089 -0.158212
1.77033 7.6697 -0.500921
-2.11413 4.45437 -1.50427
-2.03752 4.79224 -0.407266
2.3886 5.80934 2.90723
2.54358 5.19867 2.49028
1.69 3.38936 -0.76983
2.2681 3.13148 1.65756
-1.16157 3.41457 -3.74908
-1.11426 6.11969 -3.91083
1.05699 8.00978 3.46567
-2.01746 4.75429 0.0665445
1.90709 5.17111 -0.267674
1.40854 4.90992 -1.31546
-0.0623375 4.29829 -3.95208
-2.1958 6.25615 -0.106178
1.872 4.74375 0.150327
1.21334 4.57386 3.3613
-2.10914 6.24171 -3.74688
-1.06476 5.23787 -3.90262
2.50843 5.07934 2.19029
-2.32934 7.70385 -1.16924
-0.305072 3.42221 -3.88637
-2.21844 6.8844 -0.384258
1.6477 6.31191 -0.825979
-2.26748 5.6117 -3.62441
2.32489 6.46071 1.19625
1.89941 3.76245 0.204391
-1.11254 5.77863 -3.88555
-1.88493 3.51916 0.513209
1.90874 5.48241 -1.1316
0.229522 6.34101 3.66172
2.49931 5.46069 2.07021
1.74668 7.54635 3.21871
2.34264 6.99955 1.18605
2.14818 3.45192 1.0734
-2.01661 3.46832 -0.0943336
-0.875323 7.35103 -4.01908
-2.1559 6.46496 0.225753
-1.79889 4.59516 1.00992
1.94104 3.05862 0.462613
0.537122 6.74484 3.56846
-2.01974 3.22276 -0.558953
0.0472427 6.80981 -4.14
-1.34955 5.86702 -3.87224
-1.58921 4.57745 -3.75121
2.05008 5.7205 -0.538254
2.44803 3.26113 2.71223
2.37145 5.80439 0.59497
2.36303 5.23345 0.96533
0.112189 7.96974 -4.21196
2.32218 2.9685 1.92648
-2.25112 7.48103 -0.428633
-0.883258 7.14549 3.72054
0.132324 4.75231 3.57925
0.551509 3.7686 3.51222
-2.03877 2.88724 -1.14647
2.30169 6.58479 1.0604
-1.92833 6.06688 1.00168
-1.89741 5.4493 0.771362
-2.35177 6.36487 -3.05391
-2.05769 2.84006 -2.01781
-2.26344 5.29423 -3.59843
2.29969 3.65112 2.94327
1.92562 3.67395 3.10514
0.213363 3.55662 -3.93412
-2.24274 5.05433 -1.7591
2.51186 4.04527 2.49564
0.0616024 8.23562 3.68379
-2.21395 7.85078 0.0907426
1.07554 6.55246 3.44293
2.36203 5.53388 0.69572
2.6322 7.59906 2.15051
2.3328 5.65522 1.42059
-2.16888 5.42207 -1.84784
0.652011 6.75041 3.5558
-2.07319 6.27797 0.532987
-2.31022 6.05208 -2.42892
-2.07692 3.14144 -1.32952
-2.11207 8.19829 -0.302243
-0.719895 7.70001 3.80504
2.43876 3.57227 2.4133
-2.2754 6.76033 -0.882952
-2.22733 7.26973 -0.164521
-0.0867839 5.94394 -4.08879
1.70218 7.49494 3.22954
2.21067 8.12738 1.17303
-0.469705 4.80964 3.64735
-2.10154 5.83088 0.472241
-2.16613 7.77206 0.216328
-2.01614 3.12598 -0.0177831
-0.672918 3.68392 -3.82393
1.57723 5.04146 3.25282
2.27443 5.55346 0.227304
-2.14421 8.18538 -0.458526
2.0622 5.77918 -0.522845
1.40765 5.70197 3.33118
1.28997 5.27407 3.36676
-2.12062 5.45081 -1.35875
-2.17447 7.22328 0.232907
0.87079 4.24474 3.41891
1.81652 7.26899 -0.434213
2.07855 3.56093 3.04915
1.70476 3.54708 -0.507444
-2.17325 3.58325 -2.81125
-2.22145 5.60817 -1.24248
-2.00476 4.0341 -0.15591
0.411585 4.47785 3.54042
2.00978 6.49568 0.161135
1.86927 5.76053 -1.29971
-1.22297 5.37419 3.72825
1.9965 2.88376 0.691357
-1.76975 4.36395 1.05938
1.1958 4.37511 3.36495
1.65572 3.77518 -0.721858
2.54349 5.6613 2.30589
-2.09757 4.25141 -2.01304
-2.02329 3.74378 -0.218924
-2.04018 2.90266 -1.05176
2.55498 5.42302 2.53575
-1.58277 3.29859 -3.66555
2.33633 6.76097 1.21411
0.0765578 6.9934 -4.12894
1.56498 4.3561 -1.00023
2.32304 5.22726 1.26727
-2.04311 3.71396 -1.70434
0.720249 4.65814 -4.05219
-0.154027 6.37593 -4.10986
2.30191 3.45134 1.70835
1.05451 7.08977 3.44749
-0.813691 4.32367 -3.91883
1.70811 3.93511 -0.378619
-2.0414 5.48621 -0.126751
1.59018 6.20498 3.26197
-2.04705 3.2433 -0.286591
-2.3035 7.72443 -0.646392
2.30632 6.22793 2.96739
-2.27872 5.59515 -2.09987
-2.10822 7.16172 0.375204
2.53279 4.54415 2.56245
1.78496 6.93328 -0.363135
-2.182 6.7601 0.0885259
-0.020996 3.70654 -3.95453
-1.3252 4.37514 -3.79568
-1.89721 4.21757 0.585166
2.0154 3.74704 0.669753
-2.04154 4.64398 -0.471522
-2.11894 6.31458 0.2875
0.0245091 6.25563 3.68447
-2.08334 6.95598 0.444171
2.03972 5.06889 3.04622
-2.06355 3.5087 -1.55468
2.05482 4.51599 0.661782
-1.20913 3.12679 3.47594
-2.15202 5.57749 -0.684138
-2.2426 6.06877 -0.688403
-2.22611 7.51338 -0.131868
-2.0884 4.69828 -1.2646
-2.08893 7.26558 0.494722
2.18972 7.20928 0.475127
0.0145885 5.76822 -4.07362
2.13851 4.52364 1.01645
-1.96904 5.46277 0.346378
-2.07801 3.21096 -1.14338
-1.9396 2.90433 0.338267
1.9964 3.65985 0.483423
2.07728 3.22304 0.802848
2.02967 4.64767 0.588842
-2.21338 6.75689 -0.442138
0.125588 7.39279 3.64471
-1.7532 4.28266 1.26398
2.6045 6.8517 2.30298
-2.1127 3.02629 -2.9744
2.61531 6.41459 2.35734
1.22293 7.02263 3.38525
2.4106 6.84966 1.4223
-2.00151 8.16193 0.0342122
-1.84798 3.66132 0.642949
-2.25716 5.75555 -1.21571
2.10882 5.44865 -0.321769
2.01453 5.48938 -0.771041
1.82271 7.10567 -0.175171
1.46197 6.64783 3.34101
2.10178 3.06516 1.11371
-1.99778 6.93847 0.879533
2.14376 6.27842 0.495241
2.02601 6.76154 0.141456
0.286936 5.30361 -4.11116
-2.0781 3.03834 -3.16237
-2.03017 6.89812 0.689697
-2.34285 6.63253 -2.0902
-2.29932 6.20835 -1.48679
-2.31683 6.05439 -2.07595
0.0279948 6.72663 3.64486
1.79764 7.48676 -0.278035
-1.95938 4.48457 0.246311
-2.18708 8.30949 -0.511189
2.60979 6.61137 2.33386
0.384248 5.2217 3.56478
1.58848 5.52873 3.23873
1.69921 3.09551 -0.564406
2.34241 5.92499 1.08239
-2.02593 3.1496 -0.57786
-0.0310459 3.47064 3.56818
-1.26901 4.88781 3.69889
0.06868 6.41611 3.66607
-1.92536 4.51589 0.387242
1.71546 4.65198 3.19455
2.29462 6.68356 1.01086
2.33914 5.5378 1.38797
-2.17072 3.53929 -2.8074
-2.04983 4.64072 -0.398827
-2.42323 7.58303 -3.45903
-2.17354 5.23579 -0.625676
2.08234 6.2081 0.350857
-2.08003 4.67486 -1.05569
-0.502527 6.45413 3.7458
-1.10101 4.71846 3.72134
-2.04407 4.18344 -0.432767
2.56349 7.64613 1.88354
0.694363 3.48214 3.48605
2.35499 5.18068 1.59034
1.68066 3.2258 -0.843803
0.227693 7.2347 -4.19505
-1.49382 4.7829 -3.77248
-1.88638 3.92826 0.466333
-2.21646 5.89055 -0.487774
2.67389 7.16479 2.42631
1.07046 6.34166 3.42073
1.8597 5.01528 3.13324
0.00377458 7.65851 3.66496
2.02014 4.92296 3.0528
-1.77226 4.16791 1.08327
1.64157 3.2609 -0.918884
1.88382 7.27029 -0.0899612
2.25706 3.53139 2.95448
-2.01237 3.17483 0.0387116
0.984952 2.86354 3.35203
-2.04528 4.68488 -0.309485
2.34169 5.64988 0.531198
1.70704 4.03471 -0.458965
0.912709 7.7509 3.51152
2.18916 6.29771 0.664629
2.38971 3.69363 1.99972
2.46552 6.09 1.81979
-0.0505874 8.24721 3.70217
-2.34148 6.55042 -2.05631
0.309368 6.63869 3.61977
2.36069 5.84938 1.12533
-0.600517 5.0679 -3.94622
-1.81995 4.03429 0.789724
-1.97116 3.0929 0.295315
-0.0609461 4.40874 -3.96405
2.31219 6.21487 1.19063
1.83942 7.09057 -0.0973206
-1.93533 5.41738 0.598266
-2.09091 3.76792 -3.63423
1.75667 6.19858 -0.395389
1.73502 4.761 -0.193396
-2.40294 7.23815 -2.82913
-2.37011 6.64183 -3.4112
-2.0367 3.9397 -0.564856
1.83429 5.1298 -0.773958
-2.30723 6.96018 -0.666467
-1.97942 6.75235 0.814377
0.755317 7.09756 3.52019
1.76284 7.561 -0.496044
-2.05033 3.68649 -1.80815
-0.0145543 4.13537 -3.97412
-2.10231 3.2106 -1.98102
2.17116 7.93301 0.376517
1.67868 3.52392 -0.67935
-2.28053 6.85642 -0.56648
0.0262116 4.50773 -3.99911
0.593923 4.22247 -4.02174
-0.612174 7.30302 3.72852
-2.2652 5.42956 -3.60773
-2.03132 3.4817 -0.323091
1.54788 3.60384 -1.09379
-2.16818 6.57659 0.253401
-1.95186 3.29103 -3.66366
1.71827 4.89734 -0.472097
2.49779 5.85555 2.04508
-1.68552 4.83681 -3.74394
2.13584 5.71495 -0.270136
2.36747 5.73494 0.665748
2.60637 6.3869 2.62416
-2.26445 5.82975 -1.13645
1.76298 6.08728 3.19173
-0.0071722 7.96006 3.69727
-1.29674 4.96732 3.69467
-0.700225 6.77805 -4.03633
2.32121 5.92766 1.17967
-2.16208 5.11688 -1.23256
2.31279 5.0906 1.41877
1.83946 7.54181 -0.166712
2.37603 5.52781 1.03569
-2.10565 3.94033 -1.9723
-2.07814 2.87698 -2.4514
1.88117 4.20293 3.12801
0.701747 3.51727 -3.06788
-1.26612 4.56886 -3.83292
-0.460762 3.5246 -3.86367
1.68367 2.98573 -0.697796
0.526946 4.52335 -4.05533
-1.77396 3.85628 1.09827
2.6976 7.94371 2.49707
-0.19529 6.52048 3.70912
2.53422 4.38243 2.78267
-2.04433 3.02411 -0.255942
-2.26758 7.49326 -0.507981
0.33267 4.89387 3.54863
-1.80661 4.28963 0.978131
1.77563 7.36597 -0.583282
-2.20741 7.75343 0.0886999
-2.32797 7.41635 -1.35347
-2.25184 6.24846 -0.971614
-2.3157 6.12214 -2.31724
-2.14073 5.23137 -1.26514
0.457192 3.48116 -3.95042
0.28838 6.49969 -4.17571
-2.08135 3.22105 -1.28743
1.93906 3.48494 0.244131
-2.0408 5.25385 0.320741
2.46308 5.30166 2.78188
-0.931217 7.86612 3.81236
-2.26605 6.67037 -3.67376
-1.98913 8.14237 0.102861
-2.13492 5.8361 -3.732
-2.22428 5.6689 -3.6731
-2.32779 7.79188 -3.7076
2.27383 5.13716 0.498238
-2.01874 5.06522 0.366868
2.43056 5.41703 1.79497
-0.804862 7.25387 3.71785
-2.24519 6.18604 -0.726049
2.51694 3.98614 2.53126
-2.0505 3.00996 -0.962969
0.538451 6.89211 -4.24615
1.77526 6.25557 -0.141164
1.80757 4.92327 3.14523
0.131845 5.97586 -4.12803
-1.96679 3.62562 0.0826076
-1.96357 3.94303 0.0854642
-2.14696 3.11896 -3.0397
-2.24154 6.48454 -0.745751
1.78543 4.59569 0.0572894
-2.10723 7.49487 0.463285
2.02777 3.78158 0.762019
0.290636 4.20629 -3.98635
-1.12806 5.4122 3.74548
-2.0156 3.08414 0.0443865
-0.325071 7.03442 3.72564
0.867295 3.13605 3.17478
1.61017 3.84294 -0.829342
1.25545 6.13396 3.40234
-1.97792 5.64597 0.597884
2.40284 3.02429 2.40526
-0.360141 6.10072 3.67989
-2.29084 5.72819 -1.68406
-2.07742 3.00796 -1.68402
-0.799705 6.73614 3.74791
-1.10135 5.14186 -3.872
-2.13629 3.1797 -3.15211
1.4519 4.949 -1.26885
-0.322672 3.61889 3.62577
2.48542 7.8247 1.56452
-2.15554 4.02511 -2.25006
-2.04186 4.06171 -0.71955
-2.21833 3.53065 -3.17394
-2.14759 3.11377 -2.82869
-2.33427 7.15788 -1.56371
1.56716 4.09074 3.21285
-1.76035 4.87718 1.34279
0.120813 2.7737 -3.88297
-0.337891 5.53182 3.69366
2.54054 5.74221 2.29531
-2.23855 7.92738 -0.130954
-2.12333 5.98655 0.399204
-0.080361 3.80408 3.61622
-2.25485 6.44517 -0.96574
2.01932 8.1887 0.314581
-2.18017 4.41596 -2.31162
2.12646 7.05902 0.273567
1.06845 3.93796 3.41131
-2.02332 3.11826 -0.0974921
-0.0419434 5.14295 3.61513
-0.203763 4.57708 3.65332
2.55653 5.58865 2.57614
-2.28753 5.46626 -2.97321
-2.30664 7.34718 -3.68036
-0.545748 6.96924 -4.07116
-1.83746 4.0741 0.681375
1.75055 3.45962 -0.296756
-2.2327 7.55836 -0.354226
-1.85962 3.04161 0.814837
2.38281 2.95874 2.68399
2.51348 5.69378 2.75301
-1.95324 5.85589 0.91432
2.15648 7.70854 0.262507
-0.0957951 7.23446 3.70107
-1.41934 4.72252 -3.78466
-1.8945 5.00364 0.859886
0.348632 6.51923 3.62924
1.95298 3.5202 3.09272
-1.85156 4.95232 1.08081
2.12298 5.77246 -0.135014
1.59682 4.08343 -0.851977
-0.0958028 3.10875 -3.87886
2.35901 2.9901 2.17215
-0.443763 4.91923 -3.95359
0.436296 7.55217 3.60593
2.41107 6.61523 1.56452
-0.870932 5.95496 -3.94033
1.74856 5.16539 -0.985197
1.76871 6.15292 -0.151681
2.18338 6.10679 0.665771
-1.4487 3.49101 -3.7255
-2.06891 5.03727 -0.133284
-0.357986 5.56668 -3.98562
-2.11128 7.59732 0.495979
-1.91345 2.85278 -0.00290721
-2.35539 7.55894 -1.64217
-0.72369 7.61286 3.7942
-1.13683 4.787 -3.84122
-2.22029 5.5823 -1.42959
-2.07902 2.90802 -2.31065
-2.17965 7.12564 0.221381
-1.90753 3.7376 0.241329
2.14524 4.61072 3.0209
2.33432 3.99915 1.63215
0.222518 3.98799 -4.01045
0.898119 4.04696 3.44739
-2.23174 7.12931 -0.285245
-2.33084 6.35071 -1.70598
2.43653 7.16772 1.40613
-2.09946 6.49833 0.487831
1.7437 3.6989 -0.0888639
2.62854 6.54152 2.40658
1.7824 5.22045 -0.940253
2.38887 3.06072 2.33333
1.39856 6.45279 3.33767
0.325629 7.7098 -4.22517
2.06057 2.98431 2.99381
0.59795 7.08964 3.56942
1.69189 3.91809 -0.206907
0.209013 6.82257 3.64283
-0.251741 4.55966 -3.96872
2.1711 6.55123 0.529751
-2.04101 4.06099 -0.264097
-1.91288 6.13934 1.05335
-1.29974 5.11832 3.69792
1.7953 7.44769 -0.328062
1.97008 4.15297 0.34946
2.4688 7.33979 1.5796
0.86519 5.68195 3.49415
-2.31507 7.14181 -3.6839
-1.86496 4.42632 0.696985
-2.3104 5.9815 -2.1844
-2.10804 7.38251 0.401654
-1.92077 3.99777 0.383407
1.68831 4.4589 -0.514002
1.77525 4.96676 -0.236028
0.705977 4.10761 3.48163
-2.29683 6.39212 -1.36552
-2.34718 7.01595 -2.57984
-2.2438 6.09593 -0.811293
1.06807 6.02024 3.43686
1.58609 4.09435 -0.926148
-1.9445 4.02699 0.311346
1.90921 6.51255 0.00665874
1.72679 4.86237 -0.386934
-2.04289 3.35664 -0.385221
0.619569 3.55696 3.51299
1.56449 4.22891 -1.00619
1.58134 4.51327 -0.891927
-1.83299 3.80089 0.886286
0.388778 6.85441 -4.19822
-2.01745 5.43298 0.185126
-2.03086 3.96352 -0.380541
-2.02081 3.81562 -0.627337
-2.08521 2.9785 -1.9828
1.58724 4.01717 -0.878222
1.15026 3.18631 3.20968
-2.02057 5.00246 0.313152
1.60948 7.22105 3.25591
1.61484 3.86585 -0.797803
2.21923 3.57923 1.44549
0.328296 4.76949 -4.05839
2.54161 6.71532 2.07023
2.19412 7.50806 0.496543
2.23163 4.69852 1.21683
-0.657599 6.07428 3.7166
1.87841 5.58429 -1.31001
1.1289 7.91573 3.44984
-0.523158 7.40111 -4.09773
2.27859 4.28199 1.48089
1.72324 7.75677 -0.745507
1.56098 3.41677 3.2426
-2.02858 4.84721 0.0290859
-0.288084 7.79058 -4.15466
0.234006 4.33674 3.5684
-1.92504 5.17665 0.81438
2.33366 4.68837 1.54549
0.300103 5.41736 3.58737
-1.87443 3.88013 0.522553
2.22316 3.25409 1.43727
-0.00154784 7.85872 3.68826
-1.97173 3.25118 0.309707
0.405097 5.46637 3.56982
0.884501 4.63425 3.46102
1.80401 5.70736 3.17353
-0.476606 3.01517 3.56375
2.59742 6.47888 2.63857
-0.889085 6.26103 -3.96989
1.79297 6.65919 -0.428631
1.68416 4.31086 -0.368123
2.24666 6.9707 3.00337
-2.35132 7.07795 -1.75774
1.59799 4.58758 -0.830965
-0.11223 3.54158 3.57484
-2.25149 6.38905 -0.902201
-0.53381 3.89281 3.66721
1.81274 7.36295 -0.393524
1.71632 4.25787 3.17942
-2.28054 6.83086 -0.801115
-0.14212 4.66204 3.63469
-1.01417 5.42687 3.73479
-0.909703 7.22049 3.72315
2.31594 7.56095 0.934009
0.773952 3.28414 3.11283
1.77119 2.83261 0.146256
-2.34367 6.2584 -3.04228
-1.90672 4.04152 0.43916
-1.81558 5.03221 1.33761
-2.18071 6.42839 0.0357359
-1.1014 5.08192 3.73419
-2.34398 6.7666 -2.74028
2.52607 5.326 2.26086
-2.24277 5.21801 -3.61343
-2.07059 6.67286 0.539711
-2.17997 6.49951 0.0776494
-1.96432 3.01905 0.301114
-2.18111 4.05502 -2.53618
2.55987 5.69366 2.41551
2.33532 6.65052 1.18031
0.653628 5.0858 -4.05177
-1.94103 3.28776 0.573788
-1.90769 4.15381 0.500285
-2.13047 2.87923 -3.09776
-2.30631 6.59156 -1.69485
1.60803 4.14501 -0.825119
1.44327 4.25479 -1.21288
2.31568 5.84347 1.32839
1.76095 4.97578 -0.489035
2.23158 5.26741 0.318307
2.16636 6.47414 0.521393
-1.84092 3.89654 0.664309
-2.12374 5.5015 -0.652516
-1.83626 4.49815 0.865468
-2.11614 5.35492 -0.808984
-2.07888 3.64572 -1.98906
-2.09463 6.58017 0.508456
2.3206 5.6405 0.395458
-2.11482 4.18559 -1.66214
2.01869 3.5844 0.637063
1.72432 3.12685 -0.47714
2.05214 5.71775 -0.697758
-1.99452 3.4766 0.141354
-2.04951 4.33243 -0.375026
-0.250033 4.46393 3.66658
-2.17297 5.16172 -0.440866
1.91423 3.8397 0.219316
1.33228 4.82132 3.32885
-2.21436 7.23129 0.0923728
-1.05108 5.06201 -3.87492
-0.726245 5.63619 -3.9459
-0.786483 5.40935 3.72231
-0.824057 3.40011 3.62335
1.81117 6.44599 -0.265583
0.0373839 2.7835 3.48415
-2 5.44223 0.263592
0.0976679 7.87177 3.66434
1.50489 3.77344 -1.16309
1.80359 5.13105 3.16366
1.49053 4.12769 -1.1567
1.75015 4.35899 -0.0347367
-0.569178 5.05992 3.63603
-2.23771 3.81439 -3.55267
1.66296 4.53197 -0.623414
-1.4077 3.70733 -3.69727
2.63194 7.81062 2.12613
-2.27766 5.74786 -1.56195
2.39961 2.95228 2.40673
-2.14743 6.44164 -3.74673
-0.679803 5.26079 -3.94668
-2.25211 5.98424 -0.853845
-2.00888 4.9414 0.356717
-2.18948 5.02769 -1.30664
-2.22091 3.41514 -3.15114
2.51175 7.90468 1.65282
-2.21348 6.97097 -0.382
-0.20346 7.19522 3.73279
0.14831 5.40149 3.59598
-0.836212 7.35937 3.73574
-2.29419 5.91104 -1.20016
-1.76825 3.65424 1.1645
2.11592 7.96336 0.213663
-0.890042 3.78857 3.66633
-2.01473 3.42453 -0.666174
-2.24975 6.57718 -0.69889
-1.74252 4.0006 1.34196
1.82476 7.85236 -0.488512
1.63791 5.20886 -1.39205
2.52944 5.52824 2.21975
0.740735 2.72417 -3.94871
2.3646 5.3229 1.10537
-0.759679 5.20597 3.70571
1.84973 7.24334 -0.168528
-2.12027 5.3673 -0.713419
-2.05392 3.97548 -1.22346
-1.87394 3.67302 0.487365
-2.00793 3.60505 -3.66394
0.0680755 4.23364 3.59178
1.57295 3.92714 -0.957702
-1.89262 5.14148 1.02533
-0.564064 3.65193 3.63125
-1.42679 4.27072 -3.75112
-2.24218 5.99845 -0.73689
1.9859 4.45131 0.335528
-0.406468 2.93448 3.59853
2.2882 5.05726 1.18398
-2.29531 7.8917 -0.96824
-0.656579 4.29718 -3.93068
0.637761 5.87487 3.54034
1.8365 5.08604 -0.699518
-1.5752 3.44825 -3.70515
-2.04998 4.99514 -0.0458121
-1.81274 4.64562 -3.74235
2.49877 5.00446 2.27524
-0.401192 6.52564 3.75491
-0.691781 6.65877 -4.03512
0.242248 5.75586 -4.0943
-1.70602 5.46739 -3.80832
2.00169 5.52579 -0.963124
-1.8675 3.17948 0.912714
-2.26777 6.73961 -1.32085
-2.339 7.71674 -1.34854
0.768084 3.70781 3.47182
2.16954 6.87208 0.532045
-2.27489 4.96388 -2.95954
2.24483 6.65198 0.82856
-2.32987 6.36986 -2.74334
0.543891 6.51839 3.58594
1.79162 7.76853 -0.522681
-2.02059 2.83385 -1.0762
-2.06706 5.50094 -0.186418
1.79021 5.17536 -0.889585
1.17087 4.75641 3.37159
0.240822 7.40823 3.62947
-1.83874 3.85985 0.724394
2.33035 5.31946 0.632844
2.10851 8.15669 0.779241
1.2247 5.67623 3.38854
-0.213936 5.43076 3.69917
0.0892283 4.64924 3.57888
-0.376203 4.01854 3.67612
1.09874 7.50921 3.44105
2.00368 3.62646 0.541983
-2.02085 3.92697 -0.742235
2.26398 7.33446 0.694097
-2.23691 6.18954 -0.559134
-2.04112 4.8612 -0.379115
2.54852 4.70696 2.70739
0.687434 4.46823 3.4956
2.3381 5.09761 1.53215
1.97659 2.93764 0.583351
-2.02339 4.40447 -0.106319
-2.19266 7.3626 0.19701
-2.06324 5.32678 -3.74696
-1.88951 4.81714 -3.73593
-0.86591 5.53456 -3.92344
-2.25973 6.52075 -0.967465
-0.0328316 6.4996 -4.12858
-2.2637 6.03706 -3.67751
-2.265 5.89838 -0.969842
-2.16574 8.16281 -0.622696
2.22161 5.08954 0.462221
2.28355 5.76199 0.168491
0.219305 5.86581 -4.11543
2.24519 6.99402 0.826169
2.06589 3.99416 3.0513
-2.08565 5.12054 -0.131897
-1.96879 4.65226 0.309271
2.0127 4.00831 0.632209
1.93036 3.70641 0.294468
2.34481 5.45236 1.30939
2.14471 7.96126 0.294354
-2.28797 6.98046 -1.32158
2.11704 7.36863 0.273406
2.34395 7.73646 1.02568
-2.06362 3.28456 -0.902889
1.26133 5.88494 3.39082
-1.88757 6.45451 1.15324
2.39884 4.22873 2.87011
-0.583004 3.06244 3.57602
1.77215 5.89275 3.20327
0.708892 4.56415 3.49246
-0.123455 5.85177 3.66838
-2.06503 4.72001 -0.657249
-2.04795 5.77663 -3.75802
2.13743 5.01914 0.477188
-0.910107 4.60766 3.70184
-2.03809 4.83787 -3.73132
-2.11995 4.56808 -1.58881
-0.328275 7.62799 -4.13217
-1.90289 4.48476 0.475992
0.561218 4.47321 3.53082
-2.00816 5.47758 0.113919
2.03855 6.50312 0.221012
2.26996 6.96907 0.968918
2.1735 3.51442 3.00375
-0.327489 4.55318 3.65428
1.66056 4.51403 3.21108
-2.17573 3.27001 -3.24046
2.08134 2.86659 1.09878
2.20204 5.04601 0.597189
2.30236 5.78439 0.275892
1.78049 7.00898 -0.473663
-1.91956 6.01527 1.02451
-0.557258 2.95815 3.60216
0.322236 3.74414 3.51546
-2.3067 7.28169 -3.6778
0.602035 7.39121 3.57386
0.863891 7.15979 3.49795
2.11659 3.31031 0.863058
1.8235 7.65096 -0.280007
-2.05122 3.47968 -0.975025
1.67237 4.68411 -0.517948
-2.17912 5.99761 -0.164807
-2.19894 3.84348 -2.85007
1.55865 4.25398 3.21534
-2.31147 5.67316 -2.98906
-2.14023 6.58626 -3.78167
-1.97207 3.88876 -0.0656906
-0.599132 4.85014 3.65802
-2.29718 6.07753 -1.28236
-1.78883 3.95064 1.03291
2.0596 4.80977 0.704251
2.52464 3.606 2.77386
2.60147 6.74319 2.32586
1.70019 3.99789 -0.163984
0.681229 6.1784 3.54324
2.62748 6.4294 2.52312
-2.28425 7.0032 -0.984497
-2.05534 5.32594 0.219521
1.81305 5.51291 3.17632
-0.221556 2.9813 3.54428
-2.03526 5.15398 -3.73205
-2.14644 7.67939 0.319462
2.34954 5.70918 1.53844
-1.98713 3.64984 0.00389292
-2.18028 7.03684 0.257665
1.59049 3.73637 -0.880841
1.6596 4.59668 -0.605617
2.15347 6.83631 0.46631
-0.0849761 6.59852 -4.11891
1.89775 5.62115 -1.25686
0.0254154 7.08964 -4.14144
-1.10423 6.61516 3.75354
1.31431 7.34474 3.38029
-0.0304775 3.94093 3.59971
-2.3113 7.0724 -1.44343
-0.34591 6.80376 3.70621
0.522321 6.26283 -4.20296
2.07708 6.98222 0.14914
-1.94524 3.03055 0.369745
1.69691 3.21362 -0.58473
-1.88793 5.19829 0.980009
-0.512985 3.55874 3.61601
-2.28995 4.51544 -3.31037
2.41952 3.62968 2.21695
-2.12335 4.44477 -1.84055
1.78347 6.98059 -0.413106
1.71712 3.79631 -0.487192
-2.20145 7.45279 0.195588
-1.47838 7.18052 -3.89476
-1.95621 3.40117 0.305408
0.57713 3.92649 3.51341
1.9967 4.26151 0.404298
2.51324 4.42333 2.5011
-2.19707 6.49653 -0.028719
-0.158298 5.25816 -4.01565
2.1406 5.42608 -0.0446738
-1.76464 4.06247 1.11712
2.20091 4.05281 2.99869
2.4503 7.91635 1.41594
-2.2464 7.92519 -0.33077
2.04614 3.52731 0.719196
-2.0125 3.61606 -0.644924
0.0431193 7.76544 3.66801
2.37892 2.8594 2.69893
0.107972 6.67676 -4.14
2.39441 4.75796 2.88762
-1.88651 5.0506 1.02824
-2.06558 2.96622 -1.4394
-2.09836 6.32039 0.367868
-2.20679 7.38579 0.108822
2.51342 5.93577 2.73714
2.56545 7.726 1.86036
2.12437 7.76601 0.178972
-0.330795 7.32581 -4.11104
2.32461 5.30546 0.529633
-2.37565 7.37223 -2.32387
2.0535 3.46516 3.06313
-2.3597 7.151 -1.8635
-1.92111 5.53675 -3.78229
2.35975 5.63078 0.786987
2.01142 2.95153 0.70965
1.44364 4.0016 -1.27734
-0.36843 5.00746 -3.97318
-1.86841 3.90967 -3.71121
-2.30337 6.14083 -1.80805
-2.09875 7.49223 0.526446
-2.05388 4.33176 -0.259215
-1.78161 4.58925 1.06867
-2.30443 7.34223 -0.797923
-2.2866 4.38176 -3.30617
1.69541 3.52303 -0.584031
-2.29165 6.14991 -1.23292
2.49148 4.88702 2.23899
2.46752 5.39051 1.90929
-2.05729 4.56355 -0.812607
-1.96415 4.43754 0.183952
2.32866 5.9594 1.35545
1.57183 4.5081 -0.982527
-1.51872 6.03384 -3.858
-0.0746229 7.80139 -4.21265
-1.23308 3.791 -3.71163
-2.02314 2.83594 -1.21251
-2.05153 4.36991 -3.63255
2.17283 3.23548 1.27078
-2.18525 8.13039 -0.77848
-0.228443 7.06024 -4.10771
-0.272152 5.07899 3.68153
2.62282 6.71605 2.58898
2.50618 6.8924 1.8709
-2.28404 5.98257 -1.7362
2.19384 5.00267 0.774314
0.074002 5.49125 3.62627
-2.17883 5.10786 -0.498094
2.34304 5.38625 0.691823
-0.645713 5.59908 3.72923
-2.0757 5.34955 -0.0198578
0.139491 2.95859 3.50419
2.15344 6.51948 0.462008
0.0749747 7.22823 3.64868
0.321483 5.18469 -4.09558
-1.8852 5.30634 0.91534
2.03588 6.24407 0.240067
1.9004 7.42267 -0.0741136
0.402149 6.04751 -4.15411
-2.32757 7.33702 -1.30965
2.02456 4.84282 0.456095
-2.37034 6.64245 -3.41034
-2.29816 5.65097 -1.79419
2.17367 7.65388 0.329533
-2.2718 5.53104 -3.60784
0.870638 5.49369 3.51255
1.24671 7.19855 3.39762
-0.0587858 7.33073 3.68568
-2.20718 6.79828 -0.371784
1.18196 5.94769 3.4149
0.36999 6.74641 3.59965
-1.99167 4.08422 0.0463917
0.671513 5.97828 3.53696
1.64495 3.45847 -0.851194
-2.27794 5.15432 -3.55514
0.247228 4.14224 -4.00387
-2.14007 7.79295 0.301457
-1.88946 4.78031 0.715105
-2.17869 6.08704 -0.0595089
-2.30726 5.99541 -1.25623
1.17532 3.66762 3.37723
-2.16655 5.98669 0.126122
-0.0399519 3.51168 -3.95071
2.53222 6.71865 2.7868
1.73631 3.64298 -0.207623
1.69244 3.99009 -0.508139
-2.02508 2.93716 -0.685184
-2.15183 6.60181 0.354525
1.65168 4.04565 -0.633009
-0.487108 7.80696 -4.11147
-0.652238 6.25363 -4.01239
1.92549 5.61567 -1.17434
2.39301 6.14012 1.56422
1.74255 4.24797 -0.151007
-2.10013 5.01144 -0.333236
-0.894819 5.07317 3.72633
0.158342 6.05174 3.66477
2.41478 7.21208 1.31162
-1.1656 4.6206 3.70497
1.64441 3.19693 -0.924444
-2.14915 5.98968 0.24887
2.20164 3.62874 2.98162
1.96524 3.27891 0.318013
2.35028 3.97492 1.73677
2.08577 3.45039 0.785612
-1.84281 4.62071 0.893666
-1.75323 4.66107 1.28783
-0.852651 5.73497 -3.91747
2.58078 6.1501 2.31237
2.34769 6.50558 1.26157
0.363675 7.3878 3.60518
-2.30044 6.95591 -1.45819
1.89856 4.10311 3.13262
1.34834 3.74258 3.30293
-0.0383716 6.04222 3.69948
-2.27977 5.72644 -2.22486
1.6716 2.93506 -0.636144
1.03796 5.42764 3.45883
2.31463 6.66401 1.09151
-2.05847 4.23699 -0.833437
-2.06979 4.45182 -3.65416
1.40394 4.08541 -1.31846
-2.01858 5.14275 0.401333
0.197644 4.5555 3.56118
1.74426 3.05331 3.1122
-2.21772 6.58054 -0.207022
1.29741 6.38599 3.37116
1.90491 4.52054 0.183811
-1.02623 4.16894 -3.99332
-0.364493 4.85217 3.65411
1.94434 5.28944 -0.339165
2.01934 3.03555 0.710307
-2.0521 2.8255 -1.72454
-0.0333554 3.34513 -3.92749
-2.05313 3.21802 -0.17779
-1.38906 3.87663 -3.72161
1.84699 7.67452 -0.20086
1.87953 5.92098 3.1656
2.29589 4.38347 1.5248
2.32209 5.2257 1.36815
-0.120762 7.60706 3.71159
-0.0838655 3.22888 -3.90113
2.19011 7.85607 0.406216
-2.10897 6.07535 0.41676
-2.23774 6.54734 -0.543524
-2.06955 3.33245 -1.16497
-2.27324 7.32121 -0.51265
-2.04722 4.73499 -0.49257
1.7597 6.90891 -0.580907
-2.14276 5.52189 -0.578694
1.8784 5.63868 3.14119
-0.448914 3.70436 -3.87352
1.92145 4.85822 0.187794
1.43145 5.51592 3.30756
1.76528 3.39705 -0.239467
-1.36097 2.86443 -3.64979
1.67808 4.55959 -0.552302
1.80592 6.64797 -0.202463
-2.25176 5.53042 -1.87869
-0.761772 3.49484 -3.8224
-2.12898 4.50869 -1.68036
1.82941 6.65757 -0.129286
-2.23007 7.58309 -0.0716049
-1.25987 3.44639 3.59148
2.35537 4.65199 1.65481
-1.86696 5.21338 1.14582
0.306724 6.06037 -4.15127
1.83215 3.50447 3.12359
1.4751 4.9031 -1.20825
0.422784 4.4651 -4.04585
2.31371 5.22459 0.568958
1.90466 3.41511 0.151762
1.82006 5.02923 -0.151386
-0.351197 7.20513 3.76204
2.19825 7.66594 0.484339
-2.04389 4.31735 -0.160797
-0.664042 5.35545 3.72319
-2.04129 4.21547 -0.54827
1.4362 4.11433 -1.25087
-1.37622 4.63261 -3.8046
1.86158 7.21645 -0.122572
2.45382 4.44607 2.17032
0.133882 7.15558 -4.16862
-0.90756 5.80156 3.74303
1.56276 4.78665 -1.02693
-1.76964 4.71229 1.15348
0.549015 5.51588 -4.14858
-2.33279 6.81598 -1.73721
0.564138 6.64002 3.56832
-0.680472 7.03141 -4.03617
2.11633 2.93462 1.19343
2.30288 5.12537 0.789898
-2.23622 4.88901 -2.38784
-1.00418 5.95206 -3.90927
1.19762 4.18994 3.36115
-2.18819 5.21289 -1.01812
2.02363 3.87606 0.743116
2.15173 5.21278 2.98452
2.27301 6.87025 0.948491
2.12322 7.12739 0.246174
-0.14565 5.06853 -4.01585
2.35391 6.59489 1.25873
-0.951196 5.46057 -3.91953
-2.35372 6.60102 -2.30167
-1.88771 4.70032 0.692762
0.413325 5.98647 3.56214
-2.28232 5.98998 -1.4497
-0.115302 6.86491 -4.13005
1.6393 8.16281 -0.320262
-1.90326 5.07405 0.869902
1.73527 4.65277 -0.0318158
-0.979503 5.69381 3.71977
0.204209 3.40884 3.54108
0.0481904 4.30287 -3.95214
1.71544 3.80945 -0.295196
1.24799 7.93411 3.41595
-2.0271 3.91214 -0.316857
2.35217 3.05198 2.00208
-1.96401 2.95147 0.290462
-2.32193 6.16089 -2.06999
-0.486961 8.1704 3.76849
-0.647858 6.17348 3.71523
-2.33459 7.52198 -1.27749
0.694667 4.12095 -3.99213
2.36042 7.66601 1.14691
2.37764 7.58462 1.23331
-2.05537 3.29633 -0.187947
2.12889 6.87345 0.328219
-2.11348 5.43072 -0.672805
-1.93203 5.56854 0.632191
1.73283 3.75639 -0.337997
-1.445 5.11422 -3.80985
-0.482473 6.66085 3.73395
1.59723 3.77983 -0.925972
-1.86236 3.83497 0.617551
0.104661 6.38907 -4.13412
1.86777 4.15163 0.150788
0.32939 4.65885 -4.06566
0.443038 3.40494 3.50411
1.78379 7.48828 -0.398711
-1.9145 3.81427 0.293837
-2.3262 7.4976 -1.36831
-2.14909 5.02644 -0.953261
-2.18365 6.09365 -0.195037
-2.04012 3.41832 -0.296101
-0.486139 3.72227 3.65325
-2.24638 6.18929 -0.797122
-2.05386 3.57921 -1.80376
2.28193 4.11545 1.44079
-2.1604 3.35612 -2.81169
-1.04257 6.53701 3.76554
-2.20077 7.37345 0.0336019
-2.03477 6.6877 0.636432
-2.20655 5.95243 -0.401847
-0.159967 5.14569 3.66281
1.07346 4.06174 3.40004
2.06872 6.56081 0.280231
-1.94196 3.69585 0.106851
2.36239 5.43468 1.09795
-2.232 6.20838 -0.471999
-2.21541 3.99444 -2.88855
-2.35595 7.37858 -1.91207
-1.87159 4.66719 0.772046
2.36701 3.8943 1.8277
2.16668 2.94326 1.44468
-1.90559 5.21917 0.900697
2.19053 4.36324 2.98693
-1.74097 4.97802 1.47349
-2.00884 3.40724 0.121672
-2.10453 5.37386 -0.888233
-2.12187 5.89886 0.402865
-2.09222 3.32927 -1.93543
2.34695 5.01609 1.58037
-1.99779 2.85531 -0.386962
-2.04046 4.16682 -0.117626
1.47047 7.13255 3.31012
2.5249 7.18848 1.87597
1.5481 3.93106 -1.0257
0.360556 6.54928 -4.19351
-2.30582 6.50783 -1.63339
-0.311439 5.18692 3.68275
0.30404 4.36573 -3.99436
-2.03308 3.06883 -0.581193
2.31926 4.96452 1.47454
2.29707 5.5654 0.321366
-2.06989 5.22824 0.062925
2.02248 4.15152 0.556799
0.0524914 5.74679 3.65245
-2.02678 6.9738 0.774278
-2.04255 3.14571 -0.157206
0.0805535 7.52901 3.64871
1.81759 7.49939 -0.215479
-1.91368 4.99301 0.714863
-2.01371 3.49367 -0.570005
0.0221777 2.84267 -3.87747
-1.82257 5.11751 -3.75806
-2.23292 5.48888 -2.14228
2.17694 2.90876 1.55196
1.62697 4.32332 -0.776923
-2.26537 4.89797 -2.92702
-0.66241 6.36181 -4.02039
1.7418 7.08566 -0.673792
0.426675 5.8973 3.54506
-2.00747 5.51691 0.159234
0.48086 5.01325 -4.04746
2.42523 6.85599 1.53682
1.70945 4.63449 -0.230279
2.61269 6.21817 2.64684
2.25239 7.12518 0.745668
-1.81574 3.74808 -3.71039
-0.171204 5.7654 3.67896
-0.61407 7.07479 3.7179
-1.95019 4.20458 0.21227
-2.01724 5.31391 0.445551
-1.90528 4.31195 0.448055
0.18829 3.28603 -3.94293
2.312 7.08205 1.08076
2.04718 5.74192 -0.614954
-2.10256 3.2216 -1.87282
-2.18144 6.70165 0.177579
