-2.50865 7.41455 -3.85228 -0.223487 -0.0802117 -0.971401
-2.519 7.80945 -1.99039 -0.99494 -0.0150001 0.0993458
-2.63229 7.66475 -3.14676 -0.994938 -0.015013 0.0993587
0.833654 4.32413 -4.18194 0.961811 -0.0486507 -0.269356
1.35817 5.9745 -2.58308 0.961177 -0.0410118 -0.272866
0.224038 5.47399 -4.39522 -0.24366 -0.100209 -0.96467
-1.74395 3.71534 2.43795 -0.991392 -0.0419469 0.124022
-1.30728 3.93222 3.97509 0.183937 -0.0524838 0.981536
-2.16205 4.42947 -3.68511 -0.253704 -0.121209 -0.959658
-2.1524 7.30547 -3.91077 -0.215009 -0.0750714 -0.973722
-2.17737 7.5222 -3.9287 -0.217027 -0.0772261 -0.973106
2.78527 5.06991 2.83282 0.975981 -0.0496199 -0.212131
1.37752 3.61035 -2.12388 0.962678 -0.0521067 -0.265586
-2.52433 5.07093 -3.49434 -0.997315 -0.033989 0.0648691
-1.82051 5.50177 2.46182 -0.991213 -0.03914 0.12635
2.7326 6.96875 3.25159 0.244875 -0.0438132 0.968564
-2.58591 6.31136 -3.2387 -0.996022 -0.0250786 0.0855009
-1.78453 4.6826 2.47606 -0.991232 -0.0396811 0.126037
-2.3422 3.77438 -3.39809 -0.997273 -0.0616997 0.0404999
-1.60689 5.0259 3.97968 -0.991253 -0.0399992 0.125771
2.48658 2.96896 2.15358 0.972797 -0.0600521 -0.22374
-1.3493 7.23081 4.1046 0.190527 -0.0369018 0.980988
-1.19726 3.17876 3.91157 0.176899 -0.0715206 0.981627
-2.15909 4.76882 -3.72885 -0.24793 -0.119383 -0.961394
1.15771 3.23018 -2.82718 0.961834 -0.0487852 -0.26925
2.64979 4.86291 3.15856 0.280044 -0.0521613 0.958569
-1.98088 7.01337 1.7921 -0.991311 -0.0333582 0.127236
2.30994 3.43684 3.24938 0.215601 -0.0672738 0.974161
2.75211 4.3853 2.94899 0.980661 -0.0519672 -0.18869
-1.72135 6.3526 3.62806 -0.991288 -0.0336902 0.127332
-1.79845 5.13383 2.51191 -0.99124 -0.0396657 0.125975
-2.44716 5.15212 -3.41365 -0.996689 -0.055923 0.0590174
2.63134 6.75643 3.28845 0.236554 -0.0464226 0.970509
-1.14132 5.67509 4.06581 0.195572 -0.0524496 0.979286
-0.654739 4.48786 -4.04727 -0.227003 -0.102253 -0.968511
-2.40624 4.55047 -3.31522 -0.996634 -0.0563258 0.059572
0.90445 3.45813 -3.77349 0.961835 -0.0487623 -0.269251
0.967624 5.70924 -3.91213 0.961097 -0.0412251 -0.273117
2.77372 5.19244 2.5129 0.968266 -0.0313512 -0.247949
2.59689 2.79444 2.67828 0.972799 -0.0599603 -0.223755
1.32145 3.08627 -2.21531 0.961844 -0.048896 -0.269195
-1.01063 7.07152 4.05904 0.20307 -0.0361352 0.978497
1.60981 6.5813 -1.83722 0.962074 -0.0281891 -0.271329
2.62754 7.08057 3.28991 0.220912 -0.038525 0.974533
2.59091 2.84008 2.57141 0.970832 -0.0572074 -0.232834
2.57416 3.87776 3.14433 0.267285 -0.0571772 0.96192
-2.4205 4.26988 -3.36858 -0.994959 -0.0521556 0.0856511
-1.39972 6.21957 4.07669 0.1905 -0.0370206 0.980989
2.52373 6.57766 3.29798 0.21137 -0.0365743 0.976722
0.479268 3.46011 -4.23881 -0.246927 -0.12604 -0.960802
2.81684 5.52403 2.79162 0.975454 -0.0402912 -0.216485
-1.32501 7.02457 4.09241 0.190683 -0.036874 0.980959
-1.87344 6.92395 -3.95825 -0.22305 -0.0803571 -0.971489
-0.849178 4.08904 4.0048 0.22466 -0.0618265 0.972474
-1.30347 3.06845 3.8998 0.166379 -0.0756807 0.983153
2.66214 3.83331 2.56027 0.969416 -0.0535899 -0.239502
2.67057 4.49152 2.45984 0.96921 -0.0548109 -0.24006
-1.64933 5.96966 3.9455 -0.991213 -0.0393149 0.126298
2.11191 4.00974 3.34188 0.195192 -0.061988 0.978804
-2.61144 7.04963 -3.19532 -0.995034 -0.0243582 0.0965143
2.87688 6.64424 2.83539 0.976161 -0.0273461 -0.21532
0.232365 4.89398 -4.3612 -0.250128 -0.111874 -0.961728
2.60043 3.41454 2.3137 0.968131 -0.0481964 -0.245762
0.777653 3.37132 3.58268 0.20334 -0.0726743 0.976407
2.62788 3.34031 2.60044 0.970847 -0.0570688 -0.232807
-2.36621 6.86596 -3.82927 -0.214854 -0.0748945 -0.97377
2.86577 6.55869 3.00651 0.988667 -0.0161781 -0.149251
-1.80532 4.31866 -3.76033 -0.228889 -0.109235 -0.967304
-1.79256 3.6866 -3.68622 -0.239943 -0.121505 -0.963153
-2.43199 6.37067 -3.79449 -0.223325 -0.0852064 -0.971013
-1.69163 6.29648 3.71632 -0.991204 -0.0390861 0.126442
-0.84669 3.13463 3.95433 0.224242 -0.0738694 0.97173
-1.21045 6.31121 4.08104 0.194601 -0.0444773 0.979874
-2.6374 7.70552 -3.40366 -0.996645 -0.0165802 0.0801541
2.43872 4.06782 3.21397 0.233562 -0.0493873 0.971087
-1.20866 4.89125 4.04546 0.18785 -0.0637247 0.980128
-0.939255 5.23634 4.04244 0.217384 -0.0483632 0.974887
-0.912269 5.58428 4.07929 0.221564 -0.0533933 0.973683
-1.74849 6.89904 3.56131 -0.991288 -0.0337022 0.127327
1.39054 5.86257 3.5568 0.233744 -0.0492073 0.971052
0.456881 5.6287 -4.43777 -0.230421 -0.102533 -0.967674
0.858566 4.13565 -4.05584 0.961075 -0.04132 -0.27318
0.116574 5.38149 -4.42155 -0.269906 -0.0997447 -0.957706
2.77291 4.39592 2.81635 0.970926 -0.0464345 -0.234832
2.34978 7.31295 3.36757 0.204348 -0.0358061 0.978243
-2.34254 3.43286 -2.98745 -0.994932 -0.052361 0.0858434
-1.05225 6.46329 4.07543 0.207895 -0.0409647 0.977293
-2.32885 2.83552 -3.0966 -0.994407 -0.0510785 0.092446
-1.60336 3.48596 3.48616 -0.991364 -0.0416511 0.124348
-1.10589 4.15359 3.99192 0.195311 -0.061382 0.978819
-1.74733 6.44279 3.44997 -0.991288 -0.0336818 0.127332
-1.93803 6.59979 1.89941 -0.991203 -0.038132 0.126735
-0.98649 5.52252 4.06297 0.210734 -0.0526772 0.976123
0.977414 6.46313 -3.99214 0.961106 -0.041191 -0.273091
-2.60909 6.53075 -3.20436 -0.995426 -0.0184726 0.0937347
-0.928405 4.13936 4.01151 0.215025 -0.0663946 0.974349
-1.08394 5.22993 4.06745 0.203447 -0.058598 0.977331
-1.36027 6.05474 4.07778 0.190127 -0.0417906 0.98087
-1.90485 4.04086 -3.70399 -0.247952 -0.119491 -0.961375
2.80693 5.26169 2.89059 0.978472 -0.0454703 -0.201306
-2.0048 5.46668 -3.83134 -0.236286 -0.100101 -0.966514
2.89731 6.09363 2.91883 0.977332 -0.00584595 -0.211632
2.7248 4.31706 2.75678 0.974496 -0.0529991 -0.218058
-0.912309 7.09652 -4.17798 -0.216858 -0.0776091 -0.973113
0.9723 5.51898 -3.8668 0.961096 -0.0412374 -0.27312
-1.69707 5.61382 3.62102 -0.991287 -0.033702 0.127337
0.933479 4.59133 -3.86215 0.961085 -0.0412968 -0.273148
-2.248 5.48559 -3.76755 -0.224673 -0.092351 -0.970048
2.67833 4.14987 2.47532 0.968144 -0.0481028 -0.245731
-1.48361 6.83899 4.12763 0.183357 -0.0444764 0.98204
2.62321 3.17837 2.6827 0.972807 -0.0595607 -0.223829
-1.90654 3.77862 -3.67593 -0.234697 -0.108654 -0.965977
-1.67497 5.83104 3.85049 -0.991287 -0.0337063 0.127335
2.585 5.64813 3.24774 0.236311 -0.0466633 0.970556
-1.10912 5.98701 4.06638 0.201314 -0.0456466 0.978463
2.32407 6.1847 3.38399 0.210734 -0.052677 0.976123
-1.81206 5.889 2.67944 -0.99122 -0.0378885 0.126679
-1.25561 3.84625 3.97047 0.176907 -0.0713467 0.981638
2.89681 7.57978 2.8003 0.972188 -0.00358397 -0.234174
2.46957 5.38782 3.29687 0.228873 -0.0555575 0.97187
-1.2972 6.40639 4.07702 0.190269 -0.0407452 0.980886
-2.42208 7.0682 -3.84401 -0.222651 -0.0802214 -0.971592
-1.07887 7.49606 -4.16062 -0.214462 -0.0746609 -0.973875
-2.59447 6.62897 -3.28923 -0.995943 -0.0270371 0.0858248
0.727764 6.83189 -4.51297 -0.214744 -0.0763907 -0.973678
-2.01872 6.39445 -3.90209 -0.221276 -0.089969 -0.971052
0.900315 6.0542 -4.20124 0.961099 -0.0412126 -0.273111
-0.833859 4.15319 -4.00741 -0.258008 -0.116539 -0.959088
2.52514 3.4931 3.15174 0.263861 -0.067871 0.96217
2.7753 5.06469 2.65117 0.972428 -0.0398006 -0.229782
1.22891 6.01601 -3.04169 0.961134 -0.0410294 -0.273017
-2.23813 6.50041 -3.86767 -0.231385 -0.0936375 -0.968346
-2.47867 5.00127 -3.27302 -0.996508 -0.0432795 0.0714037
-2.486 5.09266 -3.07358 -0.994457 -0.0412702 0.0967026
2.72226 7.50137 3.29629 0.204404 -0.0357459 0.978234
2.94291 7.82966 2.96901 0.968324 0.0101709 -0.249488
-2.43954 4.94275 -3.17432 -0.994969 -0.0520471 0.0856006
2.65947 6.18808 3.26207 0.204409 -0.0359379 0.978226
-2.62287 6.66199 -3.56721 -0.996018 -0.0251338 0.0855395
-2.26827 4.92558 -3.70873 -0.24366 -0.100209 -0.96467
-2.03951 5.00743 -3.77748 -0.230133 -0.102469 -0.967749
-2.36155 4.01102 -3.50286 -0.997296 -0.0615076 0.0402149
2.8627 5.60625 2.92722 0.972428 -0.0398001 -0.229782
-1.57339 3.39547 3.69443 -0.991365 -0.041671 0.124331
2.22629 4.14913 3.32847 0.203777 -0.0673113 0.976701
-1.12883 4.54592 4.00009 0.194667 -0.0521958 0.97948
2.46685 5.78716 3.32149 0.221564 -0.0533935 0.973683
2.62638 5.41556 3.21699 0.249729 -0.0489763 0.967077
0.206242 3.08094 -4.11845 -0.246711 -0.125989 -0.960864
-2.53315 5.31926 -3.49031 -0.996284 -0.0371265 0.0777106
-1.62502 3.77591 3.41399 -0.991351 -0.0414561 0.124519
2.61112 5.93981 3.30237 0.205722 -0.0486831 0.977399
-2.19736 5.36646 -3.77794 -0.230182 -0.102468 -0.967738
2.81552 4.10919 2.74828 0.968757 -0.0255203 -0.246697
-1.13035 6.44051 -4.12688 -0.23138 -0.0937729 -0.968334
-2.40971 6.06106 -3.77256 -0.223375 -0.0852807 -0.970995
0.272946 6.19276 -4.36714 -0.215595 -0.0776815 -0.973388
-2.53717 6.54774 -3.63181 -0.997311 -0.0536168 0.0499569
2.76848 7.35083 3.29097 0.220214 -0.0430521 0.974501
0.326191 5.28053 -4.30425 -0.215179 -0.0768608 -0.973545
0.91097 6.17584 -4.18225 0.961101 -0.0412061 -0.273106
0.295543 6.44016 -4.39142 -0.215576 -0.0774948 -0.973407
2.77214 6.32824 3.23684 0.2204 -0.0409005 0.974552
-2.39782 6.62852 -3.82442 -0.223224 -0.0849592 -0.971058
0.804349 3.32249 -4.12195 0.961059 -0.0413515 -0.273231
2.76897 4.52332 2.94752 0.972829 -0.0586497 -0.223974
2.93139 7.01438 2.89053 0.968361 -0.00773244 -0.249435
0.908014 4.65176 -3.97515 0.961803 -0.0486142 -0.26939
-2.2469 3.17813 -3.49508 -0.255253 -0.128928 -0.95824
2.94211 7.37481 2.95683 0.969342 0.00560969 -0.245653
0.866929 5.18933 -4.2181 0.961793 -0.048565 -0.269437
2.93212 6.71478 2.88674 0.968042 0.000897473 -0.250787
-2.56037 5.4661 -3.36065 -0.994642 -0.0329021 0.0980068
2.73948 3.71982 2.76002 0.966729 -0.0464484 -0.251552
2.68359 6.49949 3.29561 0.210645 -0.045506 0.976503
1.27608 5.67812 -2.82577 0.961151 -0.0410971 -0.272945
0.285554 6.78764 -4.41707 -0.215672 -0.0774786 -0.973387
0.923838 3.66261 -3.74121 0.961833 -0.0487518 -0.26926
0.824632 3.51566 -4.06892 0.961831 -0.0487464 -0.269266
0.572974 4.36253 -4.36267 -0.241057 -0.11401 -0.963791
0.254103 4.37494 -4.29144 -0.24439 -0.106869 -0.96377
-2.4332 5.78186 -3.73492 -0.223546 -0.0802939 -0.97138
-1.71608 6.24495 3.5096 -0.991204 -0.0390412 0.126456
-1.60497 4.83618 3.93201 -0.991289 -0.0405193 0.12532
-1.6327 4.87899 3.72819 -0.991266 -0.0401993 0.125601
2.37326 7.61819 3.38517 0.197252 -0.0363629 0.979678
-2.09216 5.87108 -3.85143 -0.24366 -0.100209 -0.96467
0.546685 5.3096 -4.35657 -0.215346 -0.0776278 -0.973448
2.91596 5.85956 2.88835 0.969892 -0.00753029 -0.243417
2.53676 6.05279 3.29509 0.197336 -0.0366887 0.979649
-1.81567 3.33668 -3.63321 -0.246787 -0.125625 -0.960892
-1.77216 5.09671 -3.85051 -0.230145 -0.102468 -0.967747
-1.56661 3.22426 3.68981 -0.99137 -0.0417389 0.124271
2.69186 7.92957 3.33254 0.197248 -0.0363548 0.979679
2.80041 4.67954 2.99379 0.975981 -0.04962 -0.212131
0.662379 5.63768 -4.42738 -0.21869 -0.0843149 -0.972145
1.29429 5.23702 -2.70212 0.96181 -0.0486013 -0.26937
-1.82318 4.49988 -3.77723 -0.234957 -0.108146 -0.965971
-1.33527 3.47164 3.97566 0.181645 -0.076173 0.98041
-2.41348 4.02179 -3.31703 -0.994455 -0.0505202 0.0922362
2.32351 6.66831 3.39066 0.20145 -0.0453721 0.978447
-2.35948 7.3074 -3.8652 -0.215021 -0.0750739 -0.97372
-1.6217 4.78376 3.78451 -0.991262 -0.0401483 0.125652
2.6629 7.2815 3.28937 0.220929 -0.038429 0.974532
2.22286 2.87059 3.23578 0.212189 -0.0726282 0.974526
0.81051 4.36769 -4.26048 0.96108 -0.041307 -0.273166
-1.72187 6.50506 3.54582 -0.991201 -0.0389151 0.126517
-2.13253 2.90752 -3.48215 -0.276154 -0.130938 -0.952152
2.6201 7.48491 3.31707 0.204397 -0.0357525 0.978235
2.543 3.75412 3.23192 0.21219 -0.072628 0.974526
0.898459 3.8663 -3.86848 0.961826 -0.0487208 -0.269289
2.702 6.08541 3.24763 0.220114 -0.042283 0.974557
-1.58682 3.22563 3.52845 -0.991372 -0.0417689 0.124244
2.7876 3.86096 2.91881 0.966729 -0.0464455 -0.251551
0.765665 7.99025 3.71826 0.19667 -0.0355779 0.979824
-1.21791 5.76425 4.05772 0.194555 -0.044521 0.979881
-1.28418 5.5557 4.05715 0.187059 -0.0497089 0.98109
-1.36557 6.62963 4.09906 0.189934 -0.0408486 0.980947
2.61332 4.37518 3.22619 0.224738 -0.0631498 0.972371
-2.55394 4.98553 -3.45195 -0.996722 -0.0272195 0.0761926
-2.35663 2.99853 -3.29836 -0.994415 -0.0509834 0.0924109
2.50829 3.30455 3.19624 0.215314 -0.0668012 0.974257
2.77694 4.67611 2.72706 0.966733 -0.0464122 -0.251543
2.60267 2.96306 2.58929 0.970838 -0.0571524 -0.232825
2.71314 5.80165 3.23047 0.220231 -0.0415889 0.974561
-1.83301 6.76292 2.76174 -0.991201 -0.0384896 0.126648
2.41254 4.42206 3.25509 0.228873 -0.0555575 0.97187
2.94302 5.36654 2.9885 0.968389 -0.00791469 -0.249319
0.952033 5.12562 -3.87827 0.961091 -0.0412642 -0.273131
2.81709 4.84344 3.03447 0.978472 -0.0454703 -0.201306
2.90584 6.43262 2.8303 0.969892 -0.00752554 -0.243418
-1.60426 4.16552 3.7142 -0.99132 -0.0410101 0.12491
2.71145 3.86682 2.78691 0.968745 -0.0565406 -0.241531
-1.56223 3.39071 3.7826 -0.991362 -0.0416205 0.124377
1.45556 6.53149 -2.32425 0.961187 -0.0410208 -0.272832
0.30629 3.60692 -4.22035 -0.247894 -0.11924 -0.961421
-1.6415 5.54497 3.87351 -0.991228 -0.0395822 0.126095
2.62058 4.09579 3.17164 0.233569 -0.0493805 0.971086
-1.68657 6.10362 3.69566 -0.991208 -0.0391916 0.126376
-1.67651 5.29315 3.51846 -0.991234 -0.0396871 0.126013
2.94107 6.99426 2.97954 0.971448 0.000595602 -0.237251
2.79326 6.83827 3.24813 0.211203 -0.0362032 0.976772
0.175968 4.98581 -4.30216 -0.230166 -0.102536 -0.967735
-1.64984 5.10273 3.6663 -0.991249 -0.0399366 0.125817
0.970285 5.32671 -3.84469 0.961094 -0.0412496 -0.273124
-2.05625 4.5562 -3.72897 -0.247936 -0.119415 -0.961388
-1.63317 4.47124 3.58747 -0.99131 -0.0408386 0.125047
-2.0463 7.02485 -3.91343 -0.215279 -0.0753866 -0.973638
2.73335 4.57259 3.18031 0.259758 -0.0696646 0.963158
-2.35795 7.52783 -3.88199 -0.214856 -0.0748908 -0.97377
-1.42711 5.21867 4.05609 0.190237 -0.0420574 0.980837
1.29874 6.16658 -2.81946 0.961149 -0.0410553 -0.272959
-2.48548 7.32396 -3.8396 -0.215356 -0.0754388 -0.973617
2.47758 5.18994 3.31676 0.195064 -0.0520596 0.979408
2.26428 5.20637 3.33885 0.205729 -0.0486915 0.977397
0.918149 5.33472 -4.06142 0.961792 -0.0485606 -0.269441
0.896774 5.09772 -4.0683 0.961089 -0.0412677 -0.273139
-1.70071 7.21528 3.93364 -0.991203 -0.0386293 0.12659
0.557823 6.22697 -4.49739 -0.230736 -0.0887586 -0.96896
-2.61101 7.20278 -3.7319 -0.998971 -0.0223344 0.0394728
-2.66651 7.69197 -3.57532 -0.995404 -0.0178535 0.0940847
0.818138 4.5808 -4.26622 0.961083 -0.0412947 -0.273156
1.34022 5.74495 -2.61181 0.961176 -0.0409812 -0.272877
-2.00845 5.68081 -3.85281 -0.24366 -0.100209 -0.96467
-2.47872 5.41135 -3.53778 -0.99564 -0.055186 0.0751991
-1.6491 5.01641 3.64286 -0.991273 -0.0402858 0.125515
-1.41485 3.73542 3.98472 0.183937 -0.0524841 0.981536
0.113927 3.95322 -4.22662 -0.25369 -0.121217 -0.95966
-1.72866 6.65755 3.6517 -0.991288 -0.033701 0.127329
-0.648941 4.77099 -4.11846 -0.247903 -0.119277 -0.961414
0.248361 7.38244 -4.4546 -0.215615 -0.0770328 -0.973435
2.82521 5.18941 2.98862 0.975981 -0.04962 -0.212131
0.978285 3.83457 -3.60153 0.962398 -0.0510838 -0.266797
-2.55554 6.62905 -3.05549 -0.996626 -0.0330702 0.0751141
-1.29842 6.22787 4.1186 0.208014 -0.0410623 0.977264
-1.55391 3.5533 3.9066 -0.991345 -0.0413895 0.124584
-1.64298 5.76799 3.9321 -0.991222 -0.0394781 0.126176
-1.6197 4.70371 3.77356 -0.991273 -0.0403176 0.125506
0.47766 2.90129 -4.16477 -0.246809 -0.126044 -0.960832
2.74347 5.02422 2.53448 0.968587 -0.0446856 -0.244625
2.85338 5.79621 3.08675 0.980661 -0.0519672 -0.18869
-1.66097 6.33019 3.96665 -0.991206 -0.0391501 0.126407
-1.68875 6.32137 3.87314 -0.991287 -0.0337081 0.12733
-1.68137 5.86578 3.66166 -0.991216 -0.0393688 0.126254
-1.88703 4.91679 -3.80854 -0.22889 -0.109232 -0.967304
-1.68102 6.13897 3.88492 -0.991287 -0.03371 0.127331
-2.07449 3.86693 -3.64204 -0.241317 -0.113571 -0.963778
0.86146 4.69366 -4.1489 0.961803 -0.0486121 -0.269392
2.44758 2.89472 3.12081 0.286836 -0.0748293 0.955053
1.19328 3.01208 -2.66039 0.961837 -0.048815 -0.269234
1.44195 6.28632 -2.33562 0.96119 -0.0409886 -0.272824
-2.5527 5.81966 -3.50032 -0.996289 -0.0370743 0.0776772
0.600272 4.0965 -4.35372 -0.247042 -0.126063 -0.96077
-2.45736 4.57517 -3.00781 -0.994447 -0.0414377 0.0967347
-1.74563 6.80057 3.55742 -0.991288 -0.0337039 0.127328
0.821835 4.68489 -4.26907 0.961084 -0.0412894 -0.273153
-1.69306 7.02403 3.93192 -0.9912 -0.038833 0.126546
-1.95314 7.34203 -3.9565 -0.214694 -0.0747281 -0.973818
-1.198 4.34625 4.10167 0.224658 -0.0618016 0.972476
-1.18992 3.64402 3.91889 0.168439 -0.0675407 0.983395
-1.23163 5.90427 4.0668 0.194563 -0.0445141 0.97988
-0.901222 3.64509 3.89204 0.17689 -0.0714157 0.981636
2.58311 7.29107 3.33095 0.197275 -0.0364088 0.979672
-2.58974 6.03375 -3.62317 -0.997956 -0.0230555 0.0595963
-1.40094 5.51525 4.10619 0.193704 -0.0531933 0.979617
-1.17689 3.44255 4.05393 0.224242 -0.0738694 0.97173
-2.63968 6.92279 -3.59435 -0.99665 -0.0165555 0.0800931
2.74376 5.98478 3.23298 0.234659 -0.0483006 0.970877
-1.60498 4.5243 3.82996 -0.991291 -0.0405757 0.125283
-1.24763 5.20365 4.10958 0.217384 -0.0483633 0.974887
2.7253 4.04998 2.93283 0.9757 -0.0592265 -0.210956
1.51771 6.5669 3.521 0.19743 -0.0370599 0.979616
2.52726 7.60143 3.33266 0.211084 -0.0359125 0.976808
-1.62114 5.02795 3.86799 -0.991257 -0.0400612 0.125714
-1.03947 5.441 4.0057 0.184103 -0.0523923 0.98151
1.2793 5.26866 3.5806 0.20419 -0.0595639 0.977117
0.90528 6.36722 -4.2313 0.961103 -0.0412006 -0.2731
-1.58519 4.0913 3.84042 -0.991325 -0.0410757 0.124851
-2.41661 4.12567 -3.29034 -0.99446 -0.0504615 0.0922139
0.85905 3.02295 -3.85717 0.961846 -0.0488112 -0.269203
2.41006 6.88864 3.33973 0.204355 -0.0358762 0.978239
0.94762 4.07362 -3.73045 0.961827 -0.0487209 -0.269286
-1.39652 6.86102 4.10032 0.190393 -0.037102 0.981007
2.71376 3.74947 2.9151 0.972821 -0.0589623 -0.223925
-1.63383 5.21537 4.00703 -0.991286 -0.0337225 0.127338
2.85773 6.177 2.99468 0.988667 -0.0161781 -0.149251
-2.66333 7.54997 -3.32933 -0.993782 -0.0135898 0.110514
-1.42936 4.85141 4.0748 0.176888 -0.0713495 0.981641
-2.32139 6.96499 -3.84705 -0.214952 -0.0750061 -0.97374
0.384608 6.43851 -4.40435 -0.214489 -0.0757535 -0.973784
0.492279 7.04651 -4.47454 -0.214408 -0.075543 -0.973819
0.28231 5.72948 -4.36521 -0.220489 -0.0914591 -0.971092
0.927502 7.12113 -4.26722 0.961108 -0.0411851 -0.273084
-2.61634 5.95818 -3.48248 -0.995883 -0.0194162 0.0885403
2.72356 5.25619 3.19125 0.227768 -0.040575 0.97287
0.940127 6.15486 -4.07653 0.961102 -0.0412045 -0.273104
0.167202 5.93708 -4.38852 -0.231301 -0.094071 -0.968324
-2.54898 5.85266 -3.31524 -0.996614 -0.033225 0.0752117
2.85175 5.74929 2.69409 0.971332 -0.0149153 -0.237257
-1.7688 4.0989 -3.74634 -0.24787 -0.119123 -0.961442
2.53234 4.56289 3.22073 0.24745 -0.0589132 0.967108
-1.63213 5.41977 3.90723 -0.991237 -0.0397343 0.125976
2.81884 6.98621 3.27231 0.197287 -0.0364509 0.979668
2.77392 5.70788 3.24009 0.210759 -0.045849 0.976462
0.496482 6.14932 -4.48773 -0.231305 -0.0940385 -0.968326
-2.2117 5.57046 -3.79613 -0.230186 -0.102465 -0.967737
-2.24636 3.71155 -3.59051 -0.236282 -0.100103 -0.966514
2.89105 5.00625 2.95209 0.968757 -0.0255209 -0.246697
-1.66189 5.97314 3.84811 -0.991214 -0.0393324 0.126281
2.86732 6.67685 2.69951 0.971332 -0.0149153 -0.237257
1.02387 5.97479 -3.7548 0.961104 -0.0411998 -0.273098
2.11572 3.28173 3.30685 0.192361 -0.0720975 0.978672
2.93361 5.9946 3.09044 0.97602 -0.011793 -0.217361
0.654132 3.53818 -4.3162 -0.255228 -0.128958 -0.958242
2.17036 3.64812 3.3231 0.192356 -0.0720932 0.978673
-1.75568 2.82856 -3.5789 -0.255252 -0.128929 -0.95824
2.7119 7.58873 3.30164 0.204396 -0.0357436 0.978235
0.54368 4.2639 -4.36304 -0.247893 -0.119241 -0.961421
0.891607 6.66612 -4.32468 0.961105 -0.0411943 -0.273094
0.284088 3.31052 -4.16892 -0.246879 -0.126028 -0.960816
0.894211 4.45818 -3.98997 0.961812 -0.0486521 -0.269353
-2.1576 5.99061 -3.83757 -0.231389 -0.0936149 -0.968347
-1.71214 7.19263 3.83543 -0.991201 -0.0387391 0.12657
-1.57395 4.10912 3.93636 -0.991319 -0.0409884 0.12493
-1.51286 6.35172 4.17484 0.194392 -0.0529643 0.979493
0.675136 4.99382 -4.35932 -0.215263 -0.0773037 -0.973492
-2.56727 6.39827 -3.11771 -0.994642 -0.0329021 0.0980068
-1.19083 3.04643 3.99217 0.212189 -0.0726289 0.974526
0.876565 4.91418 -4.1345 0.961799 -0.0485933 -0.26941
0.368283 3.252 -4.20155 -0.255228 -0.128958 -0.958242
2.85297 7.95216 2.59931 0.966362 0.0092819 -0.257019
2.68081 5.09627 3.24462 0.201417 -0.0455286 0.978447
0.956568 6.59248 -4.15069 0.961789 -0.048542 -0.269454
-2.34008 4.34726 -3.61994 -0.276154 -0.130938 -0.952152
-2.24628 4.81877 -3.71246 -0.228887 -0.109235 -0.967305
-0.952888 4.66516 4.05275 0.215026 -0.0663963 0.974349
-2.44643 5.17966 -3.69246 -0.224696 -0.0923603 -0.970042
2.94117 7.53388 2.95673 0.96934 0.00562155 -0.245661
-1.11338 6.51622 4.0795 0.202679 -0.0415273 0.978364
0.776565 3.62081 -4.2655 0.961066 -0.0413383 -0.27321
0.164576 4.48369 -4.29267 -0.247121 -0.126045 -0.960752
2.44691 3.43709 3.25319 0.192377 -0.0721113 0.978668
2.7053 5.59222 3.26261 0.201417 -0.0455129 0.978448
0.942049 6.75243 -4.16029 0.961107 -0.0411902 -0.273089
2.92648 6.53698 2.8865 0.968368 -0.00777906 -0.249404
-0.927555 3.47775 3.96699 0.212189 -0.0726289 0.974526
2.81825 4.11986 2.98875 0.96673 -0.0464381 -0.251549
-1.14423 4.41508 4.01604 0.189563 -0.0683517 0.979487
-1.53291 5.89294 4.09565 0.183536 -0.0448338 0.98199
-0.847754 4.47866 3.94952 0.187857 -0.0637459 0.980126
-1.6278 5.33961 3.91579 -0.991241 -0.0398005 0.125923
-2.21457 4.21667 -3.6458 -0.246821 -0.125651 -0.96088
2.6914 2.87892 2.9425 0.968775 -0.0567737 -0.241353
-2.29727 3.06974 -3.39578 -0.997234 -0.062069 0.0408954
-1.70038 6.50553 3.71347 -0.991203 -0.0390071 0.126471
2.89724 6.54625 3.20471 0.227724 -0.0406388 0.972877
2.2267 5.61513 3.36223 0.201413 -0.0455217 0.978448
-1.5846 4.38944 3.94635 -0.991299 -0.0407032 0.125175
2.68709 3.12113 2.86706 0.968733 -0.0567374 -0.241531
-1.61072 3.23507 3.33899 -0.99138 -0.0418729 0.124145
-1.04068 6.59816 4.04787 0.20304 -0.0361741 0.978502
2.89228 5.94793 3.02289 0.969205 -0.0549021 -0.240057
2.8107 7.1064 3.2514 0.220826 -0.0389429 0.974535
2.79588 4.67578 3.16037 0.247401 -0.058967 0.967117
-2.42187 3.44952 -3.41878 -0.996509 -0.0432502 0.0714077
-2.28603 6.80095 -3.84303 -0.215266 -0.0753632 -0.973643
2.40669 5.01611 3.25777 0.267163 -0.0568555 0.961973
-1.5673 2.99808 3.60706 -0.991374 -0.0417987 0.124217
2.82495 6.14871 3.22096 0.220207 -0.0418518 0.974555
-1.74487 6.75879 3.44667 -0.991202 -0.0387409 0.126561
-2.29003 7.65477 -3.90689 -0.2149 -0.0749407 -0.973757
0.92649 7.33176 -4.3026 0.961109 -0.0411833 -0.273082
-2.42037 5.6035 -3.7232 -0.22349 -0.0803251 -0.971391
-1.52346 4.64415 4.05374 0.183975 -0.0524678 0.98153
-2.60594 6.96136 -3.16093 -0.995034 -0.0243591 0.0965132
-1.7176 3.50853 -3.68487 -0.264665 -0.126866 -0.955959
-1.66735 5.8231 3.75849 -0.991218 -0.0393934 0.12623
2.93523 7.76409 2.90178 0.966362 0.00927621 -0.257018
-1.13183 3.80902 3.97096 0.189506 -0.0681861 0.979509
-1.70995 6.66406 3.79881 -0.991288 -0.0337152 0.127327
2.80869 4.76419 3.2055 0.238943 -0.0708549 0.968445
-1.22928 5.65462 4.15528 0.221564 -0.0533933 0.973683
-1.37433 5.71838 4.06563 0.196156 -0.0361636 0.979906
-2.12254 4.07635 -3.6579 -0.228885 -0.109238 -0.967305
-1.11961 6.7694 4.05864 0.189532 -0.0414243 0.981
1.67904 6.92519 -1.59777 0.961222 -0.0410388 -0.272707
-2.52173 4.88361 -3.55222 -0.996284 -0.0371321 0.0777142
0.0403491 5.71684 -4.435 -0.269906 -0.0997447 -0.957706
-2.59215 7.12505 -3.07841 -0.997304 -0.0196154 0.0707117
2.60486 3.66842 3.22195 0.195193 -0.0619818 0.978804
-2.63019 6.6484 -3.66944 -0.995995 -0.0257329 0.0856275
-1.73391 6.59377 3.59368 -0.991288 -0.0337111 0.127328
-1.53069 6.48019 4.15209 0.194557 -0.0444538 0.979883
-1.6652 4.60994 3.38514 -0.991263 -0.0401795 0.125632
0.928482 3.76487 -3.74312 0.961832 -0.0487468 -0.269263
2.76752 3.79972 3.02492 0.968876 -0.0562239 -0.241075
2.79177 4.30893 2.99914 0.969011 -0.0557069 -0.240655
-1.64378 5.61225 4.03474 -0.991286 -0.033726 0.127334
-1.11654 7.8181 4.08066 0.190353 -0.0368242 0.981025
-0.936886 3.95851 4.00121 0.215054 -0.0664449 0.974339
-2.60929 6.65245 -3.45192 -0.997304 -0.0196378 0.0707112
-1.62532 4.5443 3.67624 -0.991284 -0.040484 0.125365
-2.51449 5.67861 -3.65503 -0.996977 -0.0478699 0.0611984
0.657597 4.01538 -4.38135 -0.255229 -0.128958 -0.958242
0.822041 3.77551 -4.12532 0.961833 -0.0487479 -0.269261
-1.64908 5.83769 4.05335 -0.991287 -0.0337242 0.127332
-1.63214 5.03689 3.78434 -0.991254 -0.040015 0.125752
-1.56272 3.73275 3.89705 -0.991342 -0.0413363 0.124627
0.727201 6.31991 -4.48613 -0.21586 -0.0811659 -0.973045
2.84323 6.05898 2.70301 0.97273 -0.0255123 -0.230532
2.80421 7.73994 3.30296 0.197257 -0.0363716 0.979677
2.72034 4.44535 3.24482 0.21219 -0.0726279 0.974526
0.230289 6.86523 -4.43347 -0.220172 -0.0818329 -0.972023
2.67468 3.93176 3.24487 0.192383 -0.0721163 0.978667
0.832946 5.96964 -4.42539 0.961097 -0.0412193 -0.273117
-2.58595 6.21371 -3.6575 -0.998971 -0.0223344 0.0394728
2.9604 6.30128 3.02571 0.968373 -0.00780789 -0.249385
2.91548 7.7935 3.25582 0.211092 -0.0359137 0.976806
1.01861 5.77788 -3.74343 0.961101 -0.0412114 -0.273104
0.496678 7.34368 -4.49825 -0.214384 -0.0754639 -0.97383
0.491253 3.76909 -4.33099 -0.264665 -0.126866 -0.955959
-2.51961 5.85035 -3.73934 -0.224706 -0.0923417 -0.970041
2.13754 5.02839 3.3867 0.204228 -0.0596127 0.977107
-1.62473 4.30019 3.59711 -0.991317 -0.0409439 0.12496
0.346294 5.78495 -4.43902 -0.236251 -0.100114 -0.966521
-2.57952 6.27708 -3.32518 -0.996722 -0.0272193 0.0761925
0.92365 3.29402 -3.6754 0.961842 -0.0487939 -0.26922
2.83442 5.50102 3.20078 0.24741 -0.0589572 0.967116
0.473656 5.12015 -4.38235 -0.231279 -0.0941334 -0.968323
-1.49684 4.23809 4.027 0.183949 -0.0524798 0.981534
-1.49726 4.8774 4.15807 0.204166 -0.0678324 0.976583
-2.32286 4.18312 -3.60264 -0.277977 -0.123387 -0.95263
-1.56361 3.88644 3.94251 -0.991334 -0.041216 0.124731
-1.34957 7.327 4.10818 0.190466 -0.0369191 0.980999
2.31247 3.31918 3.28954 0.176943 -0.0718192 0.981597
-1.5672 3.96999 3.94363 -0.99132 -0.0410221 0.124904
1.05389 7.56237 -3.95295 0.963785 0.00717343 -0.266582
2.79993 5.36081 3.17775 0.227764 -0.0405815 0.97287
0.769279 5.66799 -4.44089 -0.215969 -0.0808129 -0.97305
-2.18005 3.83909 -3.60071 -0.264665 -0.126866 -0.955959
-1.66583 5.69745 3.88571 -0.991287 -0.0337244 0.127333
-1.0093 3.63515 3.97045 0.20423 -0.0682151 0.976543
2.96896 7.02375 3.09385 0.971449 0.000599718 -0.237249
-1.57595 6.93244 4.13758 0.19047 -0.0369876 0.980996
0.0711193 6.30876 -4.40161 -0.231313 -0.0940301 -0.968325
0.704615 6.64732 -4.49031 -0.214361 -0.075591 -0.973825
-1.55083 3.72448 3.98927 -0.99134 -0.0413091 0.124651
-1.12443 7.72975 4.07903 0.190367 -0.0368492 0.981021
0.617112 4.64629 -4.42936 -0.247886 -0.119207 -0.961427
-1.68649 6.5794 3.95891 -0.991287 -0.0337174 0.127328
-1.69418 5.83783 3.55317 -0.991216 -0.0393317 0.126266
-1.55384 7.15489 4.14139 0.190388 -0.0369758 0.981012
-1.0283 4.61766 4.01917 0.203449 -0.0586009 0.97733
0.0804783 2.91182 -4.12458 -0.276154 -0.130938 -0.952152
1.40612 7.08074 -2.57947 0.961158 -0.0410918 -0.272922
-2.50844 4.59061 -3.52244 -0.996283 -0.0371447 0.0777223
0.841863 5.45764 -4.35586 0.961792 -0.0485599 -0.269442
-2.6257 7.26957 -3.14052 -0.994937 -0.0150224 0.0993678
-1.54125 3.29887 3.91967 -0.991359 -0.0415828 0.124411
-2.55721 6.17908 -3.17123 -0.995511 -0.0335194 0.0885066
-1.66207 6.31436 4.07876 -0.991287 -0.0337177 0.127329
-1.51508 6.63372 4.11495 0.190487 -0.0370897 0.980989
-1.20287 6.12539 4.07109 0.194569 -0.0444957 0.979879
-1.51247 5.17864 4.18209 0.204172 -0.067799 0.976584
-1.44204 7.7139 4.14008 0.190289 -0.0368944 0.981035
1.23634 7.13938 -3.184 0.961124 -0.0411468 -0.273034
-1.95978 5.80693 -3.84065 -0.216513 -0.0769299 -0.973244
0.777363 3.46489 -4.23882 0.961063 -0.0413439 -0.273218
0.818105 5.27573 -4.37207 0.961089 -0.0412569 -0.273139
0.118577 5.18887 -4.40206 -0.269906 -0.0997447 -0.957706
-1.66053 5.48621 3.7052 -0.991233 -0.0396636 0.126029
1.00312 6.69141 -3.93626 0.961108 -0.0411853 -0.273085
2.92216 6.34791 2.87572 0.968372 -0.00780033 -0.249389
0.560263 6.9899 -4.51882 -0.219525 -0.0824987 -0.972113
2.84671 4.95917 2.8274 0.968266 -0.0313498 -0.247949
2.81708 5.86127 2.7477 0.974135 -0.0461027 -0.221212
0.648979 3.136 -4.2607 -0.255227 -0.12896 -0.958242
2.9257 7.43365 3.23692 0.220888 -0.0386505 0.974533
0.996054 6.2804 -3.89889 0.961105 -0.0411941 -0.273094
0.859717 4.25278 -4.07645 0.96182 -0.0486872 -0.269319
-1.02312 2.89486 3.8394 0.166527 -0.0758225 0.983117
-1.52882 4.39897 4.0917 0.195311 -0.0613829 0.978819
2.67707 3.02624 2.69158 0.968132 -0.0481853 -0.245759
1.34893 6.69146 -2.72183 0.961151 -0.0410786 -0.272948
-1.30821 4.89995 4.09437 0.203451 -0.0586032 0.97733
2.93114 6.07813 3.13267 0.973451 -0.0349368 -0.226215
0.434309 6.82535 -4.49421 -0.223253 -0.0855 -0.971004
-0.97623 6.75128 4.07233 0.208456 -0.0408755 0.977177
-1.50357 7.01133 4.12643 0.190445 -0.0369848 0.981001
1.83223 7.73265 -1.13519 0.963799 0.00709258 -0.266534
-1.49554 5.73658 4.09045 0.196112 -0.0361647 0.979914
-1.06626 6.94698 4.06597 0.203028 -0.036156 0.978505
-1.56023 5.97633 4.16379 0.194397 -0.052918 0.979495
1.33143 7.29644 -2.87373 0.961137 -0.041125 -0.272991
2.76413 6.41736 3.26257 0.197316 -0.0365757 0.979657
2.91209 6.69944 2.9914 0.974135 -0.0461027 -0.221212
2.86483 6.62661 3.2343 0.220191 -0.0423081 0.974539
0.871126 3.67427 -3.93167 0.961834 -0.0487539 -0.269256
-1.09239 7.25698 4.08276 0.20302 -0.0361408 0.978507
-1.58681 3.39032 3.58675 -0.991361 -0.0416145 0.124382
1.4704 7.39517 -2.4007 0.961163 -0.0410966 -0.272906
-1.71517 7.65518 4.02056 -0.991288 -0.0337234 0.127324
-1.68519 6.82254 4.03341 -0.991288 -0.0337188 0.127326
2.62318 3.05986 3.14792 0.224242 -0.0738694 0.97173
1.62427 7.51195 -1.87776 0.961192 -0.0410763 -0.272806
0.864721 6.19897 -4.34846 0.961101 -0.0412085 -0.273107
-1.51018 4.72724 4.10856 0.195311 -0.0613818 0.978819
-1.69469 7.29852 4.08555 -0.991288 -0.0337208 0.127325
-1.67378 6.75205 4.10357 -0.991288 -0.033719 0.127327
2.43152 6.18928 3.3715 0.216536 -0.0572351 0.974595
-1.74297 7.06108 3.64686 -0.991288 -0.0337161 0.127326
-1.61482 5.48722 4.06481 -0.991237 -0.0397202 0.125986
-1.47501 5.95997 4.14504 0.208025 -0.0410858 0.97726
2.06962 2.84668 3.26737 0.212189 -0.0726282 0.974526
1.38292 6.48961 -2.57258 0.961165 -0.0410451 -0.272906
0.679491 7.31252 -4.53552 -0.214287 -0.0753754 -0.973858
-1.34618 4.52889 4.0634 0.195311 -0.0613811 0.978819
-1.63236 6.58131 4.13563 0.190495 -0.0370543 0.980989
0.901612 7.1043 -4.35576 0.961108 -0.0411869 -0.273086
2.55138 3.60175 3.21874 0.21219 -0.072628 0.974526
0.221267 7.17467 -4.42474 -0.21444 -0.0754937 -0.973815
-1.79706 5.63021 2.68392 -0.991215 -0.0392138 0.126311
-1.90377 2.89479 0.844223 -0.991732 -0.0440406 0.12053
0.791884 2.84388 -4.06448 0.96184 -0.0487856 -0.26923
1.38485 4.31768 -2.21421 0.961843 -0.0486768 -0.269238
0.429305 7.28644 -4.49108 -0.216122 -0.0778909 -0.973255
1.59676 3.62816 -1.3352 0.961956 -0.0488969 -0.268795
2.55785 2.94581 2.3888 0.968468 -0.0567436 -0.242589
1.45511 6.8575 -2.37406 0.961172 -0.0410663 -0.272878
-1.96785 7.44016 2.00028 -0.991299 -0.0335994 0.127265
1.39048 3.24579 -1.99771 0.961859 -0.0489588 -0.269128
-1.92121 7.46858 2.30134 -0.991218 -0.037608 0.12678
1.41798 3.48016 -1.95116 0.96261 -0.051813 -0.265891
1.70579 7.39789 -1.574 0.961206 -0.0410658 -0.272756
-2.17291 5.13726 -3.77096 -0.247912 -0.119307 -0.961408
1.6493 6.19072 -1.59409 0.961254 -0.0407459 -0.272637
-1.2169 7.72862 4.10493 0.195872 -0.0356329 0.979982
1.45039 3.03631 -1.74515 0.961878 -0.0490588 -0.269043
-2.04818 6.54977 1.23952 -0.991489 -0.0302016 0.126641
-1.8759 6.4787 2.46263 -0.991295 -0.0335479 0.127313
-1.95324 7.07994 2.02076 -0.991303 -0.0335235 0.127257
-1.95428 5.59671 1.63946 -0.991313 -0.0329529 0.127328
-1.10334 7.90076 -4.18597 -0.214446 -0.0745886 -0.973884
1.47009 4.99657 -2.03353 0.961852 -0.0485715 -0.269226
-2.2177 4.36027 -3.66745 -0.228886 -0.109237 -0.967305
2.8905 6.01113 2.96815 0.973451 -0.0349368 -0.226215
1.22893 6.93215 -3.17899 0.961126 -0.0411386 -0.273027
0.290206 6.59159 -4.40037 -0.215319 -0.0769523 -0.973507
-1.09537 7.37206 4.06818 0.195812 -0.0357736 0.979989
2.65773 4.25664 3.20563 0.238943 -0.070862 0.968445
1.46675 5.42702 -2.12157 0.961232 -0.0409409 -0.272685
2.93284 7.91365 2.8982 0.966362 0.00927728 -0.257018
-1.83632 7.06001 2.83078 -0.991206 -0.0382681 0.12667
-2.44698 7.67565 -3.87434 -0.215049 -0.0751 -0.973711
0.272013 2.99511 -4.1243 -0.246827 -0.126043 -0.960828
-2.43264 4.80699 -3.18188 -0.994972 -0.0521409 0.0855109
-2.60219 7.57965 -3.84468 -0.223213 -0.0802428 -0.971461
-2.0397 7.39398 -3.94197 -0.214859 -0.0749087 -0.973768
-2.66416 7.67656 -3.74389 -0.996656 -0.0165288 0.0800285
0.967506 6.28177 -3.9995 0.961104 -0.0411973 -0.273097
2.90071 5.86541 3.20603 0.247411 -0.0589556 0.967115
2.3971 5.57466 3.34305 0.216536 -0.0572351 0.974595
2.85271 6.29187 3.21922 0.220295 -0.0414437 0.974552
1.86011 7.3418 -1.02236 0.961224 -0.0410447 -0.272696
0.676315 5.13446 -4.37088 -0.215271 -0.0774243 -0.97348
0.967239 6.56984 -4.04406 0.961106 -0.0411907 -0.273091
0.861274 7.07331 -4.49301 0.961107 -0.0411885 -0.273088
0.37384 7.2139 -4.46251 -0.214589 -0.075739 -0.973763
0.942108 5.98153 -4.04328 0.9611 -0.0412108 -0.273108
0.931349 3.40322 -3.66761 0.961839 -0.0487822 -0.269231
-1.52788 4.14689 4.02793 0.183947 -0.0524806 0.981534
-1.55446 5.80417 4.15331 0.194445 -0.0528637 0.979488
0.848074 6.50206 -4.453 0.961103 -0.0411994 -0.273099
1.01019 7.4358 -4.02383 0.961111 -0.0411789 -0.273076
0.619099 3.80071 -4.37058 -0.264665 -0.126866 -0.955959
0.784944 5.17677 -4.40179 -0.215754 -0.0796254 -0.973196
-0.924202 2.95488 3.92729 0.212189 -0.0726289 0.974526
0.882804 7.02463 -4.40989 0.961107 -0.0411887 -0.273088
-1.39836 6.13411 4.08541 0.196035 -0.0361505 0.97993
1.76576 7.69712 -1.37613 0.963793 0.00711809 -0.266558
1.25606 6.54338 -3.0254 0.961134 -0.0411104 -0.273005
0.0741339 6.45107 -4.41613 -0.231316 -0.0940194 -0.968325
-1.72538 7.22924 3.74394 -0.991202 -0.03868 0.12658
1.36903 7.61166 -2.78916 0.961143 -0.041122 -0.272972
1.02969 6.8323 -3.86412 0.961109 -0.0411811 -0.27308
-1.76178 7.23386 3.54607 -0.991288 -0.0337266 0.127323
0.316844 7.55982 -4.47463 -0.214308 -0.0752915 -0.97386
1.45362 4.7781 -2.05291 0.961854 -0.0486056 -0.26921
-2.46116 4.78322 -3.52577 -0.994967 -0.0521046 0.0855909
-1.73718 7.54804 3.75106 -0.991204 -0.0385228 0.12661
2.90904 7.97263 3.29047 0.197254 -0.0363671 0.979678
-2.6956 7.78348 -3.59078 -0.993782 -0.0135881 0.110514
-2.50768 6.94464 -3.808 -0.216474 -0.0766684 -0.973273
1.03683 7.07401 -3.87552 0.961111 -0.0411792 -0.273076
2.85809 5.74626 3.00965 0.975981 -0.0496199 -0.212131
-1.63574 3.48743 3.22783 -0.991368 -0.0416982 0.124302
0.378875 6.07903 -4.41927 -0.220456 -0.0910953 -0.971134
0.389376 4.69664 -4.33717 -0.234796 -0.108461 -0.965975
0.986055 7.61979 -4.13651 0.96111 -0.0411792 -0.273077
0.628726 6.7211 -4.49758 -0.215677 -0.0812996 -0.973074
-1.72656 7.47789 3.81956 -0.991213 -0.0380791 0.126674
3.00079 7.88902 3.1528 0.966362 0.00927584 -0.257018
-2.61584 7.06124 -3.66279 -0.997956 -0.0230555 0.0595963
0.982656 7.25315 -4.09312 0.96111 -0.0411817 -0.27308
0.955761 7.56889 -4.23541 0.96111 -0.0411808 -0.273079
1.5272 7.59957 -2.23055 0.963192 -0.00406296 -0.268784
0.891564 7.63251 -4.4709 0.961109 -0.0411823 -0.273081
1.3042 7.676 -3.04492 0.963785 0.00717128 -0.266582
0.901505 7.37207 -4.50898 0.963785 0.00717332 -0.266582
0.722488 7.53987 -4.56189 -0.214212 -0.0752373 -0.973885
-1.70801 2.95168 2.45557 -0.991426 -0.0423692 0.123607
0.878753 2.91227 -3.76662 0.961843 -0.0488017 -0.269214
-2.11378 7.75658 0.949501 -0.99131 -0.0335171 0.127206
1.44614 7.62308 -2.52143 0.963193 -0.00406396 -0.26878
-1.91992 6.73282 2.18833 -0.9913 -0.0335216 0.127278
-2.03214 7.58089 1.53836 -0.991307 -0.0335482 0.127223
1.02167 7.73471 -4.0648 0.963785 0.00717337 -0.266582
0.614754 2.97121 -4.20925 -0.246841 -0.126039 -0.960825
0.771362 3.30953 -4.22223 0.96184 -0.048782 -0.26923
-0.990279 4.81979 3.97941 0.183643 -0.0595999 0.981184
0.254046 4.4605 -4.30091 -0.24439 -0.106869 -0.96377
1.06333 7.28915 -3.92615 0.963785 0.00717341 -0.266582
1.64088 7.85628 -1.8231 0.963789 0.00714768 -0.266571
2.96609 6.97339 3.18319 0.97602 -0.011793 -0.217361
1.81537 8.04655 -1.1876 0.963797 0.00711777 -0.266544
0.918385 7.6943 -4.38584 0.96111 -0.0411813 -0.27308
0.498464 7.57132 -4.51562 -0.214306 -0.0753315 -0.973857
-1.87549 7.51939 2.67065 -0.991216 -0.0378061 0.126737
0.381691 7.89895 -4.51198 -0.213892 -0.0747359 -0.973994
2.25987 7.63231 3.39761 0.204387 -0.0357256 0.978238
0.983306 7.81061 -4.20144 0.963785 0.00717335 -0.266582
0.938225 7.22397 -4.38021 0.963785 0.00717335 -0.266582
0.961062 7.68925 -4.28513 0.963785 0.00717334 -0.266582
2.53588 6.66092 3.29754 0.21123 -0.0362944 0.976762
0.981691 4.07666 3.57154 0.195187 -0.062011 0.978804
2.44715 7.98153 1.07502 0.966358 0.00939265 -0.257031
-1.97016 5.78282 1.40503 -0.991222 -0.038233 0.126558
-1.41672 6.96395 4.10803 0.190371 -0.0370917 0.981011
-1.99729 6.1713 1.46864 -0.991343 -0.0325157 0.127206
-1.79671 3.25058 1.84123 -0.991455 -0.0426341 0.123286
0.846769 2.92558 -3.88911 0.962019 -0.0495226 -0.268452
1.15523 4.2673 -3.02387 0.961823 -0.0486971 -0.269305
1.43879 4.01463 -2.00996 0.961374 -0.0415277 -0.272096
0.628806 7.19572 -4.52373 -0.215244 -0.0772557 -0.9735
2.64648 4.69419 3.1599 0.26036 -0.0471938 0.964358
-1.20082 7.06021 4.07838 0.195792 -0.0359047 0.979988
1.02176 3.72399 3.55143 0.224727 -0.0629727 0.972385
-2.28942 2.765 -3.02775 -0.995564 -0.0558504 0.0757204
1.35178 5.298 -2.5045 0.961191 -0.0410623 -0.272812
2.5987 6.89513 3.29597 0.220605 -0.0400475 0.974541
-2.05974 7.68426 1.35089 -0.991308 -0.0335415 0.127217
0.541201 7.17643 -4.49828 -0.214813 -0.0761358 -0.973683
-1.87339 5.77498 2.29362 -0.991292 -0.0336312 0.127315
1.99101 2.80991 3.29393 0.198063 -0.0755858 0.977271
2.65496 3.73734 2.61515 0.970855 -0.057003 -0.232791
2.6835 3.59254 2.90331 0.978816 -0.0586106 -0.196171
-1.64955 5.39524 3.76255 -0.991237 -0.0397266 0.125981
2.8582 5.68858 2.80983 0.967264 -0.0384649 -0.250841
-2.35748 5.9019 -3.77053 -0.223366 -0.0852402 -0.971
-1.69247 5.14303 3.34439 -0.991243 -0.0398245 0.125903
0.446101 6.05355 -4.58442 -0.269906 -0.0997447 -0.957706
-1.85276 5.12594 2.09242 -0.991228 -0.0392712 0.126193
0.859948 5.28025 -4.22561 0.96109 -0.041255 -0.273136
2.92987 6.88732 2.98998 0.973939 -0.016929 -0.226179
1.19579 5.42354 -3.0684 0.961129 -0.041173 -0.273013
-2.35026 3.442 -3.31219 -0.995591 -0.0556182 0.0755322
-1.87092 6.88094 2.60458 -0.991292 -0.0336731 0.127305
2.34521 6.7962 3.34421 0.227747 -0.0406055 0.972873
0.932595 6.398 -4.13991 0.961104 -0.0411969 -0.273096
0.55264 4.69079 -4.3761 -0.236244 -0.100117 -0.966522
1.84463 6.54166 -1.03197 0.962595 -0.0180503 -0.270342
2.30574 3.21049 3.2828 0.176943 -0.0718191 0.981597
2.91676 7.13141 2.8018 0.966423 -0.00543032 -0.256901
0.449337 6.26478 -4.60733 -0.269906 -0.0997447 -0.957706
0.437161 3.09971 -4.18046 -0.246824 -0.126026 -0.96083
-2.44414 6.53277 -3.82156 -0.231384 -0.0936317 -0.968346
2.66108 3.72925 3.19127 0.214958 -0.0662122 0.974376
-2.43342 4.15296 -3.45584 -0.994461 -0.0504472 0.0922115
2.63552 6.29524 3.30948 0.201427 -0.0454636 0.978448
2.71377 4.1067 3.20495 0.214738 -0.0658428 0.97445
1.02757 6.06397 -3.75532 0.961105 -0.0411951 -0.273094
2.82502 4.8953 3.17899 0.259734 -0.0696751 0.963163
-1.37688 4.68422 4.16446 0.224658 -0.061795 0.972476
0.659283 6.27303 -4.45363 -0.21473 -0.0762207 -0.973695
-2.45156 4.45708 -3.47675 -0.994473 -0.0502983 0.092156
2.82591 3.86614 3.07293 0.972428 -0.0398009 -0.229782
-2.54577 6.48735 -3.79287 -0.231384 -0.093627 -0.968347
-1.98738 4.35534 -3.72229 -0.246844 -0.125661 -0.960873
2.80968 3.63513 3.04541 0.966729 -0.0464464 -0.251552
2.96662 6.78745 3.08365 0.971448 0.000594631 -0.237252
2.72337 7.17078 3.31171 0.210137 -0.0438805 0.976687
-2.35304 3.23367 -3.23091 -0.994929 -0.0523651 0.0858679
0.0684145 4.45176 -4.21415 -0.227535 -0.102369 -0.968374
0.942144 4.98554 -3.8918 0.96109 -0.0412702 -0.273134
2.73632 3.23583 3.03636 0.968769 -0.0566333 -0.24141
-2.43399 3.68535 -3.44462 -0.996509 -0.0432429 0.0714087
0.656113 6.36611 -4.46007 -0.214713 -0.0761729 -0.973702
-1.36697 7.15302 4.13586 0.203007 -0.036143 0.97851
-2.6228 7.31351 -3.68175 -0.997956 -0.0230555 0.0595963
2.52508 4.39545 3.26708 0.204231 -0.0596167 0.977106
-2.41953 6.74188 -3.81734 -0.223463 -0.080248 -0.971403
0.673811 2.88271 -4.18173 -0.235465 -0.124911 -0.963822
2.81404 5.05231 3.19332 0.259728 -0.0696779 0.963165
0.308041 3.91855 -4.25945 -0.247894 -0.119242 -0.961421
-1.53665 3.01385 3.85861 -0.991368 -0.0417094 0.124299
0.82676 6.5929 -4.52843 -0.215773 -0.0802217 -0.973143
-1.33015 3.12873 4.06544 0.224242 -0.0738694 0.97173
-2.40231 5.07784 -3.71022 -0.246792 -0.125682 -0.960884
-1.33558 3.23127 4.07449 0.224242 -0.0738694 0.97173
-1.49609 4.97897 4.06301 0.168435 -0.0675404 0.983396
0.776543 4.39955 -4.39956 0.961812 -0.048654 -0.269352
-1.20976 4.72744 4.1286 0.224658 -0.061795 0.972476
0.830757 3.29911 -4.00817 0.96184 -0.0487854 -0.269227
2.99358 7.60502 3.16518 0.96934 0.00562237 -0.245661
-1.714 7.3491 3.94829 -0.991287 -0.0337411 0.127322
-1.69476 6.1332 3.77628 -0.991287 -0.0337179 0.12733
-1.54906 5.68054 4.14562 0.194573 -0.0527652 0.979468
-1.51399 7.49449 4.14623 0.190412 -0.0369136 0.98101
-1.72342 7.52379 3.92124 -0.991287 -0.0337458 0.127321
-1.86325 7.21484 2.67031 -0.99121 -0.0380796 0.126703
0.380046 4.88349 -4.337 -0.231274 -0.0941708 -0.96832
0.809249 7.53136 -4.5809 -0.214276 -0.0753524 -0.973862
1.55036 7.9055 -2.14901 0.963788 0.00715525 -0.266573
0.64508 7.6964 -4.55734 -0.214263 -0.0753027 -0.973869
0.923074 7.4199 -4.42971 0.963785 0.00717333 -0.266582
0.897296 6.81112 -4.32663 0.961106 -0.0411908 -0.27309
1.72429 7.83658 -1.52221 0.963791 0.00713261 -0.266563
2.77859 4.54947 2.78746 0.968209 -0.0476034 -0.24557
-2.3416 6.13262 -3.78064 -0.216148 -0.0764213 -0.973365
2.84065 4.1531 3.06869 0.96673 -0.0464389 -0.25155
2.98548 7.12674 3.16174 0.971449 0.000597528 -0.23725
-1.69968 7.46979 4.09179 -0.991287 -0.0337406 0.127322
-2.64567 6.8555 -3.68294 -0.996652 -0.0165481 0.0800744
-1.51086 3.58077 4.01667 0.181645 -0.076173 0.98041
-1.69052 7.15704 4.08023 -0.991287 -0.0337371 0.127323
0.805112 7.24155 -4.57772 -0.215921 -0.0802755 -0.973105
2.92448 7.31381 3.26303 0.197269 -0.0364013 0.979673
2.25764 4.2779 3.31581 0.204231 -0.0596171 0.977106
-1.54058 3.47817 3.98651 -0.991352 -0.0414837 0.124498
-1.74515 2.95921 -3.59928 -0.255253 -0.128928 -0.95824
2.74591 3.50727 3.12911 0.238944 -0.0709128 0.968441
-1.81458 5.81168 -3.92211 -0.269906 -0.0997447 -0.957706
-1.17924 5.08882 4.03963 0.194621 -0.0524689 0.979474
-2.28167 3.79908 -3.59095 -0.236282 -0.100103 -0.966514
2.74449 3.71084 3.18483 0.21219 -0.072628 0.974526
-2.39199 5.36596 -3.72281 -0.22469 -0.0923538 -0.970044
-2.28068 6.30668 -3.83809 -0.224722 -0.0923303 -0.970039
-2.11983 6.3518 -3.86466 -0.223322 -0.0852203 -0.971012
0.799204 6.97971 -4.55532 -0.21588 -0.0805 -0.973096
2.73109 3.60363 2.79042 0.96814 -0.0481263 -0.24574
2.50281 6.43968 1.2245 0.97273 -0.0255123 -0.230532
1.53385 7.80871 3.55268 0.210868 -0.0354626 0.976871
-2.26431 7.34346 0.0468393 -0.992797 -0.0165727 0.118654
-2.27016 5.04003 -0.904153 -0.994421 -0.0418677 0.0968155
2.07719 7.97372 -0.246567 0.963913 0.00703086 -0.266124
0.652767 4.87417 -4.35941 -0.21882 -0.0843843 -0.97211
-1.88382 3.98184 1.40983 -0.991445 -0.0422883 0.123484
0.696624 6.24187 3.67623 0.1972 -0.0376802 0.979639
2.49457 5.98068 1.29434 0.968757 -0.0255203 -0.246697
0.0673536 6.15159 -4.38547 -0.231309 -0.0940428 -0.968324
1.72685 5.83323 -1.27136 0.961316 -0.0402875 -0.272485
-1.8419 3.16972 1.44451 -0.991487 -0.042896 0.122935
2.87768 6.05215 2.83617 0.97602 -0.011793 -0.217361
1.60668 4.74246 -1.55064 0.9616 -0.039802 -0.271554
2.44095 7.77933 1.04421 0.966357 0.00935364 -0.257034
2.38719 5.24124 1.12259 0.966765 -0.0461248 -0.251472
2.36709 5.83808 0.80847 0.968757 -0.0255201 -0.246697
0.555969 7.79034 3.75548 0.193221 -0.0365234 0.980475
1.83513 6.70835 3.46141 0.197437 -0.0368167 0.979624
-2.00619 7.40804 1.69504 -0.991306 -0.0335369 0.127228
1.80448 7.28135 -1.22344 0.962784 -0.0118581 -0.270012
-2.44543 6.78338 -1.59605 -0.994133 -0.0231446 0.105662
0.788722 5.17808 3.65991 0.179502 -0.057208 0.982093
0.819603 6.98191 3.67558 0.193245 -0.0370344 0.980451
0.674214 6.67278 3.69636 0.197032 -0.0374624 0.979681
1.29576 4.9142 -2.64224 0.961171 -0.0411725 -0.272864
2.65279 3.22353 2.83652 0.975686 -0.0596142 -0.21091
0.272574 4.26452 3.75784 0.224685 -0.0622532 0.972441
0.263304 4.63807 3.73151 0.196795 -0.0527031 0.979027
-2.60376 6.89567 -3.06847 -0.99541 -0.0181443 0.0939622
-0.0430611 4.3106 3.79422 0.189372 -0.0677657 0.979564
-2.24677 6.71701 -3.88653 -0.231382 -0.0936299 -0.968347
-1.96723 3.88667 0.751872 -0.991285 -0.0407103 0.125285
-2.24109 4.44666 -1.23406 -0.992957 -0.0450601 0.10957
-2.1134 4.64114 0.0364686 -0.991456 -0.0367538 0.125154
-1.65399 4.11984 3.30546 -0.991314 -0.0409327 0.124982
1.94695 6.7914 -0.684133 0.962589 -0.0180475 -0.270363
2.33663 7.97378 0.687251 0.96431 0.00716455 -0.26468
2.43002 6.78495 0.970793 0.9672 -0.0097901 -0.253828
-0.840642 4.63557 3.96974 0.189221 -0.0673993 0.979619
-2.1586 6.84849 0.467082 -0.991574 -0.0297447 0.126079
-1.9041 4.23178 1.3593 -0.991335 -0.0410841 0.124765
1.89285 3.08315 -0.182628 0.963854 -0.0526669 -0.261174
2.81981 5.16244 2.89616 0.979233 -0.0362281 -0.199476
2.28056 8.32437 0.496901 0.964506 0.00881153 -0.263915
0.0266278 3.78313 -4.18206 -0.25369 -0.121217 -0.95966
1.49403 6.15008 -2.14006 0.961292 -0.0392302 -0.272723
2.11684 5.18737 0.0962007 0.965414 -0.0398627 -0.257656
0.628924 4.85838 3.66577 0.205731 -0.048705 0.977396
-1.52895 6.07074 4.10607 0.173287 -0.0538106 0.9834
2.06875 3.31529 0.385587 0.965737 -0.0536963 -0.253906
1.89877 5.21106 -0.597285 0.961619 -0.0378451 -0.271767
-2.34317 3.60104 -3.20066 -0.99654 -0.0569062 0.0605762
1.10084 3.09458 3.49636 0.198061 -0.0755869 0.977271
1.68064 3.78817 -1.07434 0.962113 -0.0485748 -0.268288
1.68546 6.51285 3.47992 0.211933 -0.0374074 0.976568
2.10014 4.73426 3.36777 0.22473 -0.0630248 0.972381
-0.850512 4.97311 3.99395 0.189127 -0.0671321 0.979655
-2.35564 6.86984 -0.831331 -0.993312 -0.0228618 0.113171
2.09865 4.55596 0.194144 0.964678 -0.0453986 -0.259492
-2.29243 2.95744 -2.7074 -0.994919 -0.0524985 0.08591
1.64179 5.22422 -1.46455 0.9619 -0.0483734 -0.269088
0.0380446 5.54859 -4.41682 -0.269906 -0.0997447 -0.957706
-2.26981 2.89511 -3.01487 -0.997209 -0.0623199 0.0411077
2.12005 4.86831 3.38059 0.204229 -0.0596142 0.977106
-0.457988 7.96118 -4.33141 -0.214002 -0.0744388 -0.973993
-2.18639 2.95117 -1.5438 -0.994358 -0.0516097 0.0926725
-2.3429 7.21143 -0.599927 -0.993331 -0.0188719 0.113746
2.62527 5.0268 3.28545 0.214381 -0.0652383 0.974569
-1.89579 4.24483 -3.7322 -0.250132 -0.111868 -0.961727
-2.55406 4.82468 -3.36241 -0.995249 -0.0282491 0.0931708
-2.37968 3.67148 -3.26712 -0.99494 -0.0522833 0.0857913
0.81179 6.02413 -4.50817 0.961099 -0.0412153 -0.273113
1.00737 5.50368 -3.74132 0.961099 -0.0412301 -0.273111
0.799315 4.42513 -4.32283 0.961811 -0.0486511 -0.269355
-1.91859 6.16019 1.91304 -0.991205 -0.0384065 0.12664
-1.57987 4.22882 3.92943 -0.991315 -0.0409313 0.124976
-1.64754 3.66902 3.19726 -0.991358 -0.0415609 0.124424
1.41123 5.5661 -2.33684 0.961208 -0.0409356 -0.272768
0.987076 4.92749 -3.72507 0.961092 -0.0412712 -0.273126
-2.30541 2.76176 -3.23685 -0.995569 -0.0558062 0.0756815
2.59098 3.96973 3.20509 0.22474 -0.0631861 0.972368
-1.88563 5.79268 2.05166 -0.991212 -0.0387594 0.126481
0.51204 4.07557 -4.32365 -0.24439 -0.106869 -0.96377
-1.64189 3.56684 3.20635 -0.991365 -0.0416542 0.12434
0.551124 5.68452 -4.44613 -0.230739 -0.0887726 -0.968958
-2.2129 3.50663 -3.55344 -0.246755 -0.125596 -0.960904
0.828913 4.99467 -4.3191 0.961798 -0.0485909 -0.269413
2.84096 6.48027 3.2021 0.244875 -0.0438132 0.968564
-1.02705 5.07199 4.0248 0.205684 -0.0486783 0.977407
-1.76903 7.21657 3.40825 -0.991212 -0.0380965 0.126677
2.7033 3.41335 2.71856 0.968137 -0.0481527 -0.245749
