1.60034 3.51787 -0.712525
1.60034 3.50479 -0.712525
1.60034 3.49172 -0.712525
1.60034 3.47864 -0.712525
1.64596 3.46111 -0.732836
1.69147 3.44363 -0.753094
1.69147 3.43058 -0.753094
1.71417 3.41535 -0.763204
1.71417 3.40231 -0.763204
1.69147 3.37841 -0.753094
1.71417 3.35017 -0.763204
1.73685 3.32197 -0.7733
1.73685 3.30894 -0.7733
1.69147 3.30014 -0.753094
1.69147 3.2871 -0.753094
1.73685 3.26986 -0.7733
1.73685 3.25683 -0.7733
1.57749 3.25842 -0.702349
1.64596 3.23908 -0.732836
1.64596 3.22601 -0.732836
1.71417 3.20678 -0.763204
1.71417 3.19374 -0.763204
1.71417 3.18071 -0.763204
1.78211 3.1616 -0.793453
1.71417 3.15463 -0.763204
1.71417 3.1416 -0.763204
1.69147 3.13057 -0.753094
1.71417 3.11553 -0.763204
1.71417 3.10249 -0.763204
1.71417 3.08946 -0.763204
1.71417 3.02428 -0.763204
1.71417 3.01124 -0.763204
1.69147 2.98708 -0.753094
1.66873 2.97595 -0.742972
1.64596 2.9648 -0.732836
1.64596 2.95174 -0.732836
1.71417 2.93303 -0.763204
1.69147 2.92186 -0.753094
1.69147 2.90882 -0.753094
1.69147 2.89578 -0.753094
1.69147 2.88273 -0.753094
1.71417 2.86785 -0.763204
1.53976 8.1946 -0.597239
1.56318 8.17621 -0.606321
1.56318 8.1631 -0.606321
1.56318 8.15 -0.606321
1.60992 8.12641 -0.624451
1.60992 8.11333 -0.624451
1.74941 7.82141 -0.678556
1.74941 7.80837 -0.678556
1.74941 7.79534 -0.678556
1.74941 7.7823 -0.678556
1.74941 7.76927 -0.678556
1.74941 7.75623 -0.678556
1.74941 7.71712 -0.678556
1.74941 7.70409 -0.678556
1.74941 7.69105 -0.678556
1.74941 7.67802 -0.678556
1.74941 7.66498 -0.678556
1.72623 7.47423 -0.669568
1.72623 7.46119 -0.669568
1.72623 7.44815 -0.669568
1.72623 7.4351 -0.669568
1.77255 7.41256 -0.687532
1.74941 7.40427 -0.678556
1.74941 7.39123 -0.678556
1.74941 7.3782 -0.678556
1.74941 7.36516 -0.678556
1.74941 7.35212 -0.678556
1.74941 7.33909 -0.678556
1.72623 7.33075 -0.669568
1.72623 7.31771 -0.669568
1.74941 7.29998 -0.678556
1.74941 7.28695 -0.678556
1.74941 7.27391 -0.678556
1.74941 7.26087 -0.678556
1.74941 7.24784 -0.678556
1.74941 7.2348 -0.678556
1.74941 7.22177 -0.678556
1.72623 7.21335 -0.669568
1.70303 7.20493 -0.660568
1.70303 7.19188 -0.660568
1.74941 7.16962 -0.678556
1.74941 7.15659 -0.678556
1.79566 7.1214 -0.696497
1.79566 7.10838 -0.696497
1.79566 7.09536 -0.696497
1.74941 7.07837 -0.678556
1.74941 7.06534 -0.678556
1.74941 7.0523 -0.678556
1.74941 7.03927 -0.678556
1.72623 7.03074 -0.669568
1.72623 7.01769 -0.669568
1.72623 7.00465 -0.669568
1.74941 6.84373 -0.678556
1.74941 6.8307 -0.678556
1.74941 6.81766 -0.678556
1.74941 6.80463 -0.678556
1.74941 6.79159 -0.678556
1.77255 6.77422 -0.687532
1.74941 6.76552 -0.678556
1.74941 6.75248 -0.678556
1.72623 6.74377 -0.669568
1.72623 6.73072 -0.669568
1.72623 6.71768 -0.669568
1.72623 6.70464 -0.669568
1.72623 6.69159 -0.669568
1.79566 6.56158 -0.696497
1.74941 6.54391 -0.678556
1.74941 6.53088 -0.678556
1.74941 6.51784 -0.678556
1.74941 6.50481 -0.678556
1.72623 6.49593 -0.669568
1.65653 6.49538 -0.642533
1.65653 6.48232 -0.642533
1.6798 6.46509 -0.651556
1.6798 6.45203 -0.651556
1.6798 6.43897 -0.651556
1.6798 6.42591 -0.651556
1.65653 6.41697 -0.642533
1.6798 6.39979 -0.651556
1.74941 6.37445 -0.678556
1.77255 6.35734 -0.687532
1.77255 6.34431 -0.687532
1.77255 6.33129 -0.687532
1.6798 6.26918 -0.651556
1.6798 6.25612 -0.651556
1.6798 6.24306 -0.651556
1.6798 6.23 -0.651556
1.6798 6.21694 -0.651556
1.6798 6.20388 -0.651556
1.6798 6.19081 -0.651556
1.6798 6.17775 -0.651556
1.74941 6.15284 -0.678556
1.65653 6.15559 -0.642533
1.74941 6.1007 -0.678556
1.74941 6.08766 -0.678556
1.74941 6.07463 -0.678556
1.74941 6.06159 -0.678556
2.04793 5.93405 -0.794345
2.04793 5.92112 -0.794345
2.04793 5.90819 -0.794345
2.02514 5.84725 -0.785507
2.02514 5.83432 -0.785507
2.02514 5.82138 -0.785507
2.02514 5.80844 -0.785507
2.07068 5.78817 -0.803171
2.07068 5.77525 -0.803171
2.07068 5.76233 -0.803171
2.07068 5.74941 -0.803171
2.07068 5.73649 -0.803171
2.07068 5.72357 -0.803171
2.04793 5.71427 -0.794345
2.07068 5.69773 -0.803171
2.1161 5.67763 -0.82079
2.09341 5.66831 -0.811986
2.09341 5.6554 -0.811986
2.00233 5.65679 -0.776658
2.00233 5.64385 -0.776658
2.00233 5.6309 -0.776658
2.00233 5.61796 -0.776658
2.02514 5.60146 -0.785507
2.02514 5.58853 -0.785507
2.04793 5.57206 -0.794345
2.04793 5.55913 -0.794345
2.04793 5.5462 -0.794345
2.04793 5.53327 -0.794345
2.04793 5.52035 -0.794345
2.04793 5.50742 -0.794345
2.04793 5.49449 -0.794345
2.04793 5.48156 -0.794345
2.1161 5.45827 -0.82079
2.1161 5.44537 -0.82079
2.1161 5.43246 -0.82079
2.1161 5.41956 -0.82079
2.1161 5.40665 -0.82079
2.04793 5.40399 -0.794345
1.91077 5.34675 -0.741147
1.91077 5.33377 -0.741147
1.8418 5.31798 -0.714392
1.86482 5.30159 -0.723322
1.91077 5.28186 -0.741147
1.93371 5.26553 -0.750042
1.93371 5.25256 -0.750042
1.93371 5.23959 -0.750042
1.93371 5.22662 -0.750042
1.93371 5.21365 -0.750042
1.91077 5.204 -0.741147
1.88781 5.19432 -0.73224
1.86482 5.18464 -0.723322
1.8418 5.17495 -0.714392
1.8418 5.16195 -0.714392
1.8418 5.14894 -0.714392
1.8418 5.13594 -0.714392
1.8418 5.12294 -0.714392
1.91077 5.10018 -0.741147
1.8418 5.09693 -0.714392
1.8418 5.08393 -0.714392
1.81874 5.07417 -0.70545
1.81874 5.06116 -0.70545
1.81874 5.04815 -0.70545
1.81874 5.03514 -0.70545
1.81874 5.02213 -0.70545
1.72623 5.02195 -0.669568
1.72623 5.00891 -0.669568
1.72623 4.99587 -0.669568
1.72623 4.98282 -0.669568
1.74941 4.96659 -0.678556
1.74941 4.95356 -0.678556
1.74941 4.94052 -0.678556
1.70303 4.93381 -0.660568
1.6798 4.92392 -0.651556
1.72623 4.90456 -0.669568
1.77255 4.88525 -0.687532
1.63324 4.89102 -0.633498
1.63324 4.87794 -0.633498
1.65653 4.86174 -0.642533
1.65653 4.84867 -0.642533
1.6798 4.83249 -0.651556
1.6798 4.81943 -0.651556
1.6798 4.80637 -0.651556
1.6798 4.79331 -0.651556
1.60992 4.78948 -0.624451
1.60992 4.77639 -0.624451
1.60992 4.76331 -0.624451
1.60992 4.75022 -0.624451
1.60992 4.73714 -0.624451
1.60992 4.72405 -0.624451
1.74941 4.69285 -0.678556
1.74941 4.67981 -0.678556
1.72623 4.66977 -0.669568
1.72623 4.65672 -0.669568
1.6798 4.64964 -0.651556
1.65653 4.63956 -0.642533
1.65653 4.62649 -0.642533
1.65653 4.61342 -0.642533
1.72623 4.5915 -0.669568
1.72623 4.57846 -0.669568
1.63324 4.57716 -0.633498
1.63324 4.56408 -0.633498
1.63324 4.551 -0.633498
1.63324 4.53792 -0.633498
1.63324 4.52485 -0.633498
1.65653 4.50887 -0.642533
1.6798 4.49291 -0.651556
1.6798 4.47985 -0.651556
1.6798 4.46679 -0.651556
1.6798 4.45373 -0.651556
1.70303 4.43782 -0.660568
1.6798 4.42761 -0.651556
1.6798 4.41455 -0.651556
1.6798 4.40149 -0.651556
1.6798 4.38843 -0.651556
1.74941 4.36695 -0.678556
1.74941 4.35392 -0.678556
1.74941 4.34088 -0.678556
1.74941 4.32785 -0.678556
1.74941 4.31481 -0.678556
1.6798 4.31006 -0.651556
1.6798 4.297 -0.651556
1.63324 4.28945 -0.633498
1.56318 4.28465 -0.606321
1.74941 4.24963 -0.678556
1.74941 4.2366 -0.678556
1.74941 4.22356 -0.678556
1.60992 4.22678 -0.624451
1.60992 4.2137 -0.624451
1.70303 4.18982 -0.660568
1.72623 4.17409 -0.669568
1.72623 4.16105 -0.669568
1.72623 4.148 -0.669568
1.65653 4.14293 -0.642533
1.65653 4.12986 -0.642533
1.65653 4.11679 -0.642533
1.65653 4.10372 -0.642533
1.65653 4.09065 -0.642533
1.65653 4.07759 -0.642533
1.63324 4.06713 -0.633498
1.58656 4.05928 -0.615392
1.56318 4.04879 -0.606321
1.74941 4.01499 -0.678556
1.72623 4.00452 -0.669568
1.6798 3.9966 -0.651556
1.65653 3.9861 -0.642533
1.63324 3.97559 -0.633498
1.63324 3.96251 -0.633498
1.63324 3.94943 -0.633498
1.63324 3.93636 -0.633498
1.63324 3.92328 -0.633498
1.60992 3.91272 -0.624451
1.63324 3.89712 -0.633498
1.74941 3.8716 -0.678556
1.74941 3.85856 -0.678556
1.72623 3.84799 -0.669568
1.72623 3.83495 -0.669568
1.72623 3.8219 -0.669568
1.72623 3.80886 -0.669568
1.56318 3.81294 -0.606321
1.72623 3.78277 -0.669568
1.72623 3.76973 -0.669568
1.77255 3.75187 -0.687532
1.77255 3.73885 -0.687532
1.74941 3.7282 -0.678556
1.74941 3.71517 -0.678556
1.74941 3.70213 -0.678556
1.6798 3.6962 -0.651556
1.6798 3.68314 -0.651556
1.6798 3.67008 -0.651556
1.70303 3.65467 -0.660568
1.6798 3.64396 -0.651556
1.6798 3.6309 -0.651556
1.65653 3.62016 -0.642533
1.65653 3.6071 -0.642533
1.6798 3.59172 -0.651556
1.6798 3.57866 -0.651556
1.6798 3.5656 -0.651556
1.72623 3.54798 -0.669568
1.72623 3.53493 -0.669568
1.72623 3.52189 -0.669568
1.72623 3.50885 -0.669568
1.72623 3.4958 -0.669568
1.72623 3.48276 -0.669568
1.72623 3.46971 -0.669568
1.77255 3.45224 -0.687532
1.77255 3.43922 -0.687532
1.77255 3.42619 -0.687532
1.77255 3.41316 -0.687532
1.77255 3.40014 -0.687532
1.77255 3.38711 -0.687532
1.77255 3.37408 -0.687532
1.77255 3.36105 -0.687532
1.77255 3.34803 -0.687532
1.63324 3.30863 -0.633498
1.63324 3.29555 -0.633498
1.60992 3.28459 -0.624451
1.63324 3.2694 -0.633498
1.63324 3.25632 -0.633498
1.6798 3.23908 -0.651556
1.70303 3.22394 -0.660568
1.70303 3.21089 -0.660568
1.72623 3.19579 -0.669568
1.72623 3.18275 -0.669568
1.72623 3.1697 -0.669568
1.72623 3.15666 -0.669568
1.72623 3.14361 -0.669568
1.77255 3.12656 -0.687532
1.60992 3.12756 -0.624451
1.60992 3.11447 -0.624451
1.60992 3.10139 -0.624451
1.60992 3.0883 -0.624451
1.60992 3.07521 -0.624451
1.60992 3.06213 -0.624451
1.60992 3.04904 -0.624451
1.74941 3.02428 -0.678556
1.74941 3.01124 -0.678556
1.65653 3.00591 -0.642533
1.70303 2.989 -0.660568
1.74941 2.97214 -0.678556
1.74941 2.9591 -0.678556
1.74941 2.94606 -0.678556
1.72623 2.93491 -0.669568
1.74941 2.91999 -0.678556
1.74941 2.90696 -0.678556
1.74941 2.89392 -0.678556
1.63324 2.85092 -0.633498
1.63324 2.83784 -0.633498
1.78047 7.79534 -0.592288
1.82754 7.64216 -0.607948
1.73327 7.64871 -0.576587
1.73327 7.63566 -0.576587
1.78047 7.58677 -0.592288
1.78047 7.57373 -0.592288
1.75688 7.56554 -0.584443
1.68594 7.56706 -0.560845
1.68594 7.55399 -0.560845
1.68594 7.54092 -0.560845
1.78047 7.50855 -0.592288
1.78047 7.49552 -0.592288
1.78047 7.48248 -0.592288
1.82754 7.40781 -0.607948
1.75688 7.40901 -0.584443
1.78047 7.39123 -0.592288
1.78047 7.3782 -0.592288
1.78047 7.36516 -0.592288
1.78047 7.35212 -0.592288
1.78047 7.27391 -0.592288
1.78047 7.26087 -0.592288
1.75688 7.25248 -0.584443
1.75688 7.23944 -0.584443
1.75688 7.2264 -0.584443
1.82754 7.18649 -0.607948
1.82754 7.17347 -0.607948
1.82754 7.16045 -0.607948
1.75688 7.09596 -0.584443
1.68594 7.0835 -0.560845
1.70962 6.98752 -0.568721
1.68594 6.97894 -0.560845
1.68594 6.96588 -0.560845
1.70962 6.94834 -0.568721
1.75688 6.92638 -0.584443
1.75688 6.91334 -0.584443
1.78047 6.89588 -0.592288
1.82754 6.87404 -0.607948
1.82754 6.86102 -0.607948
1.75688 6.86116 -0.584443
1.78047 6.84373 -0.592288
1.78047 6.8307 -0.592288
1.78047 6.81766 -0.592288
1.80402 6.80027 -0.600123
1.82754 6.7829 -0.607948
1.82754 6.67875 -0.607948
1.78047 6.66123 -0.592288
1.78047 6.6482 -0.592288
1.78047 6.63516 -0.592288
1.75688 6.62637 -0.584443
1.75688 6.61333 -0.584443
1.75688 6.60028 -0.584443
1.75688 6.58724 -0.584443
1.78047 6.56998 -0.592288
1.78047 6.55695 -0.592288
1.78047 6.54391 -0.592288
1.78047 6.53088 -0.592288
1.78047 6.51784 -0.592288
1.78047 6.50481 -0.592288
1.78047 6.49177 -0.592288
1.68594 6.48232 -0.560845
1.68594 6.46925 -0.560845
1.75688 6.44375 -0.584443
1.66224 6.44725 -0.552958
1.66224 6.43418 -0.552958
1.66224 6.4211 -0.552958
1.66224 6.40802 -0.552958
1.66224 6.39494 -0.552958
1.68594 6.33855 -0.560845
1.66224 6.32956 -0.552958
1.6385 6.32054 -0.545062
1.66224 6.3034 -0.552958
1.66224 6.29032 -0.552958
1.70962 6.26918 -0.568721
1.70962 6.25612 -0.568721
1.73327 6.23905 -0.576587
1.73327 6.226 -0.576587
1.73327 6.21295 -0.576587
1.75688 6.15679 -0.584443
1.78047 6.13981 -0.592288
1.78047 6.12677 -0.592288
1.78047 6.11373 -0.592288
1.78047 6.1007 -0.592288
1.78047 6.08766 -0.592288
1.75688 6.07852 -0.584443
1.75688 6.06548 -0.584443
1.70962 6.06021 -0.568721
1.70962 6.04715 -0.568721
2.0611 5.88606 -0.685642
1.96804 5.88806 -0.654686
1.96804 5.87509 -0.654686
1.96804 5.86212 -0.654686
2.10744 5.82693 -0.701061
2.08428 5.81769 -0.693357
2.0611 5.80844 -0.685642
2.0611 5.79551 -0.685642
2.08428 5.77891 -0.693357
2.08428 5.76598 -0.693357
2.08428 5.75305 -0.693357
2.08428 5.74013 -0.693357
2.08428 5.7272 -0.693357
2.10744 5.71065 -0.701061
2.10744 5.69773 -0.701061
2.08428 5.68841 -0.693357
2.08428 5.67548 -0.693357
2.08428 5.66256 -0.693357
2.08428 5.64963 -0.693357
1.99135 5.65102 -0.66244
1.99135 5.63806 -0.66244
1.99135 5.6251 -0.66244
1.99135 5.61213 -0.66244
2.03788 5.59207 -0.677918
2.03788 5.57912 -0.677918
2.0611 5.56265 -0.685642
2.0611 5.54972 -0.685642
2.0611 5.53678 -0.685642
2.03788 5.52735 -0.677918
2.03788 5.5144 -0.677918
1.96804 5.51195 -0.654686
1.96804 5.49898 -0.654686
1.96804 5.48601 -0.654686
1.96804 5.47304 -0.654686
1.96804 5.46007 -0.654686
1.96804 5.4471 -0.654686
1.96804 5.43413 -0.654686
1.96804 5.42116 -0.654686
1.96804 5.40819 -0.654686
2.0611 5.38154 -0.685642
2.0611 5.36861 -0.685642
1.96804 5.36929 -0.654686
1.96804 5.35632 -0.654686
1.96804 5.34335 -0.654686
1.8745 5.34398 -0.623568
1.8745 5.33098 -0.623568
1.8745 5.31798 -0.623568
1.89793 5.30159 -0.631363
1.8745 5.29197 -0.623568
1.8745 5.27897 -0.623568
1.8745 5.26597 -0.623568
1.89793 5.24961 -0.631363
1.89793 5.23662 -0.631363
1.89793 5.22362 -0.631363
1.78047 5.22731 -0.592288
1.78047 5.21427 -0.592288
1.8745 5.18795 -0.623568
1.8745 5.17495 -0.623568
1.8745 5.16195 -0.623568
1.8745 5.14894 -0.623568
1.8745 5.13594 -0.623568
1.89793 5.11967 -0.631363
1.92133 5.10342 -0.639147
1.89793 5.09368 -0.631363
1.89793 5.08069 -0.631363
1.8745 5.07093 -0.623568
1.8745 5.05793 -0.623568
1.85103 5.04815 -0.615763
1.82754 5.03836 -0.607948
1.70962 5.04146 -0.568721
1.70962 5.0284 -0.568721
1.75688 5.00891 -0.584443
1.73327 4.99907 -0.576587
1.73327 4.98602 -0.576587
1.68594 4.97936 -0.560845
1.66224 4.96949 -0.552958
1.78047 4.94052 -0.592288
1.78047 4.92749 -0.592288
1.78047 4.91445 -0.592288
1.75688 4.90456 -0.584443
1.78047 4.88838 -0.592288
1.78047 4.87534 -0.592288
1.68594 4.87481 -0.560845
1.68594 4.86174 -0.560845
1.68594 4.84867 -0.560845
1.68594 4.8356 -0.560845
1.68594 4.82253 -0.560845
1.6385 4.81565 -0.545062
1.66224 4.79948 -0.552958
1.66224 4.7864 -0.552958
1.66224 4.77332 -0.552958
1.66224 4.76024 -0.552958
1.68594 4.74411 -0.560845
1.66224 4.73409 -0.552958
1.68594 4.71798 -0.560845
1.66224 4.70793 -0.552958
1.59093 4.70394 -0.529237
1.59093 4.69084 -0.529237
1.59093 4.67773 -0.529237
1.66224 4.65562 -0.552958
1.68594 4.63956 -0.560845
1.68594 4.62649 -0.560845
1.59093 4.62532 -0.529237
1.59093 4.61222 -0.529237
1.68594 4.58728 -0.560845
1.68594 4.57421 -0.560845
1.68594 4.56115 -0.560845
1.68594 4.54808 -0.560845
1.68594 4.53501 -0.560845
1.68594 4.52194 -0.560845
1.68594 4.50887 -0.560845
1.66224 4.49869 -0.552958
1.66224 4.48561 -0.552958
1.66224 4.47254 -0.552958
1.66224 4.45946 -0.552958
1.68594 4.44352 -0.560845
1.70962 4.42761 -0.568721
1.70962 4.41455 -0.568721
1.70962 4.40149 -0.568721
1.5671 4.40542 -0.521309
1.5671 4.3923 -0.521309
1.5671 4.37919 -0.521309
1.5671 4.36608 -0.521309
1.68594 4.33897 -0.560845
1.68594 4.3259 -0.560845
1.68594 4.31283 -0.560845
1.59093 4.31085 -0.529237
1.61473 4.29498 -0.537154
1.59093 4.28465 -0.529237
1.61473 4.26879 -0.537154
1.6385 4.25295 -0.545062
1.6385 4.23987 -0.545062
1.61473 4.22951 -0.537154
1.61473 4.21641 -0.537154
1.6385 4.20061 -0.545062
1.78047 4.17142 -0.592288
1.75688 4.16105 -0.584443
1.73327 4.15067 -0.576587
1.68594 4.14293 -0.560845
1.68594 4.12986 -0.560845
1.68594 4.11679 -0.560845
1.68594 4.10372 -0.560845
1.68594 4.09065 -0.560845
1.70962 4.07497 -0.568721
1.70962 4.06191 -0.568721
1.68594 4.05145 -0.560845
1.68594 4.03838 -0.560845
1.66224 4.0279 -0.552958
1.66224 4.01482 -0.552958
1.5671 4.01207 -0.521309
1.5671 3.99896 -0.521309
1.5671 3.98585 -0.521309
1.5671 3.97274 -0.521309
1.68594 3.94689 -0.560845
1.68594 3.93382 -0.560845
1.68594 3.92076 -0.560845
1.68594 3.90769 -0.560845
1.68594 3.89462 -0.560845
1.70962 3.87905 -0.568721
1.70962 3.86599 -0.568721
1.70962 3.85293 -0.568721
1.70962 3.83987 -0.568721
1.70962 3.82681 -0.568721
1.70962 3.81375 -0.568721
1.70962 3.80069 -0.568721
1.70962 3.78763 -0.568721
1.68594 3.77699 -0.560845
1.68594 3.76393 -0.560845
1.68594 3.75086 -0.560845
1.68594 3.73779 -0.560845
1.59093 3.73433 -0.529237
1.59093 3.72122 -0.529237
1.59093 3.70812 -0.529237
1.61473 3.69263 -0.537154
1.75688 3.66537 -0.584443
1.5671 3.67118 -0.521309
1.5671 3.65807 -0.521309
1.59093 3.6426 -0.529237
1.59093 3.6295 -0.529237
1.75688 3.60015 -0.584443
1.75688 3.58711 -0.584443
1.73327 3.57636 -0.576587
1.70962 3.5656 -0.568721
1.68594 3.55482 -0.560845
1.68594 3.54175 -0.560845
1.68594 3.52868 -0.560845
1.68594 3.51561 -0.560845
1.68594 3.50254 -0.560845
1.66224 3.49172 -0.552958
1.66224 3.47864 -0.552958
1.6385 3.46779 -0.545062
1.66224 3.45248 -0.552958
1.66224 3.43941 -0.552958
1.66224 3.3871 -0.552958
1.78047 3.35017 -0.592288
1.68594 3.31957 -0.560845
1.68594 3.3065 -0.560845
1.66224 3.29555 -0.552958
1.78047 3.27196 -0.592288
1.66224 3.2694 -0.552958
1.66224 3.25632 -0.552958
1.68594 3.24116 -0.560845
1.68594 3.22809 -0.560845
1.68594 3.21502 -0.560845
1.70962 3.19989 -0.568721
1.70962 3.18683 -0.568721
1.70962 3.17377 -0.568721
1.70962 3.16071 -0.568721
1.70962 3.14765 -0.568721
1.70962 3.13459 -0.568721
1.78047 3.11553 -0.592288
1.70962 3.10847 -0.568721
1.70962 3.09541 -0.568721
1.70962 3.08235 -0.568721
1.6385 3.07521 -0.545062
1.61473 3.0641 -0.537154
1.61473 3.05101 -0.537154
1.66224 3.034 -0.552958
1.66224 3.02092 -0.552958
1.66224 3.00785 -0.552958
1.66224 2.99477 -0.552958
1.66224 2.98169 -0.552958
1.59093 2.97436 -0.529237
1.59093 2.96125 -0.529237
1.59093 2.94815 -0.529237
1.59093 2.93505 -0.529237
1.59093 2.92195 -0.529237
1.5671 2.91072 -0.521309
1.5671 2.89761 -0.521309
1.66224 2.87707 -0.552958
1.66224 2.86399 -0.552958
1.66224 2.85092 -0.552958
1.54221 8.2052 -0.4306
1.51793 8.19737 -0.423819
1.51793 8.18424 -0.423819
1.85506 7.91556 -0.517948
1.85506 7.90254 -0.517948
1.85506 7.88952 -0.517948
1.85506 7.8765 -0.517948
1.85506 7.82442 -0.517948
1.80727 7.82141 -0.504606
1.80727 7.80837 -0.504606
1.80727 7.79534 -0.504606
1.80727 7.7823 -0.504606
1.80727 7.76927 -0.504606
1.80727 7.75623 -0.504606
1.80727 7.74319 -0.504606
1.78333 7.73511 -0.497922
1.80727 7.71712 -0.504606
1.80727 7.70409 -0.504606
1.71133 7.71082 -0.477818
1.71133 7.69775 -0.477818
1.71133 7.68468 -0.477818
1.71133 7.67161 -0.477818
1.83118 7.63402 -0.511281
1.80727 7.62587 -0.504606
1.73536 7.6275 -0.484528
1.73536 7.61444 -0.484528
1.71133 7.60627 -0.477818
1.68726 7.59808 -0.471099
1.68726 7.585 -0.471099
1.71133 7.56706 -0.477818
1.71133 7.55399 -0.477818
1.73536 7.53608 -0.484528
1.78333 7.51337 -0.497922
1.78333 7.50032 -0.497922
1.78333 7.48728 -0.497922
1.78333 7.47423 -0.497922
1.78333 7.46119 -0.497922
1.78333 7.44815 -0.497922
1.80727 7.43034 -0.504606
1.80727 7.4173 -0.504606
1.80727 7.40427 -0.504606
1.80727 7.39123 -0.504606
1.80727 7.3782 -0.504606
1.75936 7.3224 -0.491229
1.80727 7.24784 -0.504606
1.80727 7.2348 -0.504606
1.75936 7.23103 -0.491229
1.75936 7.21798 -0.491229
1.78333 7.20031 -0.497922
1.78333 7.18726 -0.497922
1.78333 7.17422 -0.497922
1.78333 7.16118 -0.497922
1.80727 7.14355 -0.504606
1.80727 7.13052 -0.504606
1.80727 7.11748 -0.504606
1.80727 7.10445 -0.504606
1.78333 7.09596 -0.497922
1.78333 7.08291 -0.497922
1.78333 7.06987 -0.497922
1.78333 7.05682 -0.497922
1.78333 7.04378 -0.497922
1.78333 7.03074 -0.497922
1.78333 7.01769 -0.497922
1.80727 7.00016 -0.504606
1.80727 6.98713 -0.504606
1.73536 6.98752 -0.484528
1.73536 6.97446 -0.484528
1.73536 6.9614 -0.484528
1.80727 6.93498 -0.504606
1.80727 6.92195 -0.504606
1.75936 6.91778 -0.491229
1.75936 6.90472 -0.491229
1.73536 6.8961 -0.484528
1.73536 6.88304 -0.484528
1.78333 6.86116 -0.497922
1.78333 6.84812 -0.497922
1.78333 6.83508 -0.497922
1.78333 6.82203 -0.497922
1.78333 6.80899 -0.497922
1.78333 6.79594 -0.497922
1.78333 6.7829 -0.497922
1.78333 6.76986 -0.497922
1.78333 6.75681 -0.497922
1.78333 6.74377 -0.497922
1.75936 6.73504 -0.491229
1.71133 6.73063 -0.477818
1.80727 6.67427 -0.504606
1.68726 6.61726 -0.471099
1.68726 6.60418 -0.471099
1.71133 6.58687 -0.477818
1.71133 6.5738 -0.477818
1.71133 6.56073 -0.477818
1.71133 6.54766 -0.477818
1.71133 6.53459 -0.477818
1.71133 6.52152 -0.477818
1.71133 6.50845 -0.477818
1.71133 6.49538 -0.477818
1.73536 6.47815 -0.484528
1.73536 6.46509 -0.484528
1.73536 6.45203 -0.484528
1.73536 6.43897 -0.484528
1.73536 6.42591 -0.484528
1.73536 6.41285 -0.484528
1.73536 6.39979 -0.484528
1.73536 6.38673 -0.484528
1.73536 6.37367 -0.484528
1.73536 6.3606 -0.484528
1.80727 6.33534 -0.504606
1.80727 6.32231 -0.504606
1.80727 6.30927 -0.504606
1.68726 6.29032 -0.471099
1.71133 6.27321 -0.477818
1.71133 6.26014 -0.477818
1.71133 6.24707 -0.477818
1.71133 6.234 -0.477818
1.71133 6.22093 -0.477818
1.71133 6.20786 -0.477818
1.73536 6.19081 -0.484528
1.73536 6.17775 -0.484528
1.68726 6.10724 -0.471099
1.68726 6.09416 -0.471099
1.63904 6.08892 -0.457634
1.61488 6.07974 -0.450889
1.78333 6.03939 -0.497922
2.04496 5.9842 -0.57097
2.04496 5.97125 -0.57097
2.04496 5.9583 -0.57097
2.04496 5.94534 -0.57097
2.11567 5.92112 -0.590712
2.11567 5.90819 -0.590712
2.09213 5.899 -0.58414
2.09213 5.88606 -0.58414
2.09213 5.87313 -0.58414
2.09213 5.86019 -0.58414
2.09213 5.84725 -0.58414
2.16265 5.82325 -0.603831
2.09213 5.82138 -0.58414
2.06856 5.81213 -0.57756
1.97398 5.81394 -0.551152
1.97398 5.80096 -0.551152
1.97398 5.78799 -0.551152
1.97398 5.77501 -0.551152
1.97398 5.76203 -0.551152
2.02133 5.74174 -0.564373
1.99767 5.73243 -0.557766
1.99767 5.71946 -0.557766
2.04496 5.69924 -0.57097
2.02133 5.6899 -0.564373
2.02133 5.67694 -0.564373
1.99767 5.66758 -0.557766
1.97398 5.65821 -0.551152
1.97398 5.64523 -0.551152
2.02133 5.6251 -0.564373
2.02133 5.61213 -0.564373
1.99767 5.60273 -0.557766
2.02133 5.58621 -0.564373
2.04496 5.56971 -0.57097
2.06856 5.55324 -0.57756
2.04496 5.54381 -0.57097
2.06856 5.52735 -0.57756
2.06856 5.5144 -0.57756
2.06856 5.50146 -0.57756
2.04496 5.492 -0.57097
2.04496 5.47904 -0.57097
2.04496 5.46609 -0.57097
2.04496 5.45314 -0.57097
2.04496 5.44018 -0.57097
2.11567 5.41692 -0.590712
2.11567 5.40399 -0.590712
2.02133 5.40476 -0.564373
1.99767 5.34335 -0.557766
1.99767 5.33038 -0.557766
1.99767 5.31741 -0.557766
1.99767 5.30444 -0.557766
1.9265 5.30159 -0.537896
1.9265 5.2886 -0.537896
1.90272 5.27897 -0.531255
1.90272 5.26597 -0.531255
1.9265 5.24961 -0.537896
1.9265 5.23662 -0.537896
1.95026 5.2203 -0.544528
1.85506 5.22062 -0.517948
1.9265 5.19764 -0.537896
1.9265 5.18464 -0.537896
1.9265 5.17165 -0.537896
1.9265 5.15865 -0.537896
1.8789 5.15223 -0.524606
1.8789 5.13922 -0.524606
1.8789 5.12621 -0.524606
1.80727 5.12302 -0.504606
1.85506 5.10345 -0.517948
1.95026 5.07745 -0.544528
1.95026 5.06447 -0.544528
1.85506 5.06439 -0.517948
1.78333 5.06109 -0.497922
1.78333 5.04804 -0.497922
1.78333 5.035 -0.497922
1.68726 5.03487 -0.471099
1.71133 5.01857 -0.477818
1.68726 5.00872 -0.471099
1.68726 4.99564 -0.471099
1.68726 4.98256 -0.471099
1.71133 4.96629 -0.477818
1.71133 4.95322 -0.477818
1.68726 4.94333 -0.471099
1.80727 4.91445 -0.504606
1.83118 4.89828 -0.511281
1.83118 4.88525 -0.511281
1.80727 4.87534 -0.504606
1.78333 4.86543 -0.497922
1.78333 4.85238 -0.497922
1.68726 4.85179 -0.471099
1.68726 4.83871 -0.471099
1.68726 4.82563 -0.471099
1.59069 4.82498 -0.444135
1.59069 4.81187 -0.444135
1.59069 4.79876 -0.444135
1.71133 4.77025 -0.477818
1.71133 4.75718 -0.477818
1.71133 4.74411 -0.477818
1.71133 4.73104 -0.477818
1.71133 4.71798 -0.477818
1.68726 4.70793 -0.471099
1.68726 4.69486 -0.471099
1.66317 4.68479 -0.464371
1.61488 4.67773 -0.450889
1.61488 4.66463 -0.450889
1.61488 4.65153 -0.450889
1.71133 4.62649 -0.477818
1.68726 4.61639 -0.471099
1.78333 4.5915 -0.497922
1.68726 4.59024 -0.471099
1.68726 4.57716 -0.471099
1.71133 4.56115 -0.477818
1.71133 4.54808 -0.477818
1.71133 4.53501 -0.477818
1.71133 4.52194 -0.477818
1.71133 4.50887 -0.477818
1.71133 4.4958 -0.477818
1.71133 4.48273 -0.477818
1.71133 4.46966 -0.477818
1.71133 4.45659 -0.477818
1.73536 4.44067 -0.484528
1.73536 4.42761 -0.484528
1.73536 4.41455 -0.484528
1.73536 4.40149 -0.484528
1.63904 4.39973 -0.457634
1.63904 4.38664 -0.457634
1.61488 4.37637 -0.450889
1.71133 4.35204 -0.477818
1.71133 4.33897 -0.477818
1.71133 4.3259 -0.477818
1.66317 4.31838 -0.464371
1.66317 4.3053 -0.464371
1.78333 4.27844 -0.497922
1.61488 4.28465 -0.450889
1.66317 4.26604 -0.464371
1.68726 4.25022 -0.471099
1.68726 4.23714 -0.471099
1.71133 4.22135 -0.477818
1.68726 4.21098 -0.471099
1.68726 4.19791 -0.471099
1.80727 4.17142 -0.504606
1.80727 4.15838 -0.504606
1.71133 4.156 -0.477818
1.71133 4.14293 -0.477818
1.73536 4.12721 -0.484528
1.80727 4.10624 -0.504606
1.80727 4.0932 -0.504606
1.71133 4.09065 -0.477818
1.71133 4.07759 -0.477818
1.71133 4.06452 -0.477818
1.73536 4.04884 -0.484528
1.75936 4.03319 -0.491229
1.75936 4.02014 -0.491229
1.73536 4.00966 -0.484528
1.71133 3.99917 -0.477818
1.71133 3.9861 -0.477818
1.71133 3.97303 -0.477818
1.71133 3.95996 -0.477818
1.71133 3.94689 -0.477818
1.61488 3.94397 -0.450889
1.61488 3.93087 -0.450889
1.61488 3.91777 -0.450889
1.61488 3.90466 -0.450889
1.61488 3.89156 -0.450889
1.71133 3.86848 -0.477818
1.71133 3.85541 -0.477818
1.73536 3.83987 -0.484528
1.73536 3.82681 -0.484528
1.73536 3.81375 -0.484528
1.61488 3.81294 -0.450889
1.73536 3.78763 -0.484528
1.73536 3.77457 -0.484528
1.75936 3.75909 -0.491229
1.75936 3.74604 -0.491229
1.80727 3.7282 -0.504606
1.80727 3.71517 -0.504606
1.73536 3.70926 -0.484528
1.73536 3.6962 -0.484528
1.71133 3.68551 -0.477818
1.71133 3.67244 -0.477818
1.59069 3.67118 -0.444135
1.66317 3.651 -0.464371
1.66317 3.63791 -0.464371
1.71133 3.62016 -0.477818
1.78333 3.60015 -0.497922
1.78333 3.58711 -0.497922
1.78333 3.57407 -0.497922
1.80727 3.55874 -0.504606
1.68726 3.55711 -0.471099
1.68726 3.54403 -0.471099
1.71133 3.52868 -0.477818
1.68726 3.51787 -0.471099
1.68726 3.50479 -0.471099
1.68726 3.49172 -0.471099
1.68726 3.47864 -0.471099
1.68726 3.46556 -0.471099
1.68726 3.45248 -0.471099
1.68726 3.43941 -0.471099
1.68726 3.42633 -0.471099
1.68726 3.41325 -0.471099
1.68726 3.40017 -0.471099
1.68726 3.3871 -0.471099
1.68726 3.37402 -0.471099
1.68726 3.36094 -0.471099
1.71133 3.34571 -0.477818
1.73536 3.3305 -0.484528
1.73536 3.31744 -0.484528
1.73536 3.30438 -0.484528
1.75936 3.28921 -0.491229
1.63904 3.28671 -0.457634
1.63904 3.27361 -0.457634
1.63904 3.26052 -0.457634
1.61488 3.24952 -0.450889
1.61488 3.23642 -0.450889
1.68726 3.21709 -0.471099
1.71133 3.20195 -0.477818
1.73536 3.18683 -0.484528
1.80727 3.16767 -0.504606
1.73536 3.16071 -0.484528
1.71133 3.14967 -0.477818
1.73536 3.13459 -0.484528
1.73536 3.12153 -0.484528
1.73536 3.10847 -0.484528
1.73536 3.09541 -0.484528
1.73536 3.08235 -0.484528
1.73536 3.06929 -0.484528
1.73536 3.05622 -0.484528
1.73536 3.04316 -0.484528
1.75936 3.02816 -0.491229
1.75936 3.01511 -0.491229
1.73536 3.00398 -0.484528
1.73536 2.99092 -0.484528
1.73536 2.97786 -0.484528
1.73536 2.9648 -0.484528
1.73536 2.95174 -0.484528
1.73536 2.93868 -0.484528
1.59069 2.93694 -0.444135
1.61488 2.92195 -0.450889
1.68726 2.90323 -0.471099
1.68726 2.89015 -0.471099
1.66317 2.87892 -0.464371
1.66317 2.86584 -0.464371
1.63904 2.85459 -0.457634
1.61488 2.84333 -0.450889
1.61049 8.1946 -0.3659
1.63498 8.17621 -0.371464
1.63498 8.1631 -0.371464
1.63498 8.15 -0.371464
1.63498 8.1369 -0.371464
1.82977 7.97784 -0.415719
1.82977 7.9648 -0.415719
1.82977 7.95177 -0.415719
1.82977 7.93873 -0.415719
1.82977 7.92569 -0.415719
1.87814 7.90254 -0.426711
1.87814 7.88952 -0.426711
1.87814 7.8765 -0.426711
1.87814 7.86348 -0.426711
1.87814 7.85046 -0.426711
1.87814 7.83744 -0.426711
1.87814 7.82442 -0.426711
1.80553 7.7612 -0.410213
1.80553 7.74816 -0.410213
1.80553 7.69598 -0.410213
1.80553 7.68294 -0.410213
1.80553 7.66989 -0.410213
1.87814 7.64216 -0.426711
1.87814 7.62914 -0.426711
1.75696 7.64056 -0.399178
1.85397 7.60797 -0.421219
1.75696 7.61444 -0.399178
1.75696 7.60138 -0.399178
1.75696 7.58832 -0.399178
1.75696 7.57526 -0.399178
1.75696 7.5622 -0.399178
1.75696 7.54914 -0.399178
1.75696 7.53608 -0.399178
1.75696 7.52301 -0.399178
1.75696 7.50995 -0.399178
1.82977 7.48248 -0.415719
1.82977 7.46945 -0.415719
1.82977 7.45641 -0.415719
1.82977 7.44337 -0.415719
1.80553 7.4351 -0.410213
1.80553 7.42206 -0.410213
1.82977 7.40427 -0.415719
1.82977 7.39123 -0.415719
1.85397 7.37347 -0.421219
1.85397 7.36045 -0.421219
1.85397 7.34742 -0.421219
1.87814 7.3297 -0.426711
1.87814 7.31668 -0.426711
1.80553 7.31771 -0.410213
1.75696 7.24874 -0.399178
1.80553 7.2264 -0.410213
1.82977 7.20873 -0.415719
1.82977 7.1957 -0.415719
1.85397 7.17806 -0.421219
1.85397 7.16504 -0.421219
1.85397 7.15201 -0.421219
1.85397 7.13898 -0.421219
1.85397 7.12595 -0.421219
1.85397 7.11293 -0.421219
1.85397 7.0999 -0.421219
1.80553 7.09596 -0.410213
1.80553 7.08291 -0.410213
1.85397 7.03476 -0.421219
1.82977 7.02623 -0.415719
1.82977 7.0132 -0.415719
1.80553 7.00465 -0.410213
1.82977 6.98713 -0.415719
1.82977 6.97409 -0.415719
1.82977 6.96105 -0.415719
1.75696 6.9614 -0.399178
1.75696 6.94834 -0.399178
1.75696 6.93528 -0.399178
1.75696 6.92222 -0.399178
1.75696 6.90916 -0.399178
1.73263 6.90053 -0.39365
1.73263 6.88746 -0.39365
1.73263 6.87439 -0.39365
1.73263 6.86132 -0.39365
1.82977 6.8307 -0.415719
1.82977 6.81766 -0.415719
1.82977 6.80463 -0.415719
1.82977 6.79159 -0.415719
1.82977 6.77855 -0.415719
1.82977 6.76552 -0.415719
1.82977 6.75248 -0.415719
1.82977 6.73945 -0.415719
1.82977 6.72641 -0.415719
1.82977 6.71338 -0.415719
1.82977 6.67427 -0.415719
1.82977 6.66123 -0.415719
1.82977 6.6482 -0.415719
1.75696 6.64794 -0.399178
1.73263 6.63915 -0.39365
1.75696 6.62182 -0.399178
1.82977 6.59605 -0.415719
1.82977 6.58302 -0.415719
1.80553 6.57419 -0.410213
1.80553 6.56115 -0.410213
1.80553 6.54811 -0.410213
1.82977 6.53088 -0.415719
1.82977 6.51784 -0.415719
1.82977 6.50481 -0.415719
1.82977 6.49177 -0.415719
1.82977 6.47873 -0.415719
1.82977 6.4657 -0.415719
1.82977 6.45266 -0.415719
1.80553 6.44375 -0.410213
1.80553 6.43071 -0.410213
1.82977 6.41356 -0.415719
1.82977 6.40052 -0.415719
1.82977 6.38748 -0.415719
1.80553 6.37853 -0.410213
1.85397 6.35734 -0.421219
1.85397 6.34431 -0.421219
1.85397 6.33129 -0.421219
1.85397 6.31826 -0.421219
1.75696 6.32142 -0.399178
1.73263 6.31242 -0.39365
1.73263 6.29935 -0.39365
1.73263 6.28628 -0.39365
1.75696 6.26918 -0.399178
1.75696 6.25612 -0.399178
1.75696 6.24306 -0.399178
1.75696 6.23 -0.399178
1.75696 6.21694 -0.399178
1.75696 6.20388 -0.399178
1.75696 6.19081 -0.399178
1.75696 6.17775 -0.399178
1.75696 6.16469 -0.399178
1.80553 6.14374 -0.410213
1.80553 6.1307 -0.410213
1.82977 6.11373 -0.415719
1.82977 6.1007 -0.415719
1.82977 6.08766 -0.415719
1.80553 6.07852 -0.410213
1.68387 6.085 -0.382572
1.75696 6.06021 -0.399178
1.73263 6.05103 -0.39365
2.02253 5.87509 -0.459515
2.02253 5.86212 -0.459515
2.02253 5.84915 -0.459515
2.04649 5.83247 -0.464958
2.07041 5.81582 -0.470393
2.02253 5.81024 -0.459515
2.02253 5.79727 -0.459515
2.11817 5.76963 -0.481243
2.11817 5.7567 -0.481243
2.11817 5.74376 -0.481243
2.11817 5.73083 -0.481243
2.11817 5.71789 -0.481243
2.142 5.70134 -0.486658
2.02253 5.70649 -0.459515
2.11817 5.67908 -0.481243
2.11817 5.66614 -0.481243
2.11817 5.65321 -0.481243
2.11817 5.64027 -0.481243
1.99854 5.64523 -0.454066
2.02253 5.62867 -0.459515
2.02253 5.6157 -0.459515
2.0943 5.59207 -0.475822
2.0943 5.57912 -0.475822
1.99854 5.58034 -0.454066
1.99854 5.56737 -0.454066
1.99854 5.55439 -0.454066
1.99854 5.54141 -0.454066
2.02253 5.52492 -0.459515
2.07041 5.50495 -0.470393
1.99854 5.50248 -0.454066
2.07041 5.47904 -0.470393
2.02253 5.47304 -0.459515
2.02253 5.46007 -0.459515
2.07041 5.44018 -0.470393
2.0943 5.42379 -0.475822
2.0943 5.41084 -0.475822
2.0943 5.3979 -0.475822
1.99854 5.39866 -0.454066
1.99854 5.38568 -0.454066
2.02253 5.36929 -0.459515
2.02253 5.35632 -0.459515
2.02253 5.34335 -0.459515
2.04649 5.32699 -0.464958
2.07041 5.31066 -0.470393
2.07041 5.2977 -0.470393
1.90229 5.30836 -0.432196
1.90229 5.29535 -0.432196
1.80553 5.29588 -0.410213
1.80553 5.28284 -0.410213
1.80553 5.26979 -0.410213
1.82977 5.25338 -0.415719
1.82977 5.24034 -0.415719
1.82977 5.22731 -0.415719
1.82977 5.21427 -0.415719
1.82977 5.20124 -0.415719
1.82977 5.1882 -0.415719
1.82977 5.17517 -0.415719
1.82977 5.16213 -0.415719
1.82977 5.14909 -0.415719
1.9264 5.12294 -0.437674
1.9264 5.10994 -0.437674
1.9264 5.09693 -0.437674
1.90229 5.08718 -0.432196
1.87814 5.07741 -0.426711
1.87814 5.06439 -0.426711
1.90229 5.04815 -0.432196
1.90229 5.03514 -0.432196
1.82977 5.03177 -0.415719
1.82977 5.01874 -0.415719
1.85397 5.0025 -0.421219
1.73263 5.0055 -0.39365
1.73263 4.99243 -0.39365
1.73263 4.97936 -0.39365
1.65944 4.97589 -0.377022
1.63498 4.966 -0.371464
1.70826 4.94333 -0.388114
1.73263 4.92708 -0.39365
1.70826 4.91717 -0.388114
1.73263 4.90094 -0.39365
1.78126 4.8816 -0.404699
1.78126 4.86855 -0.404699
1.63498 4.87428 -0.371464
1.63498 4.86117 -0.371464
1.63498 4.84807 -0.371464
1.80553 4.81325 -0.410213
1.70826 4.81255 -0.388114
1.70826 4.79948 -0.388114
1.73263 4.78332 -0.39365
1.61049 4.78564 -0.3659
1.61049 4.77253 -0.3659
1.58596 4.7625 -0.360328
1.70826 4.73409 -0.388114
1.68387 4.72405 -0.382572
1.75696 4.70188 -0.399178
1.75696 4.68882 -0.399178
1.75696 4.67576 -0.399178
1.75696 4.6627 -0.399178
1.75696 4.64964 -0.399178
1.75696 4.63658 -0.399178
1.75696 4.62352 -0.399178
1.75696 4.61046 -0.399178
1.68387 4.60628 -0.382572
1.68387 4.59319 -0.382572
1.68387 4.5801 -0.382572
1.68387 4.56702 -0.382572
1.68387 4.55393 -0.382572
1.68387 4.54085 -0.382572
1.63498 4.5336 -0.371464
1.63498 4.5205 -0.371464
1.73263 4.4958 -0.39365
1.75696 4.47985 -0.399178
1.75696 4.46679 -0.399178
1.75696 4.45373 -0.399178
1.75696 4.44067 -0.399178
1.73263 4.43045 -0.39365
1.68387 4.42307 -0.382572
1.65944 4.41283 -0.377022
1.63498 4.40257 -0.371464
1.63498 4.38947 -0.371464
1.61049 4.37919 -0.3659
1.61049 4.36608 -0.3659
1.80553 4.33062 -0.410213
1.80553 4.31758 -0.410213
1.63498 4.32396 -0.371464
1.63498 4.31085 -0.371464
1.63498 4.29775 -0.371464
1.63498 4.28465 -0.371464
1.63498 4.27154 -0.371464
1.63498 4.25844 -0.371464
1.63498 4.24534 -0.371464
1.73263 4.22135 -0.39365
1.73263 4.20828 -0.39365
1.73263 4.19521 -0.39365
1.56141 4.20106 -0.354749
1.56141 4.18793 -0.354749
1.56141 4.1748 -0.354749
1.73263 4.14293 -0.39365
1.73263 4.12986 -0.39365
1.73263 4.11679 -0.39365
1.70826 4.10636 -0.388114
1.73263 4.09065 -0.39365
1.70826 4.08021 -0.388114
1.73263 4.06452 -0.39365
1.70826 4.05405 -0.388114
1.70826 4.04098 -0.388114
1.63498 4.03569 -0.371464
1.63498 4.02259 -0.371464
1.73263 3.99917 -0.39365
1.73263 3.9861 -0.39365
1.63498 3.98328 -0.371464
1.70826 3.96251 -0.388114
1.70826 3.94943 -0.388114
1.73263 3.93382 -0.39365
1.78126 3.91572 -0.404699
1.80553 3.90017 -0.410213
1.80553 3.88712 -0.410213
1.73263 3.88155 -0.39365
1.75696 3.86599 -0.399178
1.75696 3.85293 -0.399178
1.75696 3.83987 -0.399178
1.75696 3.82681 -0.399178
1.75696 3.81375 -0.399178
1.75696 3.80069 -0.399178
1.75696 3.78763 -0.399178
1.75696 3.77457 -0.399178
1.68387 3.76877 -0.382572
1.70826 3.75327 -0.388114
1.70826 3.74019 -0.388114
1.70826 3.72711 -0.388114
1.73263 3.71165 -0.39365
1.80553 3.69146 -0.410213
1.80553 3.67842 -0.410213
1.80553 3.66537 -0.410213
1.80553 3.65233 -0.410213
1.80553 3.63929 -0.410213
1.63498 3.6426 -0.371464
1.61049 3.63185 -0.3659
1.80553 3.60015 -0.410213
1.80553 3.58711 -0.410213
1.80553 3.57407 -0.410213
1.63498 3.57709 -0.371464
1.68387 3.5594 -0.382572
1.68387 3.54631 -0.382572
1.78126 3.52415 -0.404699
1.78126 3.5111 -0.404699
1.65944 3.50931 -0.377022
1.65944 3.49622 -0.377022
1.78126 3.47194 -0.404699
1.78126 3.45889 -0.404699
1.82977 3.44142 -0.415719
1.82977 3.42838 -0.415719
1.80553 3.41754 -0.410213
1.82977 3.40231 -0.415719
1.82977 3.38928 -0.415719
1.82977 3.37624 -0.415719
1.78126 3.36752 -0.404699
1.80553 3.35232 -0.410213
1.80553 3.33927 -0.410213
1.80553 3.32623 -0.410213
1.80553 3.31319 -0.410213
1.73263 3.3065 -0.39365
1.73263 3.29343 -0.39365
1.75696 3.27826 -0.399178
1.75696 3.2652 -0.399178
1.75696 3.25214 -0.399178
1.61049 3.25162 -0.3659
1.63498 3.23642 -0.371464
1.63498 3.22331 -0.371464
1.63498 3.21021 -0.371464
1.75696 3.18683 -0.399178
1.75696 3.17377 -0.399178
1.75696 3.16071 -0.399178
1.73263 3.14967 -0.39365
1.75696 3.13459 -0.399178
1.75696 3.12153 -0.399178
1.75696 3.10847 -0.399178
1.73263 3.0974 -0.39365
1.75696 3.08235 -0.399178
1.75696 3.06929 -0.399178
1.75696 3.05622 -0.399178
1.75696 3.04316 -0.399178
1.78126 3.02816 -0.404699
1.78126 3.01511 -0.404699
1.75696 3.00398 -0.399178
1.75696 2.99092 -0.399178
1.75696 2.97786 -0.399178
1.75696 2.9648 -0.399178
1.75696 2.95174 -0.399178
1.78126 2.93679 -0.404699
1.73263 2.9275 -0.39365
1.80553 2.90882 -0.410213
1.63498 2.90884 -0.371464
1.65944 2.89387 -0.377022
1.70826 2.87707 -0.388114
1.70826 2.86399 -0.388114
1.61049 2.85828 -0.3659
1.63498 2.84333 -0.371464
1.63498 2.83023 -0.371464
1.62644 8.20771 -0.286791
1.62644 8.1946 -0.286791
1.55204 8.19737 -0.273673
1.57687 8.17894 -0.278051
1.57687 8.16581 -0.278051
1.62644 8.14215 -0.286791
1.62644 8.12904 -0.286791
1.65117 8.11069 -0.291153
1.65117 8.09759 -0.291153
1.70055 8.07407 -0.299859
1.84789 7.82141 -0.32584
1.84789 7.80837 -0.32584
1.77436 7.81035 -0.312875
1.77436 7.79729 -0.312875
1.77436 7.78423 -0.312875
1.77436 7.77117 -0.312875
1.84789 7.74319 -0.32584
1.84789 7.73016 -0.32584
1.84789 7.66498 -0.32584
1.84789 7.65195 -0.32584
1.77436 7.54914 -0.312875
1.77436 7.53608 -0.312875
1.77436 7.52301 -0.312875
1.77436 7.50995 -0.312875
1.77436 7.49689 -0.312875
1.77436 7.48383 -0.312875
1.74979 7.47557 -0.308542
1.74979 7.4625 -0.308542
1.74979 7.44944 -0.308542
1.74979 7.43637 -0.308542
1.77436 7.41853 -0.312875
1.84789 7.39123 -0.32584
1.84789 7.3782 -0.32584
1.84789 7.36516 -0.32584
1.84789 7.35212 -0.32584
1.77436 7.3271 -0.312875
1.77436 7.31404 -0.312875
1.77436 7.30098 -0.312875
1.82341 7.20031 -0.321524
1.84789 7.16962 -0.32584
1.84789 7.15659 -0.32584
1.84789 7.14355 -0.32584
1.84789 7.13052 -0.32584
1.77436 7.13119 -0.312875
1.77436 7.11813 -0.312875
1.77436 7.10507 -0.312875
1.77436 7.09201 -0.312875
1.74979 7.0835 -0.308542
1.74979 7.07043 -0.308542
1.74979 7.05736 -0.308542
1.72518 7.04882 -0.304203
1.72518 7.03574 -0.304203
1.74979 6.97894 -0.308542
1.74979 6.96588 -0.308542
1.82341 6.93943 -0.321524
1.82341 6.92638 -0.321524
1.7989 6.91778 -0.317202
1.77436 6.90916 -0.312875
1.74979 6.90053 -0.308542
1.74979 6.88746 -0.308542
1.77436 6.86998 -0.312875
1.84789 6.84373 -0.32584
1.84789 6.8307 -0.32584
1.82341 6.82203 -0.321524
1.82341 6.80899 -0.321524
1.82341 6.79594 -0.321524
1.7989 6.78725 -0.317202
1.89675 6.62667 -0.334455
1.89675 6.61366 -0.334455
1.82341 6.61333 -0.321524
1.82341 6.60028 -0.321524
1.72518 6.60418 -0.304203
1.84789 6.56998 -0.32584
1.84789 6.55695 -0.32584
1.84789 6.54391 -0.32584
1.84789 6.53088 -0.32584
1.84789 6.51784 -0.32584
1.72518 6.52572 -0.304203
1.72518 6.51264 -0.304203
1.72518 6.49956 -0.304203
1.74979 6.48232 -0.308542
1.74979 6.46925 -0.308542
1.74979 6.45618 -0.308542
1.84789 6.40052 -0.32584
1.84789 6.38748 -0.32584
1.84789 6.37445 -0.32584
1.87233 6.35734 -0.33015
1.87233 6.34431 -0.33015
1.77436 6.34754 -0.312875
1.77436 6.33448 -0.312875
1.74979 6.29935 -0.308542
1.74979 6.28628 -0.308542
1.74979 6.27321 -0.308542
1.7989 6.2521 -0.317202
1.82341 6.23505 -0.321524
1.84789 6.21802 -0.32584
1.72518 6.22493 -0.304203
1.72518 6.21186 -0.304203
1.72518 6.19878 -0.304203
1.72518 6.1857 -0.304203
1.89675 6.14497 -0.334455
1.82341 6.14374 -0.321524
1.72518 6.14647 -0.304203
1.74979 6.12945 -0.308542
1.74979 6.11638 -0.308542
1.74979 6.10331 -0.308542
1.77436 6.08633 -0.312875
1.77436 6.07327 -0.312875
1.77436 6.06021 -0.312875
1.77436 6.04715 -0.312875
1.82341 6.02635 -0.321524
2.13915 5.91193 -0.377197
2.11505 5.90274 -0.372948
2.11505 5.88979 -0.372948
2.11505 5.87685 -0.372948
2.13915 5.86019 -0.377197
2.18725 5.83985 -0.38568
2.21125 5.82325 -0.389912
2.23523 5.80667 -0.39414
2.23523 5.79377 -0.39414
2.23523 5.78086 -0.39414
2.23523 5.76796 -0.39414
2.21125 5.75869 -0.389912
2.23523 5.74215 -0.39414
2.13915 5.74376 -0.377197
2.11505 5.73446 -0.372948
2.11505 5.72152 -0.372948
2.11505 5.70857 -0.372948
2.09092 5.69924 -0.368693
2.09092 5.68629 -0.368693
2.04256 5.68055 -0.360167
2.04256 5.66758 -0.360167
2.04256 5.65461 -0.360167
2.16321 5.62377 -0.381441
2.16321 5.61084 -0.381441
2.16321 5.59791 -0.381441
2.11505 5.59207 -0.372948
2.11505 5.57912 -0.372948
2.13915 5.56265 -0.377197
2.13915 5.54972 -0.377197
2.13915 5.53678 -0.377197
2.11505 5.52735 -0.372948
2.09092 5.5179 -0.368693
2.21125 5.48754 -0.389912
2.09092 5.492 -0.368693
2.16321 5.46863 -0.381441
2.16321 5.4557 -0.381441
2.16321 5.44278 -0.381441
2.06676 5.44364 -0.364433
2.06676 5.43068 -0.364433
2.04256 5.42116 -0.360167
2.16321 5.39106 -0.381441
2.09092 5.38837 -0.368693
2.09092 5.37542 -0.368693
2.09092 5.36247 -0.368693
2.09092 5.34951 -0.368693
2.09092 5.33656 -0.368693
2.09092 5.32361 -0.368693
2.06676 5.31403 -0.364433
1.89675 5.32477 -0.334455
1.92113 5.30836 -0.338754
1.94548 5.29197 -0.343048
1.82341 5.29588 -0.321524
1.82341 5.28284 -0.321524
1.84789 5.26642 -0.32584
1.84789 5.25338 -0.32584
1.89675 5.23364 -0.334455
1.94548 5.21396 -0.343048
1.92113 5.20428 -0.338754
1.92113 5.19127 -0.338754
1.94548 5.17495 -0.343048
1.94548 5.16195 -0.343048
1.94548 5.14894 -0.343048
1.94548 5.13594 -0.343048
1.94548 5.12294 -0.343048
1.94548 5.10994 -0.343048
1.9698 5.09368 -0.347336
1.9698 5.08069 -0.347336
1.9698 5.0677 -0.347336
1.9698 5.0547 -0.347336
1.9698 5.04171 -0.347336
1.87233 5.04158 -0.33015
1.82341 5.035 -0.321524
1.82341 5.02195 -0.321524
1.62644 5.03476 -0.286791
1.62644 5.02165 -0.286791
1.82341 4.98282 -0.321524
1.82341 4.96978 -0.321524
1.84789 4.95356 -0.32584
1.62644 4.9692 -0.286791
1.62644 4.95609 -0.286791
1.84789 4.91445 -0.32584
1.84789 4.90142 -0.32584
1.84789 4.88838 -0.32584
1.82341 4.87847 -0.321524
1.82341 4.86543 -0.321524
1.82341 4.85238 -0.321524
1.72518 4.85179 -0.304203
1.72518 4.83871 -0.304203
1.72518 4.82563 -0.304203
1.70055 4.81565 -0.299859
1.70055 4.80257 -0.299859
1.70055 4.78948 -0.299859
1.74979 4.77025 -0.308542
1.77436 4.75413 -0.312875
1.77436 4.74107 -0.312875
1.77436 4.72801 -0.312875
1.77436 4.71494 -0.312875
1.74979 4.70491 -0.308542
1.74979 4.69184 -0.308542
1.7989 4.67276 -0.317202
1.77436 4.6627 -0.312875
1.74979 4.65263 -0.308542
1.74979 4.63956 -0.308542
1.62644 4.64142 -0.286791
1.62644 4.62831 -0.286791
1.65117 4.61222 -0.291153
1.65117 4.59912 -0.291153
1.65117 4.58601 -0.291153
1.70055 4.56702 -0.299859
1.72518 4.551 -0.304203
1.72518 4.53792 -0.304203
1.72518 4.52485 -0.304203
1.72518 4.51177 -0.304203
1.72518 4.49869 -0.304203
1.72518 4.48561 -0.304203
1.72518 4.47254 -0.304203
1.72518 4.45946 -0.304203
1.72518 4.44638 -0.304203
1.72518 4.4333 -0.304203
1.72518 4.42023 -0.304203
1.72518 4.40715 -0.304203
1.74979 4.39125 -0.308542
1.74979 4.37818 -0.308542
1.77436 4.3623 -0.312875
1.77436 4.34924 -0.312875
1.77436 4.33618 -0.312875
1.77436 4.32312 -0.312875
1.74979 4.31283 -0.308542
1.74979 4.29976 -0.308542
1.74979 4.28669 -0.308542
1.65117 4.28465 -0.291153
1.65117 4.27154 -0.291153
1.65117 4.25844 -0.291153
1.65117 4.24534 -0.291153
1.65117 4.23223 -0.291153
1.62644 4.22186 -0.286791
1.62644 4.20875 -0.286791
1.60167 4.19835 -0.282424
1.65117 4.17982 -0.291153
1.65117 4.16672 -0.291153
1.65117 4.15362 -0.291153
1.65117 4.14051 -0.291153
1.65117 4.12741 -0.291153
1.65117 4.11431 -0.291153
1.77436 4.08803 -0.312875
1.74979 4.07759 -0.308542
1.74979 4.06452 -0.308542
1.74979 4.05145 -0.308542
1.65117 4.04879 -0.291153
1.65117 4.03569 -0.291153
1.74979 4.01224 -0.308542
1.74979 3.99917 -0.308542
1.74979 3.9861 -0.308542
1.72518 3.97559 -0.304203
1.65117 3.97018 -0.291153
1.65117 3.95707 -0.291153
1.65117 3.94397 -0.291153
1.65117 3.93087 -0.291153
1.65117 3.91777 -0.291153
1.65117 3.90466 -0.291153
1.65117 3.89156 -0.291153
1.65117 3.87846 -0.291153
1.72518 3.85789 -0.304203
1.72518 3.84481 -0.304203
1.62644 3.84163 -0.286791
1.82341 3.80886 -0.321524
1.82341 3.79581 -0.321524
1.65117 3.79984 -0.291153
1.62644 3.78918 -0.286791
1.72518 3.76635 -0.304203
1.74979 3.75086 -0.308542
1.74979 3.73779 -0.308542
1.72518 3.72711 -0.304203
1.72518 3.71404 -0.304203
1.72518 3.70096 -0.304203
1.72518 3.68788 -0.304203
1.74979 3.67244 -0.308542
1.62644 3.67118 -0.286791
1.62644 3.65807 -0.286791
1.67588 3.64026 -0.295509
1.77436 3.61784 -0.312875
1.77436 3.60478 -0.312875
1.77436 3.59172 -0.312875
1.77436 3.57866 -0.312875
1.77436 3.5656 -0.312875
1.77436 3.55253 -0.312875
1.77436 3.53947 -0.312875
1.70055 3.53322 -0.299859
1.70055 3.52014 -0.299859
1.70055 3.50705 -0.299859
1.7989 3.48499 -0.317202
1.70055 3.48088 -0.299859
1.70055 3.46779 -0.299859
1.72518 3.45248 -0.304203
1.72518 3.43941 -0.304203
1.72518 3.42633 -0.304203
1.72518 3.41325 -0.304203
1.72518 3.40017 -0.304203
1.72518 3.3871 -0.304203
1.72518 3.37402 -0.304203
1.72518 3.36094 -0.304203
1.77436 3.34356 -0.312875
1.7989 3.32836 -0.317202
1.7989 3.31531 -0.317202
1.84789 3.29803 -0.32584
1.84789 3.28499 -0.32584
1.84789 3.27196 -0.32584
1.84789 3.25892 -0.32584
1.65117 3.26262 -0.291153
1.74979 3.24116 -0.308542
1.74979 3.22809 -0.308542
1.74979 3.21502 -0.308542
1.77436 3.19989 -0.312875
1.7989 3.18479 -0.317202
1.82341 3.1697 -0.321524
1.7989 3.15868 -0.317202
1.82341 3.14361 -0.321524
1.77436 3.13459 -0.312875
1.77436 3.12153 -0.312875
1.77436 3.10847 -0.312875
1.77436 3.09541 -0.312875
1.77436 3.08235 -0.312875
1.74979 3.07126 -0.308542
1.74979 3.05819 -0.308542
1.65117 3.05297 -0.291153
1.62644 3.04183 -0.286791
1.62644 3.02872 -0.286791
1.65117 3.01367 -0.291153
1.70055 2.9967 -0.299859
1.67588 2.98553 -0.295509
1.65117 2.97436 -0.291153
1.65117 2.96125 -0.291153
1.65117 2.94815 -0.291153
1.67588 2.93316 -0.295509
1.67588 2.92006 -0.295509
1.67588 2.90697 -0.295509
1.70055 2.89201 -0.299859
1.70055 2.87892 -0.299859
1.77436 2.86031 -0.312875
1.77436 2.84725 -0.312875
1.77436 2.83419 -0.312875
1.65117 2.83023 -0.291153
1.66342 8.22862 -0.210146
1.66342 8.21552 -0.210146
1.66342 8.20241 -0.210146
1.63851 8.1946 -0.206998
1.66342 8.17621 -0.210146
1.66342 8.1631 -0.210146
1.66342 8.15 -0.210146
1.66342 8.1369 -0.210146
1.76277 8.10289 -0.222697
1.73798 8.09503 -0.219565
1.76277 8.07676 -0.222697
1.93538 8.01458 -0.244504
1.93538 8.00157 -0.244504
1.93538 7.98856 -0.244504
1.8616 7.99087 -0.235182
1.8616 7.97784 -0.235182
1.88623 7.9597 -0.238293
1.83694 7.95686 -0.232067
1.83694 7.94382 -0.232067
1.78753 7.94096 -0.225824
1.78753 7.9279 -0.225824
1.78753 7.91484 -0.225824
1.78753 7.90178 -0.225824
1.78753 7.88872 -0.225824
1.78753 7.87566 -0.225824
1.78753 7.8626 -0.225824
1.78753 7.84953 -0.225824
1.8616 7.80837 -0.235182
1.8616 7.79534 -0.235182
1.8616 7.7823 -0.235182
1.8616 7.76927 -0.235182
1.8616 7.75623 -0.235182
1.8616 7.74319 -0.235182
1.91082 7.72027 -0.241401
1.88623 7.71218 -0.238293
1.88623 7.69916 -0.238293
1.8616 7.69105 -0.235182
1.83694 7.68294 -0.232067
1.83694 7.66989 -0.232067
1.83694 7.65685 -0.232067
1.83694 7.64381 -0.232067
1.83694 7.63076 -0.232067
1.91082 7.6031 -0.241401
1.8616 7.5998 -0.235182
1.8616 7.58677 -0.235182
1.8616 7.57373 -0.235182
1.83694 7.56554 -0.232067
1.81225 7.55734 -0.228948
1.78753 7.54914 -0.225824
1.76277 7.54092 -0.222697
1.76277 7.52785 -0.222697
1.76277 7.51478 -0.222697
1.73798 7.50654 -0.219565
1.73798 7.49346 -0.219565
1.73798 7.48038 -0.219565
1.83694 7.44815 -0.232067
1.78753 7.44465 -0.225824
1.78753 7.43159 -0.225824
1.73798 7.42807 -0.219565
1.8616 7.39123 -0.235182
1.8616 7.3782 -0.235182
1.78753 7.34016 -0.225824
1.78753 7.3271 -0.225824
1.91082 7.29064 -0.241401
1.8616 7.27391 -0.235182
1.8616 7.26087 -0.235182
1.8616 7.24784 -0.235182
1.8616 7.2348 -0.235182
1.83694 7.2264 -0.232067
1.83694 7.21335 -0.232067
1.8616 7.1957 -0.235182
1.8616 7.18266 -0.235182
1.8616 7.16962 -0.235182
1.8616 7.15659 -0.235182
1.8616 7.14355 -0.235182
1.8616 7.13052 -0.235182
1.8616 7.11748 -0.235182
1.81225 7.11356 -0.228948
1.8616 7.09141 -0.235182
1.76277 7.09657 -0.222697
1.83694 7.06987 -0.232067
1.78753 7.06589 -0.225824
1.78753 7.05283 -0.225824
1.78753 7.03977 -0.225824
1.78753 7.0267 -0.225824
1.78753 7.01364 -0.225824
