1.74487 4.05066 -0.080251
2.06362 8.18065 0.701496
2.06136 2.77925 1.11302
-2.02795 5.47507 0.0978352
-2.16574 5.12734 -0.852113
1.72063 6.26763 3.21562
-1.91638 3.31411 0.67315
2.25754 3.43963 1.55084
2.11691 5.47102 -0.0903923
2.31693 7.3055 0.992798
-2.28434 6.76213 -1.007
2.03755 4.61414 0.624858
1.69094 2.94936 -0.506651
-2.12442 5.11336 -3.68897
-2.28574 5.20921 -2.87479
-0.00626645 3.08356 3.49506
2.26439 6.65127 0.898612
-2.33344 7.81917 -1.13505
-0.0712824 7.93122 3.71309
-0.911769 5.71665 -3.9125
-2.12619 4.3209 -2.13762
-0.519537 5.71567 -3.98371
-1.82561 5.01781 1.30693
2.05152 5.79872 -0.600042
-2.3162 7.14334 -3.71106
0.575191 3.52745 3.5089
-1.96141 4.44907 0.211634
2.35605 5.29932 1.56483
2.33573 4.81881 1.54043
1.85439 3.50659 0.0780975
-2.2381 5.97785 -0.768012
-2.11573 7.39685 0.406858
2.36842 5.45378 0.927153
-2.26078 6.48098 -0.953961
-2.09636 5.70188 0.276707
-2.38063 6.6151 -3.14953
2.38817 4.55406 1.84311
-1.78323 4.05624 1.0555
0.839418 6.64716 3.52854
2.28105 4.41811 1.45369
2.0416 8.25345 0.361051
-1.68837 4.87705 1.6181
2.18815 6.8602 0.602201
-1.97414 5.2384 0.549345
-2.41354 7.04247 -3.39277
-2.02811 3.36518 -0.493495
-2.08774 3.74829 -2.06418
1.27472 2.83522 3.31549
0.661376 3.26156 -3.88464
1.87798 8.18564 0.0280163
-2.27086 6.7601 -0.712385
-2.04067 4.55326 -0.642603
-1.3156 3.17551 3.38641
-2.0434 4.31401 -0.481655
-1.24012 6.41116 -3.91199
-1.15837 4.31852 3.66277
-0.251342 6.57291 -4.08871
-0.931038 3.9931 3.68567
-2.10652 5.92053 0.442511
-2.16408 6.12246 0.132424
1.28703 6.85024 3.38231
-2.03278 3.73882 -1.12271
-0.0598844 5.40025 3.64903
-2.06265 7.95021 0.484614
-2.17238 3.38354 -2.83375
-2.14382 5.48314 -1.0146
-1.9854 5.92604 0.770693
1.70681 5.47187 3.21247
-2.36022 6.14835 -3.3694
2.35492 5.38203 1.23258
1.57595 6.79381 3.27706
2.03242 7.38893 0.0589173
-1.07077 6.13046 -3.92
-2.18142 7.70511 0.201928
0.577869 6.88144 3.57672
-0.431118 5.27188 -3.94666
1.71746 4.51246 -0.223467
-1.7316 3.44686 1.56196
2.14809 8.20291 1.28374
2.29792 5.06697 1.31946
-2.24427 6.49059 -0.654456
2.60898 6.63178 2.62161
-1.81434 3.17196 1.24972
-0.536899 7.27869 -4.08898
1.57732 3.19384 -1.0863
2.31823 3.75529 1.68485
-1.07733 6.47751 3.75508
-2.29094 5.6567 -2.006
-2.19679 6.26986 -0.0970181
-2.04217 4.1019 -0.692178
-0.386555 6.62219 3.73768
-0.254898 6.00025 3.6775
-2.07338 4.30405 -1.16513
-1.94043 3.54699 0.272463
1.45202 5.54094 3.30397
1.72576 4.96368 -0.717936
-1.94988 4.92579 0.52919
-0.800795 3.69516 -3.81434
1.66285 6.44363 -0.759537
2.1193 5.79128 -0.304646
0.738853 5.96404 3.51847
2.18055 6.2298 3.02234
2.42059 4.34505 2.09333
-1.86374 4.42749 -3.70847
-2.35776 6.82259 -2.12227
-1.21727 6.84745 -3.94629
2.27831 8.18236 1.66678
-1.24623 3.96432 3.59786
1.93797 5.62266 -1.16377
-0.952581 7.81417 3.82358
-2.025 3.10219 -0.0613394
2.15906 5.06247 0.375864
-2.07096 2.78784 -2.55184
-1.98323 5.89826 -3.7772
0.953236 3.22921 2.87385
2.10765 3.36039 0.864072
-2.06437 2.868 -1.69466
2.37336 3.17414 2.26504
-0.691294 6.88536 3.72951
2.53975 4.20144 2.70321
1.64328 4.70036 -0.681442
-2.358 7.14739 -1.84389
-0.492414 3.36972 -3.84327
2.11078 4.54497 0.914409
1.87308 2.85696 0.274892
-2.10197 4.04663 -1.91073
1.37259 4.92992 -1.48868
-2.37932 7.03416 -2.85998
-2.02015 4.42913 -0.103418
-2.33381 7.89706 -2.13298
1.08016 6.12178 3.4308
-2.05237 3.921 -1.30475
-1.26072 7.26332 -3.93359
-1.99312 6.74281 0.772695
0.090003 6.28812 -4.13758
-2.30241 7.32601 -0.781594
-0.763567 2.81788 3.54333
2.32434 5.66041 1.45265
-2.28837 5.93767 -1.81896
2.55529 6.07382 2.72335
0.342807 7.514 -4.23692
2.17746 4.66432 3.00175
-2.30605 7.66114 -0.784947
-2.35961 7.16164 -2.11242
0.571899 2.91333 3.47845
2.33208 5.8081 0.396496
-2.24653 5.56797 -2.39419
-1.93261 3.05117 0.500788
1.10975 6.47263 3.42268
1.63271 4.44405 -0.738433
2.53425 4.5466 2.46882
1.68201 4.37393 -0.489313
0.529569 4.63431 -4.0833
0.91614 4.3291 3.41059
2.26728 5.60123 0.192128
0.72403 7.24986 3.53459
1.76399 6.07885 -0.239565
0.0200695 5.14291 -4.06692
1.76649 4.35712 0.000674153
-2.1556 6.92827 0.277788
-0.40018 7.71913 -4.11815
-2.17616 7.23633 0.210114
-2.30306 3.34016 -3.64461
-0.474192 2.93177 3.63972
2.14897 7.9847 0.406609
-2.27526 7.51721 -0.536333
0.32434 5.14012 -4.09455
2.0894 3.69364 0.967794
-1.58615 3.4509 -3.67937
1.82734 6.3285 -0.0829642
-2.27413 6.70456 -1.29511
-2.04485 7.29165 0.731389
0.21236 3.3401 -3.95114
-2.18867 4.50804 -2.43656
1.97905 6.58757 3.12487
1.79703 7.72401 -0.469511
0.0967685 3.88276 -0.548796
-2.16607 8.11345 -1.77898
2.57249 5.87178 2.54915
-2.13668 4.70772 -1.98084
-2.31998 7.27655 -1.48367
-0.336366 3.16211 3.28192
1.54781 5.28136 -1.89634
-2.15246 5.26042 -0.438921
-2.32943 6.12093 -2.98522
-0.734419 3.65493 3.64232
2.61322 6.29074 2.32676
-1.78619 4.37267 1.02521
2.61875 6.93235 2.72174
1.79445 6.92603 -0.317206
-2.01682 3.60151 -0.60356
0.920562 3.59202 3.44418
0.326688 3.96239 -1.85272
1.68844 4.09606 -0.469665
2.41466 5.00318 1.80297
1.7129 4.85448 -0.462498
-0.869104 4.39668 3.63932
1.70353 3.19218 -0.566693
2.28228 5.36809 0.373635
1.9579 4.06175 3.11243
0.29429 3.32618 3.51671
-0.733546 5.28962 3.71258
-0.590796 4.68656 -3.89072
1.90557 3.2209 0.214583
-0.58092 7.96995 -4.10603
-2.27184 5.88937 -1.47497
1.69287 4.14205 3.18844
2.42558 3.61111 2.31272
-1.65549 5.65633 -3.80237
2.17592 4.32592 1.17024
-2.19384 5.26174 -2.60197
0.103648 4.83233 -4.05909
-0.407915 5.34747 3.67564
-0.867436 7.11976 3.72675
2.25855 7.48679 0.684082
2.41247 7.50089 1.41655
-1.31687 5.358 3.71513
-2.23423 6.89837 -0.425661
-0.035423 7.67055 -4.21278
-0.119352 3.80387 3.61476
0.0941216 6.11425 3.68368
2.37611 5.77658 1.12952
2.52622 5.6692 2.16145
-1.54724 4.13467 -3.7345
1.49649 4.92771 -1.20693
0.41444 6.18023 3.59835
-2.24791 4.98831 -1.88849
2.10545 6.23671 0.453846
-0.0846809 6.70615 3.66671
-1.75855 6.39956 -3.79638
2.22997 2.79634 2.86873
-2.12477 4.92858 -1.05926
-2.03239 4.04357 -1.01278
1.24835 3.66286 3.35403
1.84405 7.59955 -0.13963
0.328329 4.30212 3.56571
-2.15243 5.03732 -0.580605
-2.21747 7.2633 -0.051173
-1.75004 3.87355 1.31789
-2.07564 4.59137 -0.957166
2.23044 4.71149 1.20006
-2.11411 5.48673 -0.274058
2.03018 3.93915 0.724405
2.4652 6.45635 2.8628
1.78383 4.94661 -0.226089
-0.158427 4.48481 3.64527
-1.00833 5.18182 -3.89571
-1.87606 4.45965 0.673888
2.23164 6.0199 0.643243
-2.19085 5.68372 -0.78706
2.30745 5.89126 2.95681
1.42707 4.38995 -1.29645
2.31921 5.19067 0.667337
0.980882 2.94792 3.31212
-1.29384 5.38418 -3.86458
2.35673 4.16669 1.78347
-2.34204 7.78221 -1.53508
1.99985 5.235 3.08343
-2.23051 7.09053 -0.241416
-2.06419 3.53053 -1.80669
1.80682 7.4054 -0.391232
1.97105 3.79213 0.436365
0.250374 6.84926 3.63545
2.52324 6.92004 1.93696
2.46921 4.51633 2.83045
1.67401 3.03812 -0.835847
-2.20687 3.82147 -3.58318
-2.32975 6.7618 -1.84273
2.10204 3.38314 3.01949
2.22484 5.42898 2.97575
-1.92438 4.07658 0.357098
-2.01614 3.84822 -0.762968
1.0041 8.0783 3.47941
0.271427 5.89417 3.58971
-2.12771 4.38177 -1.75223
-1.92263 5.72967 0.940578
1.69074 7.8403 -0.831489
2.43972 2.89733 2.46757
-2.12009 2.9944 -2.94548
2.52197 6.59633 1.99432
-0.767452 8.26783 3.76382
0.546659 5.72878 -4.12969
1.46524 6.49528 -1.19918
1.59047 4.67274 -0.918637
-2.33631 6.48214 -2.30562
1.56796 3.75383 3.23112
1.84226 5.09385 -0.454903
-2.00961 2.85278 -0.553686
-2.29816 7.05267 -0.936404
-2.24097 6.37532 -0.358357
2.53335 3.76944 2.6656
-2.26699 4.65422 -2.96015
-2.15824 6.38952 0.164741
2.38873 3.87719 1.97681
1.51282 7.13732 3.28993
-2.01923 2.78742 -1.3076
-2.11384 3.18054 -2.04982
0.311321 7.79948 3.63321
-0.557129 7.17769 3.73977
-0.299537 6.94674 3.71579
-2.29742 7.04071 -0.659306
0.187063 3.65667 3.55155
-2.0063 3.48882 -0.0122374
-1.9849 4.78062 0.279553
1.0964 4.59055 3.38759
2.10055 6.75901 0.283838
-0.501348 6.27879 3.70491
-1.88781 6.59903 1.19603
2.02519 5.63147 3.08072
-2.21467 5.76353 -0.281383
-2.00207 2.82468 -0.903323
-0.357958 4.75303 3.65119
1.87823 7.57209 3.12732
1.7778 3.28651 3.12153
1.49187 4.18175 -1.144
2.14321 5.22925 0.120416
1.75851 3.49841 -0.21138
-2.07651 6.34005 0.499936
-0.215426 8.10059 -4.18027
2.4714 4.01949 2.37355
-1.94298 2.87157 0.0769891
2.31914 6.40063 1.1768
-2.07914 4.1765 -1.51195
2.72059 7.74002 2.57651
-1.31969 5.79342 -3.8658
-0.188805 2.79185 3.54519
-1.94441 3.24966 -3.61915
-1.9143 5.0482 0.755899
-0.0223747 7.58309 3.67794
1.56464 3.7238 -0.986122
0.511568 7.02818 -4.21823
-2.3309 6.45448 -1.901
2.5282 6.01759 2.14575
-2.06455 3.08838 -1.00926
-2.05046 7.60838 0.713781
0.59019 8.22006 3.56794
-2.00124 3.27665 0.139384
2.63964 6.89564 2.40043
-2.06625 2.8441 -2.15639
1.21588 4.33739 3.35862
1.51164 3.46541 3.26725
1.72334 6.1363 -0.614677
1.76875 7.07213 -0.601793
1.97572 2.87898 0.642078
2.25886 6.69978 2.99281
2.1801 7.63378 0.330092
2.22753 7.14135 0.62515
-0.470812 4.15121 -4.14085
-1.91735 7.99646 0.852573
1.98632 4.07609 0.450718
2.14116 7.05009 0.282231
1.91155 6.66776 0.00499641
-0.0277943 4.20121 3.5967
1.16627 3.29198 3.38057
0.298284 7.90204 -4.22698
1.62431 8.16399 -0.313561
-1.85154 5.75387 1.28086
1.93358 5.17398 -0.136139
-0.015312 5.74551 3.67126
0.480672 3.8333 3.51479
-1.74212 4.21032 1.27258
1.34996 5.18653 3.34685
0.651968 5.41764 3.54653
1.45557 3.0742 3.15143
-0.878589 7.53997 -4.03806
1.94148 6.98422 0.00922131
2.29345 2.79216 2.10909
0.699875 5.41246 -4.10589
2.20282 6.33597 0.803514
-2.19523 6.79876 -0.152142
-1.00605 3.37554 3.64934
2.07756 4.91099 0.617948
-2.002 3.89999 -0.154547
-0.328608 6.24064 -4.07183
-1.96019 3.96994 0.123977
-0.15915 6.38237 3.69837
0.729967 3.93173 -3.2181
2.42427 3.55491 2.91298
-2.03281 4.8957 0.0186521
-2.03973 3.3249 -0.221158
-0.157417 5.85045 -4.05629
-2.29349 4.91094 -3.37687
-2.09198 7.13326 0.452321
2.0398 6.42127 0.211059
-2.00774 4.63608 0.0525191
1.76532 6.3681 -0.416402
-1.08316 2.83887 -3.70338
-2.31424 6.22354 -1.60705
1.08874 4.97803 3.39457
-0.131552 7.37175 -4.15775
-2.26607 4.58485 -3.38997
-0.326288 4.0838 3.66825
-2.03764 4.53713 -0.345442
-2.17226 5.18577 -1.56529
-1.87857 2.99586 0.733847
-0.722414 3.2417 3.59577
0.362939 7.14292 3.6086
-2.36393 7.26006 -2.4928
-1.90396 3.80657 0.355909
-0.599313 7.91411 3.79722
2.13394 4.00115 1.05557
-0.196249 3.54153 -3.91057
1.7955 6.62284 -0.271968
-1.88638 4.74462 0.700178
-2.03035 6.15374 0.69695
0.486529 6.56319 -4.21175
-2.18576 6.00229 -0.14784
-2.2062 7.49298 0.0698445
2.2582 7.77279 0.670779
-1.11144 3.53702 -3.7528
-2.08721 6.76421 0.482629
0.610472 4.15591 3.51133
-0.0671575 8.34967 3.68651
-1.85344 4.07485 -3.68844
-0.744316 5.42349 -3.94805
1.83115 7.96288 -0.176449
1.42615 4.79262 3.30508
-2.0965 5.02652 -0.260353
1.68825 4.71202 3.20608
1.5371 4.47397 3.23905
-2.20317 4.77737 -3.71358
-2.21987 5.86284 -0.523327
2.55213 8.12804 2.62644
-2.14619 3.54809 -2.43181
-2.38696 7.57043 -2.17234
-2.05135 4.32849 -0.836838
-1.06411 6.90181 3.76859
-1.54665 5.94476 -3.85988
0.363965 3.01138 -3.94819
1.48832 4.6748 -1.16562
2.46648 6.28697 1.76594
0.477437 4.10938 -4.00154
2.27617 6.99624 0.946659
-1.92648 4.61749 0.457922
2.09899 5.54906 -0.367353
-0.687849 6.09031 -4.00342
1.8221 7.2025 -0.187484
1.59913 6.89134 -0.989637
-2.04311 3.32383 -0.802909
2.27955 6.06663 1.04475
-1.64227 7.31741 -3.87427
-1.82049 5.48098 1.00911
2.3394 5.13256 0.997311
-2.16962 4.21009 -3.64419
-2.1692 3.83971 -2.78388
-2.29543 6.09589 -1.27516
2.44378 6.9319 1.61178
-2.35 6.86225 -2.53078
-1.06503 4.37874 -3.89601
2.14535 4.86291 0.914292
-2.31893 6.17983 -2.48304
0.26847 3.77343 -3.99178
-1.77871 4.77614 1.17028
-1.95168 3.30486 0.406776
-1.31704 7.78128 -3.97482
2.34992 6.79316 1.22346
2.28193 4.08584 1.41935
-2.31859 6.94207 -1.5406
1.37305 4.66429 -1.43123
-0.627722 4.99504 -3.93808
-2.14278 8.15862 -0.984308
2.1167 3.09195 1.1386
2.04493 7.85588 0.0787861
-1.78117 5.37932 1.27517
-0.400733 3.11551 -3.38928
-1.75442 4.52769 1.23805
-2.14612 5.3895 -1.86604
1.34534 4.03405 3.29602
-1.91846 5.54484 0.714983
-0.479064 4.40279 3.6465
2.52 5.22651 2.116
-2.11941 6.70799 -3.84052
1.70498 3.91557 -0.309163
-2.13554 6.55194 0.355538
-0.796535 7.08055 -4.01093
-2.05908 4.79447 -0.479067
-2.10866 5.42906 -1.40048
2.40005 5.85741 1.69163
-2.19771 8.00913 -0.194312
-2.38838 7.44947 -2.83674
0.598623 7.52224 3.58775
0.944091 7.00155 3.4719
1.72362 3.43696 -0.469168
-2.01297 3.61214 -0.260865
0.180562 6.43932 3.65846
1.5875 4.22736 -0.919397
-2.12308 5.36594 -0.722616
2.65256 7.4527 2.21321
0.145056 5.91469 -4.11346
-1.62905 2.83967 -3.64129
2.18307 3.72586 1.28608
-1.9764 4.21855 0.0934282
2.30475 7.21059 2.93559
1.76404 6.71552 -0.596724
2.16948 3.42768 1.17426
0.801404 3.30292 3.40569
0.790329 4.74634 3.47525
-0.989145 7.48638 3.76773
-1.10101 3.93613 -3.74461
-2.21709 6.28385 -3.74385
1.64122 4.16408 -0.694249
-2.14469 7.97695 0.168057
-2.33718 5.43231 -3.4413
1.79602 5.4415 -1.39618
-2.23918 6.228 -0.651809
-1.81951 2.91538 1.06213
-2.25778 6.19751 -0.970987
-2.27624 5.61198 -1.6619
2.22709 4.99671 2.94576
-1.31208 5.76243 3.69898
2.35249 7.67606 1.03899
-1.8492 3.573 0.817049
-2.32842 7.27803 -1.15467
-1.67173 4.11906 1.5694
-2.26341 4.89611 -2.66634
-0.694777 5.61955 3.72665
0.15161 4.39318 -3.98391
2.02437 3.61709 0.654281
1.94946 3.0762 0.4422
1.80736 3.65042 3.1578
0.703308 3.45481 -3.09061
-0.542585 6.89261 -4.06591
-1.3544 3.47642 3.61919
-1.44897 4.61454 -3.76732
-1.85113 4.87784 0.947836
1.92098 5.99136 3.14419
2.46641 3.37117 2.58375
-2.02167 5.74061 0.585936
1.67109 3.85416 -0.60558
-2.29245 6.99944 -1.24514
-1.31268 3.17354 -3.73514
-2.04856 2.80652 -3.37947
-2.03235 4.75993 -0.206065
-2.20383 8.00312 -2.54762
-1.84171 4.24732 0.823148
1.43601 3.74538 -1.34606
-1.98102 5.51032 0.434786
0.201339 4.0079 3.52717
-0.941087 6.54484 -3.97121
-1.77516 3.58257 1.20483
-2.39095 7.771 -1.92892
1.88916 4.09658 0.183872
-2.26265 5.8661 -1.05152
-0.583848 5.94023 3.72191
-2.03498 6.51286 0.658129
0.942825 7.52377 3.50147
-1.89561 3.57946 -3.71452
-2.02866 4.17892 -0.182241
0.804712 2.88629 -3.88065
-0.391192 3.45812 3.60396
-0.205915 3.1721 -3.8617
-2.18535 4.05557 -2.37215
-0.900666 3.06433 -3.29472
0.752204 6.34994 3.53671
-2.31399 5.73299 -3.03008
2.49349 5.62869 2.79997
-0.609129 4.99598 3.65541
-2.42218 7.41564 -3.23271
-1.29653 4.98377 3.69874
1.84566 4.64241 0.134486
1.88205 3.7994 0.169993
1.56228 8.02298 3.28418
0.739443 7.79388 3.56708
-2.24957 7.70899 -0.294057
2.64988 7.40993 2.59589
-2.35866 6.60991 -3.50429
-2.09898 4.82164 -0.780161
-2.16912 8.26505 -0.693217
-2.17012 8.04006 -1.31933
2.03271 5.78629 -0.912493
0.260985 5.50766 -4.10372
-1.01446 4.71275 -3.84767
0.0978105 5.12254 3.58876
1.7359 4.73606 -0.122468
-2.15912 5.88015 0.100888
-0.623562 4.10726 3.65543
-2.04563 3.10423 -0.384727
-2.32889 5.82336 -2.75872
-2.4359 7.62732 -2.54215
-2.3058 6.53895 -1.582
-2.2226 4.91863 -2.22084
-2.05958 3.55741 -1.45369
2.4913 5.23634 2.7674
1.69375 2.86499 3.12867
0.856347 5.6925 3.49867
-2.1737 5.56478 -0.53194
-2.22233 6.63433 -0.394241
2.31203 7.94492 0.958182
-2.05451 5.13243 0.0686979
-2.12646 7.63526 0.419179
-2.09096 4.68119 -1.22592
-2.40901 7.9566 -3.4006
2.44316 5.56161 1.85002
1.59819 5.82108 3.25732
-2.06322 3.37404 -1.16611
-1.08393 3.74787 3.6659
1.61692 4.9163 -0.964861
2.42799 7.70822 2.87162
0.652625 5.00006 3.51643
-2.3056 7.52803 -1.02143
0.764517 3.88924 3.47785
2.41575 7.19663 1.29943
1.61609 6.18324 -0.968457
-2.17001 8.0705 -0.494462
2.39863 5.78026 0.811317
-2.27164 4.10195 -3.13679
-1.97538 8.19817 -0.0375976
-2.0149 5.04105 0.319626
1.74376 3.18833 -0.314674
1.8965 5.23515 -0.677604
-1.92097 6.01759 1.0518
-2.30084 5.93316 -2.26689
1.99325 4.74287 0.364924
-2.13678 4.73947 -1.64696
1.75539 2.99398 0.0357279
1.63214 5.09533 3.22906
-0.702912 4.67581 3.69088
-0.0672484 4.14199 -3.94946
2.52161 4.81271 2.74756
-1.82296 3.96454 0.808832
-2.21708 6.11341 -0.39329
-1.95716 3.72952 0.0605276
-1.94132 6.32586 0.956203
2.13635 3.77289 2.99966
0.624872 3.78467 -3.97102
-2.28686 6.39406 -1.26618
-1.90995 5.31238 0.803729
0.197293 7.09048 -4.16703
-0.133313 5.56866 -4.03425
0.436194 3.16997 3.13776
1.67688 3.33609 -0.782589
2.02481 4.34393 0.539791
1.61471 5.17097 -1.49903
2.3327 3.08375 1.82505
-1.41473 5.00674 -3.78747
-1.20518 2.79927 3.56351
1.54919 4.44716 -1.04065
-2.11198 4.45736 -1.44089
-2.14013 5.65913 -0.0414926
-1.03546 5.16214 3.72192
1.40956 6.50014 3.35266
-2.1643 5.22357 -1.17714
2.17196 6.52249 0.542538
-2.22512 4.35226 -2.81523
2.29751 3.11675 2.83143
2.14082 2.78662 1.57288
0.169219 4.55581 3.56248
-1.01104 3.10275 3.589
-2.10972 6.1459 0.379001
0.228797 7.42079 3.62958
-2.07656 3.09337 -1.32921
1.93084 4.94974 0.13303
1.74297 3.75307 -0.104097
1.21168 5.84754 3.39597
-2.19129 6.99406 0.0298263
-1.82292 4.60101 0.915489
2.64233 7.81789 2.2302
2.15854 5.81258 -0.00747838
-0.349015 8.13357 3.77318
-2.23174 7.45107 -0.238789
-0.742534 4.3297 -3.88733
0.467661 6.22932 -4.18527
1.77278 5.15213 -0.921377
-2.0829 5.56622 -3.74855
1.60063 3.47934 -0.970521
-1.97943 3.04408 0.256228
-0.953997 5.84192 3.7474
2.07449 4.23429 0.806616
0.508528 6.56881 3.58319
1.98566 5.31439 -0.381365
-2.0336 3.08686 -0.670931
2.3377 5.53316 0.606116
0.691632 3.73025 -3.04228
2.40905 6.52271 1.55662
1.3791 6.09065 3.34515
-2.01659 3.80739 -0.443936
-0.333967 5.68452 3.70549
1.25153 4.86365 -1.81382
1.949 5.43879 -0.92987
2.03354 5.52249 -0.648961
-0.0935789 3.43832 3.58727
-2.31843 7.56684 -3.7384
-2.03594 5.30003 0.285867
2.52461 5.01728 2.43297
1.52684 3.49603 -1.25337
-1.71405 6.94307 -3.83463
2.05921 3.07107 0.845625
1.77062 3.25742 -0.0796774
0.236481 8.07089 3.65913
1.17947 7.21914 3.40925
-1.87791 5.15643 1.03643
-1.80127 3.76897 0.99381
-2.31771 5.72233 -3.58561
1.19243 7.8696 3.42996
1.83863 5.79801 -1.38275
-0.82601 6.21844 3.76575
0.367857 5.19351 3.56131
0.0543095 2.75942 -3.83733
-1.02178 5.54527 3.7307
-1.98523 2.8911 -0.233156
0.383962 4.82164 3.54344
2.14273 7.37988 0.360651
0.0115105 3.27896 3.02974
-2.23819 7.75314 -0.048357
1.70865 4.24574 -0.257369
2.02501 3.05733 3.00047
2.21171 3.09014 1.47043
1.97257 4.91698 3.07105
-2.25526 5.66253 -1.24925
1.98825 7.11704 3.10874
0.821061 4.38953 -4.02224
-0.927035 4.00856 -4.02865
2.03498 6.08252 0.17779
1.51435 3.9321 -1.13003
1.50773 7.51761 3.3235
-0.400747 3.86726 -3.88299
-2.28529 7.81719 -0.537885
2.54575 5.3681 2.49591
0.258788 5.48513 3.59458
-2.26628 7.25114 -0.463648
-0.934605 3.18704 -3.74597
-1.30383 3.06345 -3.27021
-2.05705 3.79694 -1.66074
-0.192638 6.94679 -4.11137
-1.9934 7.0496 0.930929
1.37725 4.056 -1.41534
1.68847 2.95196 -0.231672
0.930362 5.21501 3.45836
-2.36003 7.44913 -1.77997
-0.257536 5.07085 3.67511
2.02337 3.31756 0.560658
0.679356 4.8943 -4.01418
2.46456 7.93442 1.36018
-1.84502 3.38925 1.03773
2.36162 3.96191 2.94093
-0.649246 7.5412 3.7716
-2.12548 8.30848 -0.353456
-2.04697 6.98112 0.659153
2.50201 7.37604 1.73136
-0.555816 6.44241 -4.04566
-1.52694 3.82152 -3.72899
1.11465 5.4365 3.43472
-2.13287 3.16909 -2.39566
2.46829 4.77989 2.06796
-0.195148 4.48089 -3.96889
-2.03965 4.05471 -0.420619
-2.02614 3.57675 -0.891694
2.5718 7.7047 1.80109
-0.451381 3.7692 3.66614
2.38202 3.46585 1.91389
-0.261336 7.35906 3.74833
-2.24489 3.69278 -3.14011
-2.31982 6.13837 -2.08716
0.138349 6.71055 -4.14865
-1.87294 3.18414 0.903407
-2.33465 7.56596 -1.34834
1.95845 4.39681 0.276994
-1.72353 5.19007 -3.80193
-2.25871 7.9523 -0.821985
1.96809 3.50528 0.344885
-0.954482 4.84729 3.72603
-1.88023 3.56848 0.538926
2.6722 8.30664 2.22978
-1.20258 4.59051 3.6758
1.68469 5.21679 -1.18646
-0.00798935 4.81088 3.62897
-0.268623 4.91458 -3.99331
-2.16055 3.26114 -3.17287
1.71885 3.68184 -0.412902
1.09069 4.0004 3.39778
1.88691 4.41676 3.10371
-2.19763 5.29048 -2.17735
-1.15692 6.15647 3.74521
-0.580752 2.78134 -3.82283
-0.770956 6.51268 3.76059
0.593975 4.54749 3.51554
0.294876 2.82788 3.47263
-0.37507 7.70321 3.76839
-2.20759 6.53612 -0.0895744
1.73844 7.41332 -0.693589
-2.09556 5.27892 -0.120859
-2.19115 4.95057 -1.38165
0.0258292 7.14255 3.66826
1.69137 4.61901 -0.438443
-2.17688 6.69872 0.133055
1.59896 3.93841 -0.842175
-1.91015 4.34062 0.427601
1.65102 3.61567 -0.707486
-2.33312 6.56133 -2.67923
-1.85748 3.82388 0.60753
0.574185 5.71132 3.54157
-1.71309 4.92405 -3.74603
-2.08373 3.20228 -1.60566
2.18791 4.26208 2.97079
2.34013 6.11711 1.36653
-1.87396 4.12865 0.592062
