110.749 -266.845 1150.07
5.66511 -86.8688 386.937
2.07923 -73.8848 385.497
121.159 -183.09 1010.13
27.2762 -101.124 1012.09
-71.9587 -142.247 1087.86
46.3929 17.2975 419.533
-34.6727 12.7202 456.322
72.2277 12.3551 1009.13
4.30478 54.7811 426.058
2.98848 56.9315 427.974
5.4316 -18.5592 1051.02
-3.88828 -8.09638 1055.64
51.3741 75.1206 411.537
29.5914 5.29031 419.632
2.42321 -77.7036 389.607
47.4422 9.91831 418.69
107.895 -183.368 1002.73
148.378 -182.117 1013.96
48.6153 -25.0024 1002.55
44.5527 -13.8039 1006.76
244.333 -213.794 1066.32
30.6956 16.0848 423.143
194.441 -156.744 1040.59
57.2609 21.3242 403.594
158.224 -192.176 1006.75
13.9136 -64.0814 371.054
5.90667 -64.526 378.698
7.13894 -86.4707 382.59
28.0191 -58.1168 358.542
11.6792 -45.2819 380.982
18.0853 -49.7411 371.065
42.4103 4.39527 417.77
18.4334 -48.7332 371.011
-14.3947 -6.55694 434.79
11.4789 11.9578 422.267
43.4643 32.7315 423.838
-43.5025 18.2515 470.026
-129.059 -2.66805 1136.56
19.8462 50.4403 414.415
42.2436 72.9034 423.629
15.027 -70.5318 372.692
513.067 -99.7838 969.672
12.9236 98.7634 425.094
-13.9913 3.19056 436.646
-18.0282 7.48397 439.413
41.4002 88.9011 417.383
0.261359 9.57655 428.316
25.7085 -73.9893 364.847
-26.4598 10.1107 443.097
445.631 -146.361 1007.43
78.7726 -155.318 987.649
10.2227 -72.8033 377.638
-35.55 17.6572 452.015
8.2587 -70.4136 378.339
21.8089 -91.0585 376.302
12.6476 -58.1601 374.455
12.5097 -55.4715 375.43
13.3852 -54.8473 375.363
21.4353 -19.6245 422.789
-6.43675 -15.0443 418.916
-17.5581 -5.41888 435.544
-18.6435 -0.37816 436.637
6.41519 -23.4265 422.271
28.83 0.5375 419.475
51.298 -20.7592 405.848
28.1668 1.5503 419.931
38.8186 -19.1558 405.41
29.5039 3.31717 419.762
22.4762 -19.2391 421.742
24.8251 4.61372 421.144
5.0161 -17.1655 418.822
55.3321 12.4568 406.955
-18.1312 4.2717 437.3
25.2939 9.25898 423.201
53.4467 14.4356 407.509
104.987 24.8065 443.297
11.4932 20.4009 425.991
2.82648 -73.4443 385.096
-41.0387 23.5695 464.687
63.3846 37.052 427.968
16.1876 -71.8411 370.992
39.7861 36.1609 424.933
31.0113 35.5966 425.024
48.7671 38.5456 425.595
-39.9981 31.0059 474.917
46.033 40.9047 426.135
11.4254 37.6881 419.675
-21.9417 38.6968 459.999
8.18658 -66.2637 376.434
16.0183 -42.4134 378.578
22.5449 -56.8018 364.197
11.7598 -40.803 383.628
13.8422 -58.4752 373.396
5.4103 -39.7654 394.468
-12.8295 -20.7206 427.469
4.56028 -58.3181 382.727
25.3778 -10.2405 418.123
0.515285 -31.3884 423.667
11.274 -8.40908 418.07
37.3954 3.05337 416.58
4.96728 -55.9228 383.514
-34.8779 -3.63909 457.911
4.56725 -55.8958 384.169
38.3093 -67.0493 353.402
40.4646 86.0209 417.514
11.2351 15.1049 423.495
28.5433 36.2308 424.682
17.5787 -48.1942 372.371
31.4027 -93.9818 374.261
7.09502 -50.4673 383.375
108.708 -279.306 1167.18
-2.0634 -54.6204 412.367
14.6484 -85.7786 376.563
13.4286 -46.5371 379.004
44.2993 -75.1766 358.069
-1.42038 -52.9199 413.604
31.388 -58.5675 357.808
7.22884 -40.3345 391.007
74.0931 -26.4897 409.95
-23.3922 -2.82694 444.844
24.4739 -21.0135 419.882
-0.211427 -57.9766 390.829
31.5626 -0.376881 417.991
-37.3222 2.01796 462.131
58.0121 3.16078 409.929
29.0888 16.3873 422.815
16.7466 -0.438254 419.393
-36.8604 3.95853 459.824
-16.4966 -3.25301 435.518
-36.2196 7.41248 458.04
-24.6676 -1.16868 441.266
1.90379 -30.0022 423.3
8.12969 3.62299 421.507
10.7373 5.09929 419.77
-24.9987 1.89314 440.914
56.2909 12.341 405.556
-41.7658 9.35189 460.838
53.5395 24.8625 422.377
13.9581 66.186 425.24
9.75876 74.5744 426.418
32.3791 98.1181 415.65
15.4854 -68.9941 370.53
22.4901 -84.1753 373.25
34.6639 -64.3685 353.899
11.2991 -83.4877 375.718
2.12887 -71.8817 385.831
20.6847 -47.6615 369.865
2.62672 -66.8983 385.184
60.5146 -44.452 394.612
3.22601 -66.5189 384.335
-5.44944 -105.01 1049.1
24.7271 -59.5107 361.574
-13.0154 -35.5534 430.679
5.13444 -63.0162 379.863
-2.35108 -5.19111 421.086
19.7823 34.4996 422.489
46.1358 0.860508 415.73
44.5896 2.4001 416.628
-3.55465 -2.28614 422.37
-17.4767 12.1994 442.9
48.1308 19.6296 420.738
-39.602 19.544 461.097
8.98121 -49.8821 381.219
61.9636 32.8264 427.905
17.4575 -47.4236 372.398
32.191 -60.1368 356.663
5.07729 -63.9208 379.916
57.9461 76.283 413.955
27.1506 -54.0305 360.037
0.835116 -80.8785 393.826
7.86966 -75.1521 379.088
-5.25249 -7.50953 419.726
-128.587 -160.931 1119.18
33.948 -38.1972 385.064
-22.6153 -115.773 1051.81
-36.0942 19.6556 461.187
-48.6301 -115.142 1068.48
4.05284 69.8787 432.916
20.6757 -23.9157 425.709
40.2106 81.9843 415.786
-19.0208 -1.77048 439.446
13.1295 -55.3605 374.614
-30.5915 -11.4071 1074.96
11.1893 -50.1278 379.159
-20.7887 10.357 440.416
8.23464 -39.936 388.778
29.4837 18.2875 423.566
9.30917 -38.9746 390.093
29.892 -61.6593 358.242
5.76985 -125.619 1037.46
-29.1773 20.023 449.983
51.88 31.7004 426.958
25.2728 28.5296 425.342
-20.7445 7.87259 443.43
14.5576 32.9555 423.491
43.2941 81.1662 418.053
36.2713 38.9336 425.804
8.43102 62.9421 425.871
-37.705 22.3824 466.294
69.9971 73.6647 413.347
2.95186 48.113 425.301
2.43989 71.9128 432.952
-4.36636 49.2421 431.833
37.203 15.5675 419.984
35.2305 -83.0539 370.358
36.0354 32.7419 424.404
-121.979 -238.178 1100.92
32.1966 -57.6245 357.546
24.4651 -57.6231 361.523
28.8685 -69.218 360.806
4.77045 -51.8636 386.519
-7.96216 -14.909 420.578
-21.8839 -131.844 1050.84
6.24011 1.83366 423.168
9.03183 3.22466 420.909
9.33878 -56.1925 377.174
23.9813 17.3934 422.258
-41.8877 19.2236 470.361
60.8285 35.4787 426.91
42.6111 -89.6866 374.036
63.9503 39.0405 427.405
46.2569 -87.5807 373.229
-3.53343 56.0464 430.251
13.4421 41.9227 417.532
11.0131 -68.3747 375.339
-12.0141 18.8836 443.38
-106.458 -199.711 1102.09
61.6757 73.3546 407.441
-20.5533 2.77153 440.75
-4.59273 -158.246 1042.32
-23.2811 2.4324 441.839
-23.5992 -154.706 1052.92
9.485 -46.1771 383.603
-133.364 -142.783 1127.88
3.6361 -66.9708 382.131
-76.2922 -129.582 1089.65
111.131 -144.474 1022.4
46.5803 -36.4826 387.787
210.389 -119.382 1041.59
-132.311 -117.642 1121.98
6.43741 -36.1939 397.327
-81.4511 -111.267 1093.25
82.6184 -27.5205 385.151
-74.4757 -106.512 1089.87
6.96036 -32.2073 422.335
-111.281 -26.2046 1129.91
76.583 -16.4385 401.739
-12.3881 8.81959 437.494
67.637 34.1241 427.776
-12.8325 -9.48331 435.428
11.9843 43.3069 418.599
-10.8868 61.7099 442.288
42.0024 15.2045 420.018
48.3155 83.321 412.749
34.5116 -71.2007 357.031
70.8784 -314.41 1223.76
22.2701 -66.8865 364.811
113.197 18.119 440.128
207.34 -182.942 1036.07
21.9797 -65.2632 365.564
8.5768 -130.516 1042.67
101.655 -176.739 1002.61
28.6304 -64.0271 359.434
-28.817 -118.209 1061.78
179.919 -173.106 1034.94
12.7234 -64.6771 372.625
34.4994 -10.5992 415.77
-3.62433 -63.94 414.805
21.9194 -63.1043 366.126
-149.043 58.965 1196.65
3.20338 -57.9618 385.144
26.1456 -61.7643 361.293
6.25476 77.2414 428.944
4.07483 -55.1311 385.672
17.368 -61.1544 370.382
-57.1677 -332.454 1192.09
13.6918 -111.055 1036.95
8.37492 -61.0482 376.304
100.017 -315.347 1237.24
15.1008 -104.948 1035.5
23.7475 -58.7483 362.669
35.3875 -280.848 1149.89
7.24016 -101.068 1041.78
23.9629 -58.2347 363.045
-2.44547 -115.575 1044.47
-1.50937 -99.8628 1045.77
12.3599 -59.5245 373.885
-63.0687 -109.816 1079.26
38.544 -3.97893 416.045
16.9411 -57.6141 372.047
-107.595 -85.0183 1125.14
2.32227 -8.23142 421.903
-2.22453 -58.3697 404.276
88.6761 -332.63 1223.42
60.1816 -122.871 989.732
8.22435 -227.043 1031.9
4.23591 -34.1123 424.846
35.5164 70.6856 421.475
43.6912 33.6445 422.111
5.22437 -18.4263 419.393
-13.5713 2.76597 1056.79
-73.0301 127.563 1280.67
4.25678 49.169 424.213
32.1292 -96.7068 375.581
38.8579 90.1145 421.401
31.8774 -95.9383 375.183
7.30576 -86.8367 383.405
24.0637 -91.2318 374.799
31.8662 -78.8617 367.801
23.8863 -89.3815 374.386
4.81726 -69.6727 382.958
30.2537 -88.0135 372.204
117.199 -178.565 1009.71
19.912 -86.8722 374.986
80.9323 -172.959 985.687
26.016 -86.0427 373.133
61.7372 -166.344 991.117
34.9598 -84.7853 371.325
5.83296 -55.1139 382.341
34.0268 -80.7436 369.106
88.0828 -148.745 995.347
53.9344 1.37942 416.351
22.783 -77.7453 372.114
9.7188 -1.3688 419.372
50.3395 -70.9737 354.655
-31.5658 -2.58653 454.513
34.8279 -71.1126 357.793
-35.0027 5.77056 457.315
36.0116 -70.7744 356.533
32.7297 -9.13054 1022.71
13.6205 -72.6884 376.246
-10.8984 -12.0207 1054.94
-12.5085 3.46606 433.589
23.2091 -70.3502 365.497
89.0978 10.1685 1022.92
-3.79895 3.44033 425.953
22.1434 -69.149 365.003
52.1342 8.83564 1012.1
0.24879 4.1372 424.847
3.05973 -71.7701 383.764
15.2611 33.1937 422.791
28.3224 4.16949 419.238
21.0011 -68.1117 366.029
-36.2046 23.6893 466.151
57.3183 4.70103 410.294
8.94572 -70.2483 378.471
29.7555 -64.9327 359.088
-0.270426 -72.1161 388.824
21.3378 -65.8143 366.182
22.8562 -62.6331 364.957
20.6109 -65.1721 367.058
-0.35287 -61.4185 390.497
8.56588 -66.0277 375.508
1.25722 -61.2043 387.699
5.75469 -1.10967 421.339
-37.3819 5.21486 459.934
10.6797 -61.6966 374.463
10.3067 -60.5135 374.876
3.39808 -102.909 1042.62
46.0433 78.2627 419.861
-39.5838 6.11701 457.335
-35.0515 16.5761 455.5
21.8206 -82.8259 373.177
46.0241 -75.6234 357.962
55.8667 -71.0254 356.378
60.8556 -70.5375 359.478
19.5085 48.2972 414.953
-5.36379 -6.64169 419.979
-40.945 11.5172 459.927
29.2898 -68.0988 358.095
27.7765 0.835951 420.115
36.0783 -68.5756 356.141
7.97255 56.5634 423.362
44.2991 -4.28729 415.957
24.0141 38.0966 424.029
-5.3718 -71.0368 400.014
16.6354 -77.3055 373.881
43.0684 -3.79961 416.75
5.68518 60.7518 426.422
17.5621 -55.7132 371.588
7.36951 80.6514 425.913
34.8079 -69.6881 356.248
106.511 -151.475 999.554
43.549 -3.17086 415.679
20.2044 -52.8666 367.245
21.7951 -86.6585 374.116
10.4855 23.2091 428.982
19.2212 -47.9655 370.601
2.3638 60.0219 428.576
54.2355 -43.5086 390.024
57.3757 -42.8808 391.458
46.61 -69.184 353.525
31.1042 -63.1093 356.568
33.7326 -40.4978 383.27
1.79777 28.4157 436.874
16.8659 43.0202 416.792
16.5839 -66.0145 368.973
35.8748 11.8621 420.077
42.2248 35.0283 424.773
12.2898 -16.8607 419.156
50.9445 5.58593 417.311
25.2733 -13.8956 420.316
25.5171 -8.43125 417.816
39.1949 2.68492 417.505
4.26733 -56.0156 384.733
49.47 32.5026 427.094
56.6034 5.20691 410.842
29.75 -67.2434 359.015
21.7091 -65.7924 365.528
-22.2133 78.5673 419.782
26.9222 5.11638 419.851
7.79551 34.7171 423.284
7.16011 17.8876 426.257
25.6363 -66.3224 363.084
-46.3752 15.2379 472.272
-11.017 17.0739 442.509
13.7301 19.779 423.5
27.4923 -65.7528 360.469
12.381 28.3586 428.116
8.24705 59.7226 422.998
57.9355 33.9983 426.459
20.5063 -65.8062 366.694
24.5596 10.8887 423.866
4.57422 70.957 432.591
3.76942 72.6736 430.758
-14.4323 14.8587 440.815
38.4972 86.6589 418.866
16.201 -94.0747 381.289
3.83272 74.1591 430.514
55.6668 34.968 427.457
14.7212 87.7119 422.149
7.71868 73.1496 428.036
5.23898 74.0879 429.864
5.6759 -65.9793 379.307
520.678 -98.0409 966.076
20.1095 99.4595 419.939
33.7484 15.0028 422.179
41.5345 93.1652 420.24
64.2527 74.7384 411.792
31.5661 -61.0438 357.478
-3.9711 -72.8208 396.736
34.5044 -66.641 356.113
7.24612 -61.7664 377.277
94.6159 -178.309 1001.65
35.6724 -63.0434 354.835
7.15887 -61.0886 377.384
30.9246 -56.3694 357.924
2.16002 -63.1493 385.271
54.1361 32.5678 427.235
7.50188 13.1412 425.354
9.50437 -84.0746 377.793
6.64741 -84.7531 384.44
25.5841 -54.6687 360.342
43.6773 -39.4192 386.934
18.4599 -46.5689 372.116
-36.1174 -127.2 1060.78
-99.8084 -148.449 1108.44
12.5321 -45.9832 379.504
24.7803 -56.1716 361.738
-78.0641 -138.475 1090.05
13.5995 -44.9808 379.625
15.4751 -57.4188 372.988
107.88 24.9871 444.372
12.9811 -43.1506 380.263
11.0738 -59.3026 374.844
12.4396 -41.4213 382.169
2.03114 -61.5125 385.265
55.1901 -29.7945 393.384
10.1652 -57.0412 376.132
10.6227 28.0194 429.07
50.9453 -27.9659 392.428
21.8694 -54.5648 364.815
14.095 29.5492 426.419
12.9527 -20.6835 420.573
122.372 3.37273 443.102
16.2043 27.8833 426.275
2.61111 -13.0993 418.861
27.7472 -59.2098 358.545
7.35657 -11.6579 417.626
56.4877 -6.37087 414.288
29.5559 -56.9098 357.9
-23.5091 5.61656 439.668
-14.5115 13.5077 440.403
27.5587 -4.73042 418.47
24.46 -54.0093 360.887
117.913 8.8585 439.796
-8.25802 14.1581 439.209
-31.4838 25.1946 454.953
24.7178 7.60075 422.276
-40.9091 5.6371 461.382
-2.92231 -57.3033 424.482
53.044 36.1984 425.906
6.07831 14.8623 426.85
106.816 -7.20373 422.864
-146.249 -23.3887 1158.64
26.2022 -12.8298 418.677
5.77194 -4.59846 419.868
23.6883 -11.0848 417.749
111.012 22.6102 443.74
-20.8002 81.5556 419.074
-10.9325 -9.33556 433.888
108.792 24.0318 443.817
3.70387 4.82518 424.376
58.2747 95.9597 406.074
5.95822 -4.44607 420.637
72.6161 37.085 432.221
28.6845 17.2342 423.636
0.30751 70.1968 433.339
6.59121 32.6214 423.57
17.7339 -81.0205 373.395
-17.178 48.6708 441.597
15.5103 82.3115 421.97
30.8193 30.4197 425.194
119.199 3.83196 440.853
113.838 32.5893 453.491
37.4308 -14.3595 409.511
32.2908 52.9789 413.377
121.494 13.2447 442.397
0.540245 -23.837 424.288
-17.591 -1.72776 435.673
15.5533 -43.5796 377.062
8.79632 -57.5843 377.037
168.382 -178.699 1020.57
-25.0833 2.0719 444.088
19.0477 -49.796 370.731
-12.0804 15.7554 441.057
-34.5437 16.1177 453.296
25.3663 10.1404 423.453
0.738379 10.1967 427.314
-18.5258 9.18917 439.405
25.8049 -58.8555 361.592
11.1842 -4.03397 418.727
46.0041 3.09167 416.462
42.1912 2.65607 416.995
78.4007 -10.377 407.474
24.3483 -0.408522 422.269
13.1385 74.8133 425.237
27.848 -2.41722 419.652
84.3843 -130.923 986.635
29.306 -2.84053 418.866
41.8453 82.163 414.355
25.1445 -3.16064 422.244
-9.96502 -19.4468 426.484
38.8116 -10.6643 414.035
5.85225 -15.8433 418.424
-8.89334 -16.9753 419.682
20.1893 -26.9148 429.195
12.5682 -49.9798 378.331
15.6069 -51.1857 375.385
15.3387 -52.3288 375.053
45.7082 82.7215 411.651
43.3478 77.9173 418.505
49.7185 78.251 410.625
-25.3401 14.4314 448.534
44.863 20.3179 419.049
11.7546 -0.0898604 418.623
33.7506 -66.2371 355.207
10.8654 76.4534 427.236
3.33194 60.5504 430.684
36.0948 -70.6639 355.458
12.1492 -78.3546 374.643
11.5088 -78.7882 375.242
6.00631 -83.433 385.481
26.3185 -81.3307 372.219
30.9933 96.1201 418.567
-37.7852 13.5504 461.079
-35.0958 11.0461 456.374
-36.9459 9.58467 459.154
-29.5831 11.0242 450.304
-34.3961 9.29819 455.916
-23.1068 3.11492 444.083
24.7561 -3.21035 421.5
33.5649 -2.14615 414.644
24.4043 -13.574 418.966
17.9421 -49.1057 371.86
15.8837 -49.888 375.409
3.10875 -53.3426 389.676
5.68881 -52.4655 384.248
8.2155 -53.3385 380.203
10.9026 -53.0056 377.623
4.1818 -55.1617 384.968
2.8757 -55.9256 387.642
18.0288 -64.9087 368.177
14.0561 -65.6502 371.07
8.37701 -66.9521 376.639
11.5735 -66.5357 373.232
3.08038 -70.848 383.986
0.200153 -72.9333 390.426
30.1865 -65.5412 358.147
30.0294 -69.6713 358.528
35.5386 -71.7645 356.09
11.4421 -79.6931 375.283
6.95931 -82.0186 382.917
9.86287 -88.7767 380.949
32.1442 -68.6339 356.805
15.7138 -70.1798 370.916
16.599 -69.2012 369.536
3.31222 -65.2423 382.595
6.22382 -63.9693 378.719
4.05901 -64.4768 381.297
5.16078 -59.9537 381.096
20.2597 -56.8353 368.95
23.174 -53.3435 361.518
0.953388 -59.4869 388.45
-0.710208 -59.7482 392.743
0.631059 -63.5343 388.698
11.3927 -57.397 375.167
2.07803 -57.9193 387.367
-3.66871 -62.6321 417.804
18.8138 -51.4908 369.839
17.8959 -50.7391 371.273
3.75302 -53.5 388.314
13.2624 -47.2688 378.779
15.9899 -45.9742 374.881
13.818 -45.4434 377.777
3.59371 -47.2574 395.066
7.30105 -45.5184 386.952
11.324 -43.0362 382.655
8.15942 -37.445 393.073
3.77653 -37.8358 406.322
3.09774 -35.416 425.217
-27.7298 -34.934 439.21
4.53802 -19.6679 421.031
24.7403 -4.73932 419.977
9.86924 -5.46848 418.581
25.2003 -2.72588 420.7
-2.97713 -6.12218 421.61
-36.4388 -2.25526 465.556
46.6819 19.7898 420.187
-28.9233 19.2279 451.793
-34.0536 18.092 456.959
23.4328 -12.693 418.896
-10.1042 -8.7663 433.417
32.7919 -0.277097 415.38
25.1288 1.10092 420.124
25.5223 6.77383 420.888
-43.1844 9.90273 472.817
-50.8437 143.37 500.516
9.69462 -85.5124 378.479
15.1213 -43.777 376.372
10.6076 -39.8272 386.757
4.20626 -39.2391 403.204
5.18154 -29.2918 422.236
22.5176 -11.3971 418.98
10.1364 8.67258 423.085
-22.0865 5.60827 443.535
-44.7826 18.5799 473.306
8.94406 59.7856 424.087
28.6264 6.02041 419.56
30.9953 16.6742 423.147
26.9155 17.157 424.361
-15.2559 22.4692 506.332
12.3504 21.1608 425.606
3.26245 69.0605 432.327
8.92896 69.3805 429.279
-21.118 75.2481 421.268
-15.3218 75.3191 420.41
-26.4116 76.4456 421.812
-31.0957 78.8807 423.048
-19.366 80.2768 418.954
5.20731 -72.2908 381.107
6.93 -17.317 419.229
108.023 22.9951 442.092
64.0116 34.1511 427.259
-31.6742 79.3678 423.316
-21.4505 82.0999 418.687
70.5373 79.9732 401.812
60.6716 82.3547 403.543
43.2239 104.157 415.682
10.8478 -45.7844 380.909
28.8605 2.09666 420.158
43.2161 2.83219 416.998
42.5361 37.6476 425.58
38.346 -40.0379 384.784
5.23357 -20.4658 420.609
8.53081 -16.8981 419.116
43.316 -66.8254 352.995
44.6103 -40.972 386.35
-13.6036 17.043 442.19
41.3206 31.6936 425.061
56.8167 71.1033 431.499
30.6841 -6.249 415.514
18.6406 -90.9634 377.827
23.9627 -88.7783 374.399
25.4092 -88.2476 373.46
20.2589 -88.153 375.563
25.1047 -87.4314 373.376
34.4879 -85.6608 371.827
31.3358 -82.7906 370.864
25.0763 -81.1135 373.166
19.9272 -77.3105 373.704
35.2578 -72.3947 357.92
10.7678 -74.4162 376.597
22.4085 -70.7844 365.481
42.5472 -67.5777 353.339
32.6196 -67.3096 357.272
23.0702 -68.7897 364.59
2.45555 -72.7166 384.194
25.245 -66.9502 363.724
-2.71587 -73.1947 394.92
31.1329 -65.5168 358.548
19.2529 -64.897 367.603
8.69825 -62.5546 375.766
18.7642 -60.7461 369.503
4.09491 -61.3197 380.734
24.0301 -56.973 362.709
3.94211 -58.4888 382.724
11.558 -56.5446 375.434
18.4498 -55.1527 371.631
5.23789 -57.1966 381.573
1.12087 -57.9621 387.933
7.34593 -56.236 379.344
17.379 -54.881 372.891
11.9087 -55.2331 375.728
2.99232 -56.458 385.785
17.5888 -53.6194 373.047
8.82862 -53.2662 378.961
6.26654 -53.2578 382.671
1.2857 -54.683 391.491
8.91442 -51.9624 379.891
13.2578 -49.0333 378.058
8.27732 -49.0614 382.373
7.4679 -49.0963 383.624
14.5755 -47.6473 377.999
5.91299 -48.9992 386.206
15.1891 -46.4509 376.23
5.25325 -36.3759 399.514
22.8554 -20.5333 421.52
35.3141 -16.1026 411.29
26.1096 -16.7233 418.484
29.2186 -16.0331 415.304
27.9018 -14.6461 417.105
-18.7043 77.0025 420.352
-33.2703 75.8863 426.054
14.367 84.1706 421.634
-27.1385 77.4083 422.56
-31.3378 77.1217 424.436
56.1202 90.1666 403.988
-25.704 78.1237 421.542
-33.9581 80.539 425.834
14.9535 104.406 405.302
28.8524 -87.7724 372.816
22.287 -86.4668 373.766
12.0665 -81.1179 375.129
14.2289 -80.1827 373.775
15.3532 -80.2764 373.35
26.3359 -78.3777 371.388
13.8216 -77.7799 373.85
20.3656 -77.2737 373.222
38.9484 -68.201 354.743
35.1699 -67.7231 356.091
32.5797 -68.0301 357.609
8.59308 -72.1631 378.646
4.59537 -70.8162 381.681
17.5659 -66.818 368.327
19.1915 -65.7009 367.321
22.0496 -64.576 365.945
-0.796705 -68.9455 388.761
11.5283 -65.1276 373.089
9.34847 -64.9584 374.86
25.6921 -61.1988 361.354
17.3444 -62.7601 369.991
26.1282 -60.7992 361.222
19.8154 -62.1115 368.501
1.42075 -62.2604 384.654
23.3384 -55.496 364.102
-0.342375 -57.5528 391.962
19.5261 -51.9114 368.391
11.8885 -49.623 378.754
12.9805 -48.6005 378.415
11.9346 -47.3609 380.039
13.2188 -44.9411 379.18
7.71942 -45.5175 386.134
3.26629 -46.9501 395.756
6.28097 -41.9566 392.232
8.25376 -38.8529 390.618
-20.4595 -36.8193 429.275
-29.2021 -37.0875 439.494
6.08011 -24.1313 423.442
32.5794 -20.4812 407.791
20.6653 -18.3866 425.233
-6.5137 -10.861 419.502
46.8059 81.8347 413.664
57.8301 88.5822 402.618
-17.233 80.6741 418.882
-10.4956 82.3326 418.081
-22.6755 80.4734 419.445
-32.1013 80.4767 423.703
-35.5213 81.2061 427.79
-38.5679 82.1267 431.967
29.6164 -85.7852 371.717
52.9242 -70.6083 355.79
11.4175 -42.0108 382.962
0.925671 -35.7885 426.645
43.4077 8.29813 418.636
43.779 4.66815 417.168
51.0127 1.26801 416.114
-7.56113 -5.48991 421.06
25.4276 -5.66297 419.579
54.4929 -5.59578 415.093
7.31284 -14.4172 418.745
80.8736 -12.9299 406.998
-29.1996 -29.2465 437.518
2.63937 -28.595 423.755
6.98638 75.1219 430.546
3.35668 64.205 430
70.7372 72.4703 414.947
-22.1041 52.2053 451.779
46.633 42.2095 425.39
36.3537 38.6471 425.792
26.9529 36.912 425.133
21.9011 35.1042 424.097
54.1493 38.2842 426.142
38.771 35.8669 424.971
-39.4448 26.8067 465.302
36.6686 31.5943 425.966
43.3684 31.4865 425.686
8.99764 23.1256 430.641
11.9592 14.3464 422.463
26.7013 14.0242 423.68
2.73849 10.6389 426.907
35.8689 14.3453 420.478
2.59001 7.62524 425.361
23.7371 8.24423 422.839
1.77044 4.52605 424.224
12.4101 5.55231 419.522
8.297 4.89778 421.2
45.8123 6.16685 417.732
-23.3843 75.7196 421.757
-31.8201 73.4973 426.569
6.69229 80.2514 426.418
-33.3909 72.9625 428.003
-24.0803 73.5229 423.552
64.1109 82.5171 401.736
15.2218 75.3471 420.302
58.0997 73.5245 414.219
-1.12139 62.7364 433.263
64.7217 71.3438 414.445
-5.43627 61.9058 435.796
-8.22711 61.5441 437.738
22.5363 35.9305 424.306
22.7031 34.6336 423.842
24.4947 30.1039 424.652
37.6163 31.7297 425.62
35.165 31.4558 425.825
46.0413 32.1158 425.968
-16.3555 24.5651 450.06
-36.7152 19.496 456.465
26.3625 26.3267 425.778
-44.1243 17.5062 467.29
-32.9122 17.7359 451.341
-36.2214 17.2084 454.165
51.7784 25.2098 422.859
-32.814 15.4007 450.403
-33.8867 15.0175 451.071
-34.502 15.0109 451.515
-33.5697 14.2679 450.762
-35.895 13.8822 452.595
-34.1264 13.8852 450.82
-32.8533 13.7994 449.754
28.227 19.9955 424.225
-32.6322 13.0233 449.495
5.5874 16.5863 427.708
6.94117 16.5224 427.313
29.7353 18.918 423.293
39.6094 19.8723 422.311
29.2311 18.4591 423.47
48.6621 20.402 420.365
43.8958 19.813 421.818
46.8165 18.9606 420.875
-37.8942 8.49755 454.664
106.098 24.2902 442.329
38.8131 16.3693 421.582
24.833 14.5515 425.032
31.2816 15.1343 422.448
105.869 23.454 441.81
8.62903 11.4472 425.043
-20.9015 7.50099 440.198
-26.6848 6.53555 443.236
32.2208 12.7366 421.617
25.4391 11.8439 423.773
11.9231 9.35903 420.867
33.904 11.5296 420.046
1.71875 7.43554 426.086
0.963998 7.29223 426.568
39.8372 10.9938 418.833
30.9742 8.96881 419.528
-18.7073 3.0071 437.307
23.1503 7.19427 422.927
33.5352 7.81118 418.972
23.6109 6.70186 422.557
-0.605809 3.96003 425.621
29.7476 7.1611 419.739
6.44968 3.98753 421.779
33.505 5.96868 418.985
5.5652 2.81929 422.449
12.4658 3.42194 419.099
42.3346 6.2817 418.345
8.04006 2.51367 420.925
10.5266 2.60486 419.884
-24.1456 -1.23937 441.345
39.4689 5.50281 417.354
44.3038 5.53906 417.63
32.9343 4.28414 418.88
31.8376 4.06971 419.247
11.19 0.833776 418.697
30.4097 2.44218 419.377
30.8144 0.926319 419.122
39.8277 1.67343 416.828
-13.6663 -4.44401 432.701
30.3166 0.293263 419.35
28.4543 0.0176921 419.867
-6.40831 -3.68278 421.769
23.5466 -2.39526 423.134
23.7478 -3.37381 423.348
-24.7356 -8.94732 447.207
27.7186 -3.06493 420.078
43.4644 -1.4274 415.206
28.4962 -3.12475 419.175
44.2375 -1.81818 415.245
-12.4306 -9.44375 431.568
23.322 -6.23308 422.984
-5.57573 -9.7963 419.395
27.3396 -6.89214 416.899
-15.38 -13.6845 438.854
12.6631 -12.7809 418.151
23.2511 -12.0986 419.894
38.3382 -11.3497 413.498
38.915 -11.9072 413.093
30.646 -13.4236 415.795
-47.2541 20.4404 469.702
10.7238 -151.175 1032.74
46.1269 18.8091 421.454
-0.884675 2.46401 1054.96
47.7924 18.9953 420.759
20.4506 17.7713 1040.88
95.8585 20.2716 441.054
-40.9596 24.5044 463.683
95.5507 27.3168 441.328
-10.59 -11.2887 418.525
9.31244 34.3242 422.553
35.253 37.6468 426.562
107.315 24.0498 442.843
8.92888 60.5455 423.061
3.15066 64.3888 432.818
-14.0946 74.7481 420.401
-21.7581 75.5058 421.072
29.2777 25.3567 425.262
-17.8131 75.3071 420.118
32.6748 -63.9144 355.47
-25.8979 75.8852 421.579
-20.1536 76.485 420.238
29.4755 -2.19305 419.251
11.5718 33.8309 423.389
-23.2584 80.2919 419.353
-16.4856 81.5467 418.169
41.5732 82.6414 418.448
61.3051 83.0031 403.769
45.2598 79.1109 419.356
41.9454 2.01233 416.773
12.608 -44.2643 379.989
9.18335 1.18783 419.198
17.6865 -68.1737 368.282
42.0929 95.1955 423.863
0.265999 -2.07617 421.367
57.8493 90.8238 404.597
11.9836 107.037 407.722
11.036 -87.6856 379.42
34.3117 -69.4868 357.133
39.6451 -68.2721 354.063
33.4706 -68.7742 357.32
40.8068 -69.7481 354.914
23.0406 -67.997 364.431
21.1069 -53.8542 365.644
13.787 -53.589 376.112
12.2789 -46.5061 380.444
35.9243 -35.913 386.73
-28.9159 -33.696 435.005
-3.0954 -8.33846 419.161
101.378 -5.72091 419.792
20.8053 -51.7085 366.654
44.2301 -3.42305 415.683
35.5714 -36.5295 385.383
-0.823335 -28.6268 424.022
11.4517 -57.2944 375.366
-0.181281 1.81543 423.77
1.32554 -29.3709 423.267
-24.6117 -7.97034 446.239
-4.61007 -64.4324 417.268
46.3218 8.23463 419.113
42.5104 8.9847 418.453
24.4787 11.9607 425.097
45.848 14.2147 419.175
12.5133 14.8909 422.682
6.21213 -65.4333 378.77
42.0447 -88.5466 373.856
49.7916 19.9663 421.584
20.449 -66.5232 366.511
-11.0231 15.5824 440.399
26.2346 -15.6128 417.618
-2.25188 -8.62822 418.792
48.6769 25.8829 424.211
12.1381 -75.8499 375.697
14.6903 39.0094 418.368
0.0118907 0.787114 423.067
19.572 28.6639 425.763
3.17535 63.4915 430.965
50.4829 -69.7693 355.067
29.8585 1.76812 419.531
20.6128 29.6422 424.269
43.8743 -68.0958 353.322
25.5544 -3.31216 420.894
9.29832 70.0384 429.075
7.48066 -60.288 377.765
25.5402 -53.1883 360.961
-42.4346 19.5324 463.96
-36.1748 79.9383 427.402
13.4785 -59.1704 373.098
15.1709 -44.9093 376.65
38.2872 71.5182 423.751
-27.4843 81.964 420.323
46.7913 31.2712 426.356
33.9616 100.246 415.512
15.1286 -58.0826 372.36
9.26742 -40.5237 386.955
12.3723 105.505 409.372
35.8322 -84.9976 371.037
2.00544 -60.3151 385.874
0.0843176 -26.5688 425.592
37.5359 -84.81 371.047
6.71639 -58.7392 379.3
7.27022 -22.9742 421.924
34.1251 -83.8574 371.291
20.8923 -54.5246 366.079
7.15581 -21.7111 420.952
37.2993 -82.0791 368.708
-34.7115 16.9054 453.526
18.7228 -83.0589 373.777
-10.9954 -10.5567 418.499
49.0138 -71.3204 354.746
13.1059 -55.4989 374.873
8.79804 -2.00388 419.485
8.7501 -22.315 421.965
94.6223 21.8696 442.379
16.27 -69.912 371.201
38.6574 -70.0049 354.884
5.48711 -68.2303 380.687
116.704 -279.265 1177.15
65.0455 36.7046 427.589
31.7375 -62.3765 357.254
4.0261 -56.0595 385.72
117.912 12.8869 439.322
8.4761 -64.2118 375.963
24.4332 -58.9358 362.711
-10.7802 -35.7326 428.434
17.5125 -60.496 370.468
25.1361 30.443 424.442
49.6465 -19.3304 404.05
44.0967 38.5192 425.982
3.27464 -19.7652 420.629
8.64632 77.493 428.382
-4.6825 -19.0109 420.552
47.8972 35.9679 425.17
-9.63133 -11.0482 418.235
2.21184 -4.37091 420.171
-1.44983 -4.31997 419.821
46.8362 3.44227 416.657
-22.5103 75.7901 420.956
-0.692945 -56.878 393.703
41.2954 36.9011 425.567
27.6578 93.1371 419.323
-25.1075 77.5357 420.841
36.4951 -66.3881 354.557
64.1793 81.1804 403.439
10.0135 -53.7132 377.885
64.2352 69.193 434.386
-38.4044 14.727 456.317
23.8464 -52.4607 362.92
101.087 16.3142 437.515
-30.3518 13.5302 446.522
21.5322 -17.9185 423.007
14.7981 -47.4695 377.093
44.4671 -90.3089 375.887
2.66537 64.9734 434.587
-21.0026 -24.925 434
-16.1647 -1.92778 434.768
133.885 10.621 456.118
19.9323 -52.9541 366.768
24.7681 2.51365 420.884
-6.19582 -22.4743 428.205
4.87111 -73.6792 382.094
-4.73912 -72.5274 399.609
47.7704 32.372 426.776
18.1826 29.2683 424.989
3.7992 -54.9641 385.148
55.2291 5.08548 417.245
9.60854 -44.6783 384.232
36.9184 -64.0392 354.615
-21.0866 79.0906 419.59
25.4544 5.16931 420.574
9.13514 -43.3861 386.303
38.0934 -63.1998 354.478
71.8152 -9.02997 408.001
26.4328 -3.16138 419.731
-23.4712 76.5826 421.109
-33.3943 16.4648 449.283
-32.5541 16.5468 449.659
37.9188 87.5254 420.344
11.5129 -20.4889 420.364
30.9107 -62.1458 356.211
53.49 -10.914 415.485
-26.8044 27.2891 454.428
-8.73826 -10.6534 418.999
442.583 -130.175 1008.78
42.892 -70.8514 354.62
6.87316 -41.7068 390.447
42.8793 18.3225 421.257
5.33295 -86.7702 387.035
45.822 2.4822 416.432
-4.35889 -72.5354 401.651
39.9238 -67.8805 354.416
13.5129 -54.1934 375.39
449.893 -163.037 1007.52
36.0322 -71.3419 356.309
16.0673 -79.1758 373.631
24.3295 -60.4321 362.333
-29.9147 -32.7972 437.203
10.0304 38.5282 419.338
-122.912 -215.865 1109.01
7.67153 -24.9968 423.842
63.3667 41.3902 423.629
-1.89376 -197.557 1041.15
-23.858 66.4573 429.876
71.5286 76.8812 406.795
1.72436 -21.3432 421.832
25.5745 -18.9772 418.403
7.96989 70.203 430.821
27.0119 1.18903 419.94
27.3789 82.0831 425.672
-110.709 -167.822 1107.84
59.4975 75.6104 413.671
8.63551 -54.1348 378.609
-11.9841 63.4504 436.303
20.4747 19.6721 420.143
-14.273 82.2258 418.599
5.42978 -46.6099 389.732
77.3657 0.0292739 393.665
-28.0444 81.1337 420.27
-0.155366 62.7827 432.457
13.8178 80.06 424.441
-15.8142 71.5319 425.667
65.5102 81.1615 403.017
39.173 -14.9856 410.788
-30.6983 82.6341 422.133
-18.3239 -12.8406 447.872
-6.98564 -141.527 1041.68
42.8232 105.064 416.491
43.4202 81.8718 416.656
11.5178 -44.2672 381.8
41.4635 -65.0144 354.759
34.0524 -63.0508 355.048
38.4433 -14.7015 410.855
45.5961 -67.2272 353.903
-30.7665 -5.7353 459.442
-52.9162 -120.096 1068.81
37.9636 -14.4787 411.262
17.6305 -60.8051 370.255
-36.5703 -2.79345 462.817
21.4408 -21.5609 423.195
28.2209 -15.6716 416.199
39.1173 -65.3194 353.517
-36.0031 12.5969 450.767
39.9012 87.9322 420.324
38.4785 85.3251 418.58
29.3142 -64.0712 359.642
64.616 35.426 428.226
42.7587 -40.571 385.963
-33.8031 -29.7383 1072.92
16.7166 -57.8485 371.429
12.6519 29.3378 427.698
6.14819 83.2375 425.312
39.9963 33.7827 424.12
-36.3658 12.2474 450.862
6.57764 -54.6035 380.71
18.456 45.9955 415.03
16.9735 84.0219 419.312
24.714 31.0194 423.126
-13.3126 13.6705 440.174
23.2836 -88.2113 374.216
53.3604 -5.60545 415.798
74.8915 -11.171 409.348
-10.9359 14.5743 442.458
52.5911 39.3182 427.058
26.2552 -64.4105 361.637
2.53998 51.3832 424.79
10.1845 25.1402 430.197
15.3356 15.757 420.046
1.10224 -64.2656 387.262
75.3226 -7.68582 409.024
22.7758 -11.4428 419.359
72.8899 79.0774 403.841
21.9056 -69.9844 365.728
59.4008 73.9673 414.762
29.8532 32.2005 422.95
2.09583 -66.6999 385.979
43.3571 6.70779 418.729
50.5469 38.4645 426.817
29.6346 1.07111 419.558
110.834 9.07025 434.103
26.3512 -70.8 361.137
42.4576 0.19205 416.07
23.0486 -62.5071 364.895
-0.294811 -150.706 1039.46
55.9499 -23.1234 1007.86
48.0434 21.5295 422.69
21.8178 -52.7477 365.045
8.26026 69.1195 429.705
74.16 77.9704 404.802
115.165 26.1851 446.293
-34.263 12.9321 452.288
9.27455 -19.4962 419.833
10.5327 18.386 425.363
26.9143 -61.5763 360.786
13.1101 -53.1537 376.09
14.5811 36.4697 421.012
-13.223 14.8818 440.787
40.8358 -316.936 1219.93
3.59954 -51.7931 390.229
27.6452 3.0631 419.754
12.4212 73.6658 425.109
27.5903 -17.168 415.802
37.0178 -91.5376 372.675
24.6239 2.73593 421.176
50.958 43.3481 418.612
-73.7615 -79.4989 1094.78
33.9515 99.6144 416.352
-18.3912 10.6989 439.936
-7.7697 -13.7441 418.543
5.88435 -5.31936 419.331
38.9697 93.8455 423.156
107.579 7.98365 431.996
26.1127 -65.5805 361.927
39.3642 41.5236 424.247
30.0321 15.5625 422.92
43.1931 38.5886 425.833
8.95074 -39.9537 388.033
-10.8764 19.5376 443.303
39.0918 -81.8895 368.137
120.412 25.1089 448.223
7.6694 2.5357 421.816
-14.3164 -38.2296 427.464
27.8731 -57.3852 358.928
28.6621 -58.1279 359.039
5.64996 -60.4536 379.007
37.7267 30.5597 426.348
7.98442 12.5684 424.966
47.7715 27.0393 424.49
40.849 -68.9624 354.111
23.4944 -20.8229 421.094
3.9453 54.7826 425.029
-74.7169 -201.41 1083.46
24.7523 -53.8409 361.488
6.16546 -54.502 382.681
-35.8233 22.7397 458.624
9.59303 23.7279 430.123
34.3974 -0.848783 414.588
-10.8235 -38.8401 428.267
27.0349 3.2674 419.861
454.007 -181.117 1007.29
37.8751 -83.7115 370.01
35.8893 -82.8419 369.791
-28.0047 -37.2388 438.153
51.0887 36.9049 426.348
42.021 39.6547 424.777
14.0128 30.5343 426.373
31.1156 61.1996 424.94
28.3506 -60.9448 360.165
-28.6606 80.2511 421.407
-11.5164 -332.622 1202.82
49.6572 26.915 424.632
-0.034095 -59.4967 389.141
7.94681 -41.2015 389.557
-12.7384 -107.361 1052.43
10.0985 3.91726 420.79
30.3363 -63.9694 357.026
8.28279 -21.8996 421.087
25.2191 -58.7407 362.115
52.8566 -72.022 355.718
16.3247 -44.9125 375.17
15.825 28.6461 426.132
3.63659 61.113 428.276
27.989 -1.09603 418.573
40.5194 -73.424 357.168
34.5676 -39.8981 383.647
33.3301 -63.3036 355.184
43.3112 -73.6515 357.915
8.22678 -52.6046 380.016
12.7793 -80.0516 373.91
31.5998 -88.1682 371.353
52.0121 -61.3958 354.74
52.9758 13.6116 407.585
19.5721 -85.3463 374.592
94.77 -39.2439 428.513
60.297 16.4422 401.381
23.4858 -61.8561 363.384
-21.7012 81.4025 418.726
-19.9148 -3.86222 438.219
17.9421 -62.6529 368.732
-107.963 -156.367 1101.57
54.5839 92.1565 408.297
10.4262 -45.4844 382.334
72.9525 -6.64191 408.251
28.9456 15.5269 423.463
124.683 11.7416 444.805
12.7383 -12.5179 417.946
31.9525 31.764 424.691
50.8491 34.8249 425.48
57.1708 73.2254 411.444
6.33142 -61.9417 378.234
42.2311 -69.1796 354.32
67.9477 78.1842 404.297
1.28522 70.2885 433.247
35.0748 15.2275 423.112
112.755 54.8516 469.943
-22.0504 4.31868 438.983
11.3609 28.0436 428.708
30.236 -86.5675 372.107
-37.5513 80.62 429.992
113.7 19.8298 442.018
27.9075 6.93263 420.305
52.2473 -7.50488 412.025
10.2471 -85.5416 377.729
16.2048 -47.2879 374.377
48.3034 -69.7641 354.225
-7.3742 -6.36412 420.462
122.455 17.9587 444.556
27.9882 2.60108 420.037
205.776 -172.406 1039.99
92.7563 22.0284 442.634
40.0424 -67.2754 353.649
437.092 -99.7097 1007.13
40.3496 -41.1851 385.42
