0.698032 -0.0813369 7.50269
0.739529 0.0117867 7.49757
0.829899 0.117019 7.24357
0.747103 0.0234861 7.58217
0.723998 0.403809 6.56516
0.824985 0.246893 7.20268
0.991665 0.0568666 7.79351
0.879904 0.448377 6.84206
0.805706 0.515626 7.33372
0.858389 0.729574 7.17319
1.31941 -1.60389 5.96942
1.37331 -1.58535 6.01247
1.12893 -1.56178 5.87411
1.41702 -1.55844 6.06302
1.42329 -1.53856 6.03899
1.43113 -1.58106 6.13409
1.24017 -1.48196 5.92917
1.44873 -1.58204 6.26516
1.43418 -1.51181 6.18508
1.54451 -1.6665 6.58582
1.45014 -1.48211 6.21121
1.32708 -1.38242 5.97744
1.13859 -1.35284 5.84069
1.42166 -1.39958 6.06567
1.57034 -1.49953 6.34478
1.41561 -1.3814 6.08684
1.62987 -1.56662 6.56961
1.54983 -1.40429 6.25165
1.63307 -1.47893 6.4543
1.30119 -1.2719 5.97324
1.4883 -1.31593 6.14846
1.4086 -1.24434 6.06929
1.0493 -1.20464 5.86903
1.38507 -1.20371 6.05206
1.48075 -1.247 6.17777
1.61044 -1.34024 6.42354
1.31585 -1.18629 6.00492
1.54834 -1.28049 6.34548
1.25619 -1.14329 5.99332
1.3252 -1.15226 6.04471
1.52733 -1.25736 6.33789
1.18887 -1.13677 5.96876
1.43543 -1.17158 6.16825
1.58268 -1.236 6.3767
1.42093 -1.14727 6.16353
1.40828 -1.13722 6.14884
1.35892 -1.11976 6.11281
1.19096 -1.0897 5.99754
1.19725 -1.04143 6.05002
1.31789 -1.04122 6.15125
1.23379 -1.02945 6.10427
1.2576 -0.985834 6.14963
1.09846 -0.960734 6.09502
1.12355 -0.95713 6.10283
1.2075 -0.945248 6.14669
1.28125 -1.10979 6.54508
1.25942 -1.08472 6.53471
0.76926 -0.752323 6.36066
1.00448 -0.936222 6.82634
0.816044 -0.738962 6.42198
0.784427 -0.712506 6.3944
1.45172 -1.60931 6.30392
1.26 -1.31658 5.92432
0.925075 -1.11797 5.88546
1.58139 -1.23518 6.41224
1.24233 -1.14726 6.61116
0.941348 -0.434581 6.33598
0.934889 -0.194108 6.65214
0.8512 -0.18629 6.77078
0.573744 0.444247 6.33331
0.977053 0.0790661 7.68216
0.97019 0.337766 7.50578
1.26077 -1.68797 5.98225
1.35001 -1.58493 6.01331
1.32997 -1.51826 5.98493
1.39871 -1.66681 6.32193
1.43924 -1.64694 6.37053
1.449 -1.49436 6.16374
1.45004 -1.43601 6.12991
1.30509 -1.09294 6.09087
1.16379 -0.98294 6.09838
1.07898 -0.583184 6.62174
1.08387 -0.491221 6.69396
0.710322 -0.141077 6.03493
1.05828 -0.292136 6.6107
0.77913 0.208023 7.29564
0.898093 0.484775 6.75585
1.36306 -1.77885 6.2364
1.32127 -1.12692 6.0648
1.36662 -1.08362 6.16146
0.921649 -0.521337 6.13161
0.639944 0.39939 6.43211
0.744148 0.0208579 7.50269
0.928053 -0.499737 6.2073
0.640948 -0.0485395 6.42928
0.759159 -0.189156 7.16784
0.764744 -0.06924 7.25627
1.10513 -0.685943 6.64923
0.918344 0.707366 7.18088
1.06075 -0.817843 6.60852
0.895815 -0.462814 6.15862
0.947652 -0.346247 6.06444
0.779084 -0.262211 7.17824
0.862131 -0.311381 6.28431
0.753436 0.858167 6.77704
0.737901 -1.33223 5.87676
0.064419 -0.871662 7.07283
1.03787 -1.56655 5.86543
-0.364731 0.380436 6.53284
0.393036 -1.26319 7.34036
0.389819 -1.26401 7.35544
0.30071 -1.2216 7.64159
0.231311 -1.22591 7.63014
0.370857 -1.15989 7.66857
0.955204 -0.0358829 7.92148
-0.311891 -0.160215 7.58529
0.895951 -0.0197114 7.98246
0.883138 -0.00720909 7.99216
0.578781 -1.36929 6.90938
0.602024 -1.38988 6.96123
0.284729 -1.22426 7.03553
0.550121 -1.55659 6.69133
-0.297051 -0.149746 7.66591
0.878321 -0.47449 7.26059
0.547848 -1.58163 6.67242
-0.121526 -0.237365 7.76003
0.440976 -1.24689 7.40015
0.28599 -1.26573 7.34699
0.898741 -0.00523402 7.98716
0.204916 -1.22923 7.62512
0.297069 -1.21408 7.25974
0.309709 -1.23147 6.95068
1.25774 -1.70022 6.92704
1.19472 -1.80592 6.66256
1.08897 -1.97741 6.40125
1.36709 -1.83426 6.29961
0.855738 0.0200218 8.03739
0.141537 -1.22314 7.58948
0.401235 -1.26515 7.33053
1.12255 -1.7181 6.85215
1.02006 -1.76794 6.73984
0.888827 -1.79695 6.65485
1.40993 -1.72413 6.80691
1.43958 -1.73229 6.77843
0.0329181 -0.345336 6.54613
0.758356 -1.54044 5.96186
0.27259 -0.413175 6.01797
0.680322 -1.55151 6.02823
0.212394 -0.76076 6.44524
-0.387125 0.356244 6.58575
-0.379626 0.0288628 7.11795
-0.30653 0.0401155 7.03385
-0.290543 0.0307154 6.96499
0.184806 -0.574489 6.28378
-2.21296 -0.258773 8.11068
1.43448 -1.604 6.20592
1.33385 -1.60997 5.99257
1.09282 -1.80645 6.00727
0.886889 0.601489 7.41949
0.825992 0.253505 7.20607
0.832157 0.247334 7.16049
0.718801 0.420981 6.58973
0.807493 -0.326599 6.99099
0.910468 -0.383547 6.4009
0.569024 -0.269539 5.85624
0.506389 -0.307517 5.84579
0.931833 -0.492865 6.24151
0.930056 -0.540144 6.33199
0.662482 -0.830687 6.31868
1.21929 -1.14831 6.64602
1.51534 -1.22278 6.52965
1.06601 -1.03819 5.98989
1.49438 -1.25616 6.55929
1.01868 -1.09279 5.92798
0.967341 -1.11533 5.90276
1.14924 -1.27688 5.85521
1.44683 -1.47776 6.17885
1.41902 -1.53043 6.03998
1.3922 -1.7109 6.36862
1.13121 -1.52962 5.86576
1.39373 -1.75747 6.26064
1.00595 0.0589863 7.843
0.962899 0.0388317 7.71512
0.730139 -0.0158689 7.49378
0.691729 -0.288377 7.48023
0.312369 0.263019 5.77731
0.760156 -0.27078 7.09603
0.759512 -0.287545 7.07427
0.753659 -0.310234 7.0915
0.834639 -0.212946 6.8074
0.376587 0.142159 5.76161
1.06026 -0.339061 6.66015
0.704099 -0.137559 6.08773
1.06039 -0.768995 6.51653
1.04977 -1.23127 7.22324
1.24797 -0.943462 6.16021
1.33186 -0.980198 6.21696
1.58925 -1.34285 6.36947
0.952385 -1.25915 5.81707
1.50516 -1.52509 6.30247
1.12925 -1.42327 5.83115
1.43153 -1.48765 6.07271
1.44197 -1.54836 6.10615
1.35886 -1.79197 6.28482
1.28812 -1.84517 6.14607
0.770095 0.575117 7.57159
0.932796 0.413167 7.66731
0.998907 0.0437573 7.85776
0.971606 0.0286586 7.80871
0.8624 0.294926 6.89901
0.775115 0.111031 7.33812
0.821953 0.111918 7.28144
0.77098 -0.177261 7.19047
0.483129 0.161805 5.87251
0.595724 0.0834287 5.95046
0.39771 0.156203 5.79048
0.3502 0.105741 5.73168
0.876614 -0.336917 6.28243
0.654334 -0.182685 5.9073
0.903814 -0.635356 6.80452
0.902753 -0.413717 6.23523
0.939801 -0.559973 6.17106
1.0491 -0.743239 6.54468
1.06239 -0.762049 6.50014
0.871687 -0.656782 6.10999
0.872085 -0.976427 6.01933
1.38275 -1.02879 6.24117
0.887448 -1.09091 5.89307
0.877608 -1.11114 5.87845
1.65 -1.4951 6.53292
1.65819 -1.51978 6.56226
1.63856 -1.53995 6.55313
1.14344 -1.32579 5.84346
1.35059 -1.45119 6.00734
1.44499 -1.64774 6.3491
1.44495 -1.58446 6.18962
1.44277 -1.55097 6.12547
1.31855 -1.50751 5.97338
1.40864 -1.64401 6.26273
1.33393 -1.76724 6.41742
1.39558 -1.71486 6.34619
1.33742 -1.7989 6.37242
0.957525 0.37279 7.57395
1.01633 0.131685 7.95708
0.878397 0.487107 6.85173
0.843031 0.179114 7.23884
0.763059 0.0807411 7.37521
0.735487 -2.56432e-05 7.50638
0.800525 -0.176447 7.08518
0.818172 -0.0895812 6.82408
0.778628 -0.269106 7.06215
0.528107 0.145074 5.92709
0.591838 0.104836 5.98518
0.543933 0.0270006 5.83365
0.641404 -0.0307702 5.9444
0.898943 -0.350251 6.39487
0.661813 -0.160974 5.91065
1.44498 -1.53132 6.19004
1.08753 0.684411 6.79183
0.732561 0.399166 6.65286
0.807995 0.038186 7.36432
-0.421167 -0.898569 10.4505
0.791415 -0.159679 7.2004
-1.42846 -1.52476 11.3568
0.757539 -0.290774 7.1124
0.743035 -0.33058 7.1501
0.808304 -0.266655 6.94163
0.892248 -0.372265 6.39071
0.715212 -0.23999 6.0324
0.910706 -0.436815 6.2142
0.915469 -0.507733 6.38186
0.90628 -0.428644 6.15835
0.912959 -0.461983 6.08399
0.730278 -0.788896 6.34466
1.18025 -0.92172 6.15551
1.39604 -1.06708 6.23238
0.972237 -1.20785 5.84125
1.64144 -1.39434 6.46456
1.5178 -1.36902 6.20858
1.37704 -1.34321 6.01981
1.62937 -1.53963 6.48273
1.3568 -1.35108 5.98762
1.42116 -1.64398 6.29289
1.40428 -1.58423 6.04594
1.38212 -1.5891 6.02564
1.17177 -1.59025 5.88425
1.02764 0.048473 7.80659
1.00978 0.0789425 7.6702
0.839349 0.191328 7.23774
0.837431 0.106438 7.25609
0.769936 0.0293882 7.48188
0.829451 -0.0276201 6.91339
0.900323 -0.0132323 6.73
0.668894 -0.108124 6.16847
0.786474 -0.706199 6.4303
0.763316 -0.726669 6.38446
0.749102 -0.769671 6.36165
0.758057 -0.608991 5.99073
1.12141 -0.95024 6.12336
1.38172 -1.01325 6.24361
0.856453 -1.07351 5.90403
1.50323 -1.19641 6.32791
1.08326 -1.10351 5.95438
1.62678 -1.29192 6.43425
1.59937 -1.28396 6.3941
1.13076 -1.15809 5.91276
1.2946 -1.20216 5.99572
1.14495 -1.2066 5.88693
1.26312 -1.28697 5.95162
1.63696 -1.53228 6.51781
1.19811 -1.31933 5.87835
1.37465 -1.36799 6.00978
1.43141 -1.40766 6.1008
0.886337 0.726241 7.21558
0.847394 0.565496 7.58665
0.804438 0.519956 7.59205
0.871121 0.453371 7.58229
0.9822 0.261116 7.50071
0.689729 -0.133303 6.07418
0.516335 -0.0689682 5.81067
0.869114 -0.535045 6.89546
0.853133 -0.343216 6.37529
0.708795 -0.29813 6.00379
0.845374 -0.744046 7.07392
0.896554 -0.417694 6.18741
0.90099 -0.385192 6.08361
0.920578 -0.426658 6.03802
0.841112 -0.669532 6.09245
1.348 -1.01693 6.21175
1.18844 -1.00669 6.1044
1.33081 -1.03398 6.17411
1.37576 -1.05601 6.22589
1.36216 -1.05178 6.21267
1.21258 -1.02487 6.10284
1.36395 -1.05802 6.18846
1.41749 -1.08837 6.26407
1.3818 -1.07118 6.21578
1.01443 -1.04698 5.98182
1.39207 -1.09904 6.19616
1.23129 -1.07982 6.04951
1.47185 -1.17687 6.30603
1.49417 -1.20941 6.31662
1.27911 -1.11625 6.04637
1.46115 -1.19167 6.25997
1.39863 -1.14688 6.12534
1.3831 -1.14268 6.11168
1.15074 -1.11809 5.96625
1.27459 -1.1451 6.01106
1.52129 -1.25887 6.32188
1.45472 -1.20001 6.16535
1.50206 -1.26216 6.3063
1.42754 -1.20922 6.12556
1.47415 -1.23243 6.18874
1.37802 -1.19699 6.06097
1.33534 -1.18652 6.02012
1.35407 -1.20542 6.02213
1.31353 -1.20417 6.00047
1.41209 -1.22707 6.07657
1.43119 -1.23597 6.0981
1.41254 -1.25361 6.06446
0.970631 -1.23194 5.83721
1.65119 -1.49091 6.5823
1.62299 -1.4267 6.43018
1.32278 -1.33171 5.97798
1.36979 -1.34292 6.00942
1.44092 -1.42668 6.14423
1.15296 -1.34062 5.85193
1.34814 -1.36945 5.98019
1.41966 -1.56714 6.07882
1.38941 -1.55034 6.0094
1.34712 -1.57835 5.98106
1.27512 -1.59535 5.93352
1.40184 -1.71974 6.23096
0.53278 0.140929 5.97233
0.358324 0.197069 5.79736
0.501154 0.0724064 5.8546
0.629745 -0.0306445 5.95535
0.624174 -0.0759383 5.94839
0.635746 -0.0887822 5.95712
0.479254 -0.0215522 5.78847
0.821713 -0.272115 6.38374
0.593525 -0.0810013 5.90715
0.824251 -0.281365 6.38908
0.457893 -0.0587753 5.77366
0.72086 -0.234297 6.07862
0.900218 -0.374312 6.41702
0.668079 -0.215959 5.95871
0.730191 -0.266097 6.06084
0.692383 -0.238949 5.99416
0.645287 -0.215452 5.93108
0.630717 -0.232097 5.91728
0.708403 -0.281908 5.99136
0.628255 -0.252861 5.91473
0.425564 -0.212067 5.78687
0.561262 -0.24707 5.86403
0.588991 -0.284488 5.9003
0.92407 -0.465889 6.31652
0.915926 -0.417369 6.04706
0.903753 -0.431946 5.97391
0.860855 -0.66307 6.49128
0.916243 -0.552563 6.17486
0.902058 -0.563614 6.14197
0.800538 -0.712281 6.42998
0.787774 -0.721531 6.42139
0.754278 -0.736915 6.3716
0.806223 -0.760531 6.42462
0.802292 -0.767532 6.43748
0.771279 -0.748784 6.38323
0.815204 -0.779158 6.454
0.794461 -0.785123 6.42947
0.786865 -0.781772 6.40613
0.810514 -0.794407 6.43741
1.32371 -1.01546 6.20084
1.21042 -0.998264 6.1262
1.29827 -1.01329 6.17623
1.03381 -0.986689 6.04908
0.855861 -0.988479 6.00452
1.26643 -1.01356 6.14862
1.25765 -1.01783 6.13295
1.14939 -1.00453 6.07139
1.28967 -1.02914 6.14626
1.43371 -1.08824 6.27417
1.02221 -1.01784 6.00751
1.47911 -1.13491 6.3176
1.1094 -1.04352 6.01001
1.47285 -1.20763 6.24954
1.19162 -1.12435 5.97785
1.37373 -1.15504 6.09842
1.36943 -1.15477 6.09192
1.45158 -1.20742 6.1608
1.0181 -1.16759 5.89196
0.923292 -1.17001 5.84516
1.0272 -1.17858 5.88662
1.40174 -1.22097 6.06333
1.44177 -1.24486 6.11371
1.45139 -1.25064 6.12069
1.46689 -1.33726 6.13339
1.51031 -1.37635 6.20629
1.15768 -1.28099 5.85693
1.4173 -1.39752 6.07695
1.40354 -1.38946 6.04597
1.34461 -1.51829 5.99668
0.58673 -0.271199 5.89959
1.13021 -1.27212 5.85063
1.14691 -0.900363 6.07242
2.53144 0.263602 8.65913
1.57293 0.0592671 6.96815
0.89485 -0.512921 6.2825
0.801736 -0.0321152 7.47012
1.63401 -1.52877 6.54703
0.891044 -0.0048846 6.76506
0.810714 -0.336869 6.89679
0.351037 -0.835588 7.86324
0.429863 -0.997526 7.81384
0.790755 0.127213 7.43876
0.821803 -0.216332 6.87045
0.386183 0.205218 5.83473
0.842521 -0.489356 6.9334
0.467841 -0.930532 7.76517
1.07998 -0.403491 6.62759
1.41359 -1.41628 6.05895
0.8851 -0.0553771 6.60784
0.626851 -0.0704651 6.23372
1.08608 -0.441518 6.60657
1.50679 -1.24956 6.53717
1.60802 -1.30114 6.478
1.36021 -1.14075 6.09205
1.63045 -1.34723 6.45935
1.59192 -1.34719 6.37593
1.385 -1.37535 6.02213
1.45407 -1.52679 6.10857
1.33554 -1.77705 6.4253
1.41165 -1.72032 6.3264
0.840571 0.329388 6.86604
0.41583 0.217376 5.97633
0.538221 0.0945157 5.90233
1.07093 -0.35835 6.59374
0.896527 -0.388876 6.32151
1.63502 -1.38398 6.50527
1.65402 -1.41429 6.51516
1.45713 -1.27489 6.09746
1.65628 -1.50289 6.56649
1.58094 -1.498 6.35166
0.72501 0.0901005 7.10165
0.820513 0.0256134 6.955
0.82477 0.249277 6.50476
0.473862 -0.817429 7.59812
1.09237 -0.374448 6.63091
1.09259 -0.524901 6.63237
0.902182 -0.591954 6.14348
0.736357 -0.744408 6.34063
1.58342 -1.23801 6.39205
1.63384 -1.399 6.46705
1.63521 -1.51605 6.50474
1.33071 -1.31134 5.97566
1.44847 -1.4422 6.11717
1.42412 -1.68047 6.24388
0.874399 0.726494 7.14083
1.11015 0.775614 6.62021
0.819153 0.36764 6.78122
0.7746 -0.0135413 7.46229
0.808349 -0.0332633 7.45697
0.908874 -0.0139502 6.7246
0.841479 -0.164905 6.76288
0.45373 -0.844343 7.74852
0.456338 -0.805616 7.6444
1.05695 -0.442656 6.55545
0.860683 -0.652695 6.09553
1.49958 -1.29276 6.61563
1.64363 -1.41605 6.46326
1.5656 -1.38372 6.32812
1.29951 -1.30526 5.95628
1.63288 -1.53144 6.5056
1.44448 -1.5321 6.1872
1.40555 -1.70173 6.35162
1.42928 -1.63524 6.19545
0.854008 0.526058 7.58522
1.03328 0.589465 6.86806
1.05344 0.591014 6.83602
0.807439 0.354548 6.76556
0.866679 -0.508998 6.95953
0.839841 -0.296626 6.29816
0.707928 -0.172663 6.0723
0.899815 -0.610541 6.83587
1.09093 -0.500531 6.62145
1.08612 -0.500897 6.59788
1.43484 -1.07712 6.27657
1.43006 -1.07692 6.26699
1.40923 -1.08122 6.24533
1.42282 -1.09576 6.25879
1.45033 -1.15757 6.25786
1.46067 -1.1734 6.24859
1.454 -1.1704 6.22649
1.45283 -1.16984 6.20735
1.59473 -1.25381 6.39392
1.47002 -1.2083 6.2504
1.45883 -1.2102 6.16706
1.43587 -1.21497 6.12098
1.492 -1.25944 6.21632
1.45512 -1.28137 6.10438
1.56009 -1.37477 6.31171
1.32311 -1.25456 5.99118
1.62553 -1.45237 6.43842
1.52548 -1.37732 6.22257
1.63086 -1.48632 6.46629
1.57419 -1.43393 6.32884
1.62331 -1.49744 6.44004
1.62587 -1.56112 6.55132
1.46048 -1.51504 6.135
1.4308 -1.67887 6.38851
1.42032 -1.6306 6.26378
1.43104 -1.64278 6.20748
1.07779 -1.79304 5.96943
0.846404 0.55601 7.57689
0.826567 0.651957 7.26918
1.01471 -0.0126968 7.7499
0.823062 0.305837 7.14905
0.878145 0.307848 6.99367
0.50516 -0.680883 7.59213
0.822924 -0.295687 6.80351
0.57589 0.0849239 6.01709
0.654096 -0.0896194 6.20752
0.681919 -0.102364 6.12289
0.689664 -0.255168 5.97189
0.92192 -0.459741 6.26536
0.911465 -0.395928 6.15051
0.920047 -0.445066 6.08325
1.03312 -0.935134 6.80022
0.775327 -0.737685 6.38214
1.36006 -1.03936 6.19861
1.40025 -1.07541 6.22934
1.40236 -1.08881 6.21753
1.44188 -1.13761 6.26135
1.44881 -1.1445 6.26859
1.44553 -1.15842 6.20595
1.46339 -1.18794 6.23872
1.55955 -1.25341 6.36547
1.47733 -1.21545 6.26623
1.59279 -1.30617 6.39692
1.48093 -1.24115 6.20389
1.52876 -1.32935 6.26709
1.45606 -1.26707 6.1191
1.41846 -1.24973 6.06341
1.60523 -1.39338 6.39628
1.43726 -1.26681 6.09269
1.61763 -1.41201 6.4174
1.61395 -1.41028 6.40813
1.43008 -1.27571 6.0722
1.63116 -1.44152 6.44269
1.4808 -1.34618 6.14912
1.54435 -1.40917 6.28762
1.62763 -1.49065 6.45266
1.56271 -1.43805 6.29408
1.34975 -1.33463 5.99005
1.39663 -1.36208 6.03807
1.58321 -1.49209 6.35623
1.44286 -1.42396 6.15735
1.4384 -1.6144 6.204
0.785034 0.0351038 7.06712
0.909409 -0.462346 6.24021
0.82193 -0.327327 6.93829
0.870285 0.482339 6.82627
1.62762 -1.35589 6.50222
1.02739 0.461969 7.05597
1.03695 0.130428 7.61255
0.560886 0.0855441 5.93199
0.911546 -0.404248 6.13142
1.0256 0.266395 7.57128
0.839932 0.275037 7.07253
1.464 -1.11179 6.31668
1.41332 -1.1059 6.22912
1.53134 -1.36138 6.23417
1.62584 -1.49834 6.45288
0.816424 -0.0104429 7.08393
0.679108 -0.0861531 6.12102
0.997754 0.0377927 7.74725
0.70203 -0.148339 6.06359
0.903564 -0.651895 6.8517
1.63095 -1.33806 6.4655
1.61818 -1.32284 6.42535
1.59094 -1.32525 6.38815
1.60496 -1.35178 6.40037
1.48167 -1.2652 6.16869
1.54336 -1.3481 6.28749
1.54694 -1.35685 6.29681
1.41395 -1.34107 6.07182
1.43156 -1.42098 6.1314
0.979334 0.455052 7.71201
0.916737 -0.435477 6.28638
0.895572 -0.348964 6.10594
1.46829 -1.21788 6.19667
1.58972 -1.3316 6.37519
1.59555 -1.33532 6.3835
1.60534 -1.36036 6.39536
1.60731 -1.3748 6.41282
1.52546 -1.31494 6.25467
1.52563 -1.32228 6.2499
1.54179 -1.35828 6.26322
1.62583 -1.46339 6.42731
1.5148 -1.38367 6.20459
1.63034 -1.50516 6.47037
1.43011 -1.40599 6.08937
1.43545 -1.57346 6.14909
0.972454 0.365661 7.49576
0.401111 0.248718 5.89426
0.84954 -0.491356 6.95459
0.682524 -0.0853027 6.04078
0.904774 -0.631529 6.79164
0.925469 -0.501727 6.25768
1.43208 -1.14398 6.20174
1.41418 -1.15396 6.14593
1.46136 -1.19228 6.21261
1.44302 -1.21492 6.13902
1.39423 -1.19365 6.07594
1.61292 -1.37669 6.42869
1.37039 -1.2164 6.02949
1.54398 -1.34098 6.31242
1.61369 -1.39432 6.42783
1.54511 -1.34807 6.30095
1.61856 -1.40688 6.43121
1.34679 -1.27928 6.00167
1.55129 -1.38488 6.27187
1.59216 -1.43435 6.36681
1.56896 -1.42277 6.32334
1.55938 -1.42943 6.2826
1.39891 -1.35516 6.04388
1.62141 -1.5369 6.46996
1.41331 -1.36875 6.05909
1.40819 -1.37581 6.05229
0.345672 -0.839809 7.75089
0.264042 0.0515554 5.76769
-0.0049461 -0.575279 6.88807
0.705217 -1.44436 6.81554
0.989478 -1.07482 5.93157
0.409444 -0.381856 5.92188
0.431737 -1.32886 6.44962
1.62606 -1.52738 6.48506
1.60722 -1.58743 6.53673
0.467577 -0.543947 5.97463
0.834629 -1.06306 5.88937
0.34269 0.19843 5.79144
0.712002 -0.106875 7.5608
0.499862 -0.478048 5.95999
1.0042 -1.00139 5.99728
0.466672 -0.354994 5.88174
0.245117 -1.25147 6.81819
0.962413 -0.993494 6.00847
0.21681 -0.457237 6.27747
-0.0719156 -0.994774 6.84948
0.98337 -0.532765 6.21959
-0.127618 -0.4011 6.98836
0.870461 -0.253955 6.15099
0.427663 -0.138153 5.8027
0.393525 -0.0819497 5.78267
0.626283 0.0173112 5.94112
1.07278 -0.873983 6.08031
0.389975 0.0660111 5.81252
1.20526 -1.10166 6.00462
0.990994 0.299539 6.95222
1.39047 -1.13344 6.1354
-0.0261743 0.514213 6.07676
1.21679 -1.07714 6.0367
1.34642 -1.54742 5.98359
0.63919 -0.0594889 6.2474
0.256765 0.261142 5.83207
1.33171 -1.50424 5.98401
-0.282973 0.187825 6.74803
-0.202515 -0.261882 7.61984
1.41306 -1.50902 6.05871
0.905032 -1.10143 5.87509
0.917234 -1.16504 5.8713
0.553206 0.108311 5.93923
0.965897 -1.05325 5.92131
0.863503 -1.01903 5.92157
1.13099 -0.948895 6.10749
0.871582 -0.95501 5.96623
0.419825 -0.532256 5.98963
1.06367 -0.942773 6.09031
0.891308 -0.928476 5.99842
1.10543 -0.852261 6.21576
0.944312 -0.505731 6.18901
0.579516 -0.357812 5.93395
0.765039 -0.0805241 6.30505
0.607475 -0.268838 5.90665
0.785668 0.00352026 6.38035
0.693711 -0.302671 5.99203
1.62347 -1.49899 6.59603
0.77374 -0.0480902 7.55357
-0.389078 0.155014 6.70826
0.543983 0.454014 6.33578
0.814796 0.550794 6.52802
1.10799 0.52366 6.91385
0.508768 -0.137256 5.79988
0.955715 -0.777163 6.24367
0.924838 -0.659261 6.23589
0.775246 -0.589633 5.99521
1.42557 -1.12845 6.21388
0.819594 -0.477956 5.97473
1.42743 -1.12597 6.24586
0.567715 -0.638657 5.99695
0.74285 -1.05951 7.35165
0.779068 -0.178102 6.26242
2.22631 0.626329 7.98132
0.668906 -0.0720205 6.00778
2.20564 0.682424 7.94488
0.305192 -1.18004 7.81711
1.18101 -0.929739 6.10546
0.608513 -0.0187128 5.93993
0.914709 -0.364341 6.06841
0.166169 -0.0453967 5.76233
0.60579 -0.00948235 5.94633
0.84922 -0.167835 6.20749
0.642392 -1.0018 7.50145
0.0237509 0.493213 6.1037
0.576278 0.0477524 5.94498
0.467722 -0.280924 5.83938
0.515843 -1.02195 7.64049
0.0654904 0.540685 6.16592
0.80423 -0.246982 6.30007
0.911509 -0.393384 6.09336
0.872408 0.221895 7.12807
0.713433 -1.43499 5.9099
0.893338 -0.0101447 6.72217
0.50346 0.603436 6.4437
0.651312 0.774182 6.49095
1.38227 -1.3496 6.02009
1.19627 -0.854431 6.28943
-0.686553 0.121312 7.89526
0.466212 -0.775986 7.54005
0.900259 0.528828 6.6015
0.555125 -1.22169 6.03305
0.172348 0.409055 6.21965
1.40703 -1.32973 6.07397
1.26268 -1.86879 6.36005
1.39799 -1.76585 6.28661
-0.0703972 -0.927374 7.1703
1.33776 -1.81448 6.3896
0.558011 -1.42686 6.07709
0.801027 -0.242937 6.91432
1.4084 -1.74647 6.30816
0.477761 -1.44252 6.26882
0.717343 -0.134217 7.56677
1.33821 -1.81144 6.40472
1.42526 -1.72634 6.30384
0.355783 -0.507243 5.98536
1.38085 -1.32525 6.03882
1.31735 -1.80498 6.45528
1.43454 -1.65318 6.24014
1.43783 -1.62553 6.22882
0.665455 -1.24319 5.93807
0.775542 0.0720066 7.38576
1.34797 -1.76865 6.50444
0.896126 -1.12175 5.87648
0.767556 0.0120578 7.50602
1.42757 -1.68933 6.4032
0.597948 -1.22181 5.9893
0.769852 0.064005 7.44157
1.62704 -1.35721 6.4498
1.62813 -1.5159 6.45557
1.45756 -1.2321 6.14734
1.62842 -1.58279 6.62473
1.35452 -1.19005 6.03139
1.63473 -1.4686 6.43855
1.44671 -1.68184 6.80058
0.379842 -0.126939 7.81692
1.64426 -1.53213 6.59586
1.56018 -1.59889 6.73309
0.531334 -0.473941 5.88091
0.994158 0.477638 7.61868
0.707015 -1.12905 7.4244
0.732682 -1.04802 7.37027
1.44509 -1.57236 6.25197
0.934437 -1.14217 5.87377
0.495141 -1.1474 7.58584
1.4635 -1.21097 6.20366
0.401632 -1.18131 7.70039
0.506157 -0.289529 5.85502
1.6405 -1.57091 6.61864
0.960906 -1.13547 5.8878
0.704342 -1.01396 7.43197
0.496963 -1.10058 7.60876
0.559571 0.0746791 5.94569
0.0553343 -0.661705 6.66604
0.48539 -1.1045 7.62376
1.34308 -1.13885 6.08539
0.911645 -0.66322 6.84521
0.906426 -0.650829 6.84078
0.688079 -1.18909 7.4111
0.694598 -1.00565 7.46011
1.44166 -1.1654 6.19161
0.911585 -0.632043 6.81555
0.738198 -0.960908 7.39022
0.624859 -1.03762 7.53573
0.901373 -0.69451 6.93228
0.699108 -0.95682 7.44398
1.2652 -1.10938 6.05516
0.752542 -0.925221 7.35528
1.26252 -1.09915 6.04691
0.589486 -1.0418 7.57122
1.51606 -1.18385 6.32993
0.755955 -0.919235 7.35784
1.44898 -1.18177 6.17536
0.498642 -1.06281 7.64107
1.61771 -1.30186 6.4555
1.4499 -1.22152 6.13485
0.678376 -0.959591 7.45976
0.785168 -0.0301401 7.43266
0.819897 0.232395 7.19441
0.831248 0.332463 6.92056
1.45206 -1.16191 6.2792
0.509918 -1.04942 7.64142
0.591877 0.0486038 5.99421
1.33375 -0.908348 6.36675
1.47152 -1.37111 6.18869
0.70889 -0.904579 7.39974
0.693171 -1.31832 5.89722
0.855828 0.187388 7.2011
1.38545 -1.09231 6.18073
0.613349 -0.947089 7.49889
1.48837 -1.13773 6.32457
0.520008 -0.997397 7.62763
1.02616 -1.02982 5.99696
0.412043 -1.07856 7.78904
0.515203 -1.28576 6.08517
0.86025 0.589765 7.24845
1.06869 -0.408582 6.60193
0.430121 -1.05787 7.77775
0.518252 -0.971624 7.62573
0.587442 -0.893803 7.4937
0.496184 -0.982616 7.67798
0.789142 -0.131893 7.22989
0.620076 -1.05759 7.53887
0.743102 -0.766007 6.34608
0.557022 -0.867222 7.50989
0.713377 -0.797093 7.38089
0.918338 -0.44601 6.05897
0.272423 -1.0704 7.91704
0.133238 -0.192656 6.42528
0.723434 -1.19622 7.36958
1.513 -1.31717 6.20681
0.482284 -0.938673 7.68565
0.435625 -1.06775 7.72371
0.497074 -0.920457 7.65907
0.540716 -0.802727 7.46241
0.432464 -1.11721 7.73917
1.50464 -1.29909 6.19269
0.446805 -0.973202 7.75902
0.402575 -1.00845 7.82617
0.257339 -1.28563 7.34687
0.727708 -1.01949 7.39546
0.912813 -0.402119 6.07816
0.226714 -1.02513 8.03626
1.32 -1.24626 6.00064
0.865022 -1.92031 6.37399
0.0810995 -1.18696 7.26954
0.466602 -0.963457 7.74765
0.541594 -1.37436 6.11917
0.5173 -0.861173 7.5735
0.474744 -0.943722 7.72354
0.169708 -0.589471 6.29412
0.498209 -0.820525 7.54002
1.50947 -1.65118 6.75191
0.533832 -1.54664 6.65786
0.912858 -0.41402 6.35536
0.486248 -0.895692 7.65283
0.874349 -0.37775 6.27031
0.478492 -0.903173 7.69646
0.664534 -0.199188 5.94489
0.74316 -0.694607 7.33131
0.136871 -0.431676 6.34366
0.449394 -0.718354 7.48437
0.470946 -0.878078 7.69802
0.424471 -0.871419 7.78573
0.468667 -0.748865 7.58769
0.808247 -0.194507 6.25825
0.408423 -0.877609 7.81154
1.09393 -0.334326 6.6163
0.493276 -0.639094 7.46546
0.744474 -1.09161 7.31217
1.03495 0.16347 7.60114
0.186935 -0.87702 8.09264
0.759055 -0.4945 7.11
0.314279 -0.818987 7.98397
0.720573 -1.13985 7.38637
0.841703 0.553989 7.59003
0.731138 -0.141303 7.57304
0.596447 -0.00460498 5.93116
0.881776 -0.0154862 6.59994
1.3402 -1.78069 6.42208
0.268872 -1.26249 7.54397
0.541014 0.0704613 5.88267
1.09158 -0.236503 7.68698
0.87998 0.471077 6.87526
0.716704 -0.0969357 7.52537
0.95559 0.0172837 7.67456
1.4211 -1.69608 6.38357
0.760317 -1.42198 5.86997
0.830289 0.0905206 7.25959
0.987248 0.312055 7.48948
1.4586 -1.53808 6.16262
0.844615 0.223385 7.14932
0.895023 0.602914 7.43337
1.43609 -1.5145 6.1845
0.926927 0.454116 6.92362
1.36552 -1.80094 6.29882
1.40311 -1.7554 6.303
0.0737528 -0.0378915 5.87759
0.566103 -0.945059 7.58512
1.54004 -1.16622 6.30098
0.311201 -0.96682 7.86166
0.676384 -1.41813 6.80089
1.2884 -1.84071 6.47273
0.403188 -1.08356 7.76223
1.42951 -1.69727 6.44515
0.848081 0.716285 7.21101
1.57014 -1.64548 6.60348
1.52665 -1.66644 6.63953
1.54203 -1.65125 6.63752
1.45951 -1.21669 6.17784
1.45783 -1.70637 6.71671
0.71792 -0.321524 6.01209
0.743691 -1.12387 7.35582
1.39335 -1.12715 6.14839
1.43801 -1.70699 6.74499
1.07225 -0.389368 6.59845
1.55083 -1.63435 6.73164
0.466841 -0.860113 7.67996
1.54919 -1.36362 6.2917
0.40864 -0.799905 7.75398
1.51175 -1.62005 6.77451
1.38535 -1.05093 6.23274
1.55218 -1.35573 6.29863
0.622774 -0.621938 7.50897
1.48169 -1.22811 6.24112
1.24826 -1.15714 6.61872
0.664186 0.0217328 7.9877
0.354634 -1.22048 7.69413
0.505822 -1.52281 7.19111
0.865141 -0.630069 6.10149
0.731009 -1.20863 7.31361
0.73204 -1.18548 7.32039
0.840628 -1.21731 7.28884
0.702803 -1.13564 7.42162
0.487962 -1.11933 7.61102
0.915962 -0.443542 6.27817
0.635226 -1.17284 7.51579
1.503 -1.27041 6.61278
1.08049 -0.475046 6.59104
0.704811 -1.08069 7.43032
0.415828 -1.03884 7.78648
0.897776 -0.399567 6.29457
0.91616 -0.613734 6.68326
0.882576 -0.385734 6.2869
0.738988 -0.993289 7.37828
0.656102 -0.235811 5.93973
0.84582 -0.319986 6.26426
1.08312 -0.531703 6.65169
0.90688 -0.640464 6.81665
0.802616 -0.716468 7.13479
0.90552 -0.664737 6.86102
0.683884 -0.124762 6.0117
0.509944 -1.06831 7.61568
0.830408 -0.479133 6.99046
0.892557 -0.611464 6.86201
0.834959 -0.274095 6.80592
0.694925 -0.123978 6.11497
0.668425 -0.954954 7.46799
0.680887 -0.0990134 6.09447
0.599019 -0.998709 7.54844
1.45113 -1.15219 6.28312
0.517813 -1.01143 7.61723
0.766843 -0.142106 6.35538
0.519601 -0.985165 7.61486
0.597727 -0.918062 7.50524
1.03177 0.503822 7.1313
0.761783 -0.722342 7.31561
0.682011 -0.91856 7.44299
0.533844 0.134665 6.01513
0.45695 -0.947197 7.75849
0.594435 -1.14222 6.03317
0.470094 -0.927358 7.73315
0.925281 -0.442892 6.09846
0.725015 -0.835459 7.36895
0.460488 -0.864657 7.72711
0.467824 -0.744307 7.55895
0.50671 -1.00593 7.64045
-0.26518 0.00686789 6.8785
0.708998 -0.624474 7.3483
1.08844 -0.4927 6.64909
1.00721 0.0128289 7.71032
0.339274 -0.850551 7.85417
1.07544 -0.434357 6.63988
0.300237 -0.443734 9.52402
0.763115 -0.0380512 7.52298
0.768064 0.0490502 7.49672
0.692944 -0.277449 5.97392
0.802368 0.518725 7.57873
0.743276 -1.08444 7.32534
0.608752 -0.946777 7.50901
0.71814 -0.0430842 7.63269
0.840023 0.577731 7.39939
0.814609 0.576967 7.41526
0.814424 0.579111 7.47801
1.41917 -1.40411 6.10463
0.558434 -1.02716 7.62574
1.64507 -1.47349 6.57366
1.26838 -1.83842 6.49601
1.14121 -1.86485 6.58933
1.21525 -1.04333 6.07699
1.08378 -1.45806 5.83346
0.694992 -1.80122 6.44249
1.52972 -1.66742 6.63066
1.2684 -1.61384 5.9814
1.4405 -1.65577 6.3289
-0.240695 0.236874 6.29021
0.776682 0.0802117 7.44471
1.55614 -1.32922 6.33163
1.14317 -1.86167 6.60306
0.850386 -0.191924 7.00789
0.736797 -0.0236923 7.5676
1.13964 -1.1156 6.80735
0.865849 0.20771 7.13488
1.46001 -1.20721 6.18236
0.466652 -0.865413 7.6766
0.634286 -1.04679 7.51619
1.63986 -1.35148 6.45532
1.36503 -1.75287 6.52037
0.86919 -1.92173 6.38221
1.2306 -1.16645 5.9816
1.57079 -1.62133 6.68943
1.65465 -1.41036 6.48414
1.5658 -1.61677 6.71823
1.59267 -1.25072 6.41153
0.919035 -0.038038 7.82087
0.701503 -1.27972 7.32487
1.05193 -1.77823 6.69451
0.882854 -0.443401 5.9657
0.73631 -1.17501 7.336
0.625046 -1.7383 6.37279
1.36405 -0.999871 6.23142
0.928297 -0.477654 6.30042
0.797356 -1.78346 6.56761
1.10649 -0.948081 6.11361
0.930373 -0.478542 6.31284
0.614148 -1.72882 6.35927
0.715277 -1.01897 7.41295
0.752948 -0.945516 7.3677
0.269319 -0.960524 6.68596
0.324228 -1.14929 7.80899
0.89298 -0.591419 6.1297
0.267923 -1.13222 7.92244
1.01278 -1.75812 6.72797
0.416002 -0.963512 7.79456
0.825826 0.131504 7.47986
0.771736 -0.0677202 7.5328
0.77125 0.00325431 7.45893
0.815128 0.127524 7.29387
0.478113 -0.191849 5.79597
0.7102 -0.0117868 7.60375
1.08244 -1.72824 6.82107
0.701452 -0.270275 5.99183
0.762414 -1.71767 6.63735
0.450897 -0.144068 5.7727
0.79969 -1.71443 6.71065
0.796821 -0.683313 7.1279
1.04877 0.108378 7.89426
0.396854 -1.2973 6.83385
1.24332 -1.67018 6.93417
0.700827 -0.311049 6.00698
0.985445 0.054523 6.64541
0.62062 -1.17733 5.9649
0.8658 0.591822 7.4154
0.547416 0.0764145 5.9216
1.29513 -0.909558 6.23261
1.39783 -1.76081 6.33724
0.360784 0.218421 5.81116
0.61143 -1.61348 6.64539
0.670282 -0.0890792 6.04027
1.32506 -1.7783 6.53909
0.609165 -1.59887 6.6646
0.701036 -0.723345 6.33268
1.59417 -1.61949 6.6822
1.11509 -0.44081 7.12005
1.13554 -1.24054 6.76001
1.21965 -1.1295 6.66009
0.789995 0.101025 7.4236
0.720722 -1.04087 7.3985
0.741837 -1.18241 7.3068
-0.0340874 -0.42423 6.616
0.855594 -1.57445 6.91888
1.47507 -1.22492 6.19453
0.395791 -1.05338 7.81018
0.704401 -1.02763 7.4364
0.401936 0.246253 5.87715
0.756197 -0.737214 7.32114
1.47007 -1.28187 6.13323
1.13583 -0.996213 6.76242
0.990654 -0.00453992 7.78392
0.470194 -0.859078 7.66288
0.593878 -1.53379 6.73551
0.815446 0.0137987 7.38405
0.84035 -1.85711 6.50419
0.935666 0.597199 6.58623
-0.304634 -0.119339 7.19214
0.807211 -1.2346 7.166
0.846741 0.578223 7.41105
0.841556 -1.24347 7.2714
0.552648 0.0963363 5.93843
0.980552 -0.519484 6.33294
1.60054 -1.60692 6.547
1.64341 -1.4232 6.54624
0.654858 -1.72162 6.26214
0.247844 -1.20774 7.04662
0.891366 -0.0255665 6.6785
0.382769 -1.26876 7.33957
1.44548 -1.54771 6.24394
0.795785 0.585864 7.43324
0.929898 -0.394751 5.99921
1.4623 -1.42453 6.18601
1.42785 -1.64423 6.26487
1.43271 -1.67954 6.3676
1.44915 -1.54528 6.23491
1.05004 -1.09429 6.86475
1.09801 -1.0561 6.83446
-0.0902613 -0.895677 7.0551
1.21805 -1.17098 5.96909
0.743915 -0.932354 7.38113
0.128952 -0.774569 6.55154
-0.0758468 -0.952865 6.96609
1.6146 -1.27475 6.42702
0.223192 -1.22552 7.96826
0.0440765 -0.701876 6.664
0.304159 -1.26315 7.53453
1.59532 -1.23398 6.38526
0.737646 -0.805898 7.35708
-0.0813554 -0.925124 7.00948
0.391937 -1.02752 7.83429
0.272991 -1.2556 7.57526
-0.259601 0.0101146 6.63204
0.51822 -0.799049 7.50408
1.51978 -1.30689 6.25975
0.482009 -0.815594 7.56342
0.462196 -1.08352 7.68052
-0.0335639 -1.05044 7.55146
-0.0986617 -0.907401 7.04576
1.17863 -1.01498 6.07738
0.653333 0.467264 6.57149
-0.0659647 -0.930231 7.10594
1.32702 -0.96888 6.21353
1.62513 -1.52246 6.45426
0.22643 -1.22368 7.68514
0.174978 -1.24104 7.60326
0.999148 -1.46054 7.17946
0.976584 -1.46165 7.24795
0.686644 -0.783511 7.4033
0.607203 -0.625243 7.56034
0.258706 -1.24064 7.61803
0.214746 -0.831313 6.50428
-0.292598 -0.122819 7.65054
0.835502 -0.731627 7.07864
0.809532 0.0824155 7.298
0.144424 -0.269786 6.28223
0.122558 -1.23257 7.58833
0.890802 0.666906 7.22309
0.805111 0.0529362 7.54737
0.791894 -0.771251 7.28745
0.0618763 -0.885623 6.50907
1.48685 -1.6734 6.77368
-0.107238 0.444753 6.02622
1.10423 -1.26486 6.79324
0.199406 -1.18946 7.73366
-0.492242 0.0535112 6.941
1.05295 -0.427496 6.56192
0.950186 -0.980106 6.93099
0.0343534 -1.08605 7.94166
0.907183 -0.376124 6.13857
0.570763 -0.146972 7.71034
1.07709 -1.272 6.80502
1.10343 0.764965 6.63066
0.804107 -0.466679 7.04335
0.77003 0.0224895 7.48747
1.53048 -1.62153 6.76061
0.788878 -0.758932 7.29393
1.00674 0.0688773 7.69349
0.434018 -1.0556 7.76067
0.950939 0.473569 7.6855
1.38743 -1.76238 6.73592
1.38073 -1.76007 6.38221
0.885422 0.3493 7.12026
0.774777 0.147284 7.3478
0.646039 -1.04298 7.50288
0.748878 -0.309829 7.13411
1.05984 -1.02365 6.85286
0.831436 -0.470529 6.95171
0.844355 0.214981 7.17389
0.843159 0.213324 7.27097
0.848414 -1.78284 6.60293
0.720264 -1.07135 7.40197
1.19058 -1.161 5.96435
0.781577 -1.77395 6.57669
-0.243448 -0.916461 10.5812
1.21065 -0.995619 6.67117
0.961582 -1.75545 6.73745
0.786211 0.133672 7.38097
0.877227 -1.04545 6.67375
0.637314 -1.72407 6.47704
0.864615 0.400213 6.88314
0.423771 -0.0566101 5.78792
0.48442 0.0795413 5.94694
0.0383169 -0.348961 6.5466
1.42963 -1.69652 6.46538
1.39679 -1.7179 6.21623
1.14541 -0.928006 6.128
1.07282 -1.36749 5.83009
0.487715 -1.55876 6.40587
1.21965 -0.921417 6.15945
0.632533 -1.37889 7.32858
0.370463 -0.0510511 5.81744
1.60653 -1.36321 6.41251
1.33186 -1.14284 6.0758
1.12852 -1.82391 6.62024
1.40632 -1.10573 6.18708
0.87407 -1.24778 5.85402
0.322826 -1.24159 7.69392
1.57958 -1.32376 6.36117
1.47313 -1.28411 6.1441
0.592619 -0.272824 5.89509
1.31388 -1.19899 6.05283
1.6273 -1.32321 6.46971
0.763666 -0.525633 5.94218
0.827456 -0.31151 6.89731
1.50248 -1.64513 6.78277
0.185011 -1.24632 7.31369
0.5031 0.120699 5.88784
0.715508 -0.0622746 7.59125
0.995817 0.173409 7.56108
0.982142 -1.19004 5.91239
0.395961 -0.531061 6.00023
0.0365004 -0.639413 6.63067
0.391196 -1.19214 7.67731
0.919309 -1.18932 5.88073
0.364459 -1.2039 7.70036
0.473166 -0.916392 7.71958
0.76275 -1.86676 6.35693
0.933535 -0.0994322 6.99316
1.52815 -1.15831 6.38571
0.276901 -0.488325 6.01557
0.531025 -1.6446 6.37507
1.45271 -1.17664 6.27118
0.941483 -1.19017 5.89611
0.435173 -1.16173 7.65791
0.141695 -0.432559 6.32479
1.436 -1.58589 6.21638
0.912574 -1.15948 5.89564
0.866654 -1.13234 5.90011
1.3067 -1.12192 6.10058
0.528371 -0.489279 5.91352
1.08048 -1.31375 5.86121
0.802783 -1.05434 5.91019
0.995676 -0.354185 6.05427
1.63785 -1.52869 6.60614
1.54679 -1.34449 6.24177
1.01105 -1.04701 5.99073
1.63879 -1.3711 6.48575
0.51426 -0.388532 5.90353
1.27493 -1.09294 6.08342
0.184169 0.737698 6.45882
1.02423 -1.03072 6.0071
1.59092 -1.19487 6.33297
1.05295 -1.0261 6.02305
1.09511 -1.10441 5.97702
1.04292 -1.02439 6.01629
0.688257 -0.8444 6.32535
0.714676 -1.01195 5.95344
1.05305 -0.975853 5.99686
0.791488 -0.301356 7.39212
0.772296 -0.998199 5.96616
0.762185 -1.05914 7.2921
0.554511 -0.968014 7.59567
0.50763 0.0771692 5.90482
0.39752 -0.952623 6.39661
1.08972 -0.903724 6.11233
1.34256 -1.36575 5.98774
1.62888 -1.27704 6.36428
0.0407085 -1.12664 7.2683
1.04038 -0.927515 6.09185
1.18262 -1.57671 5.90195
0.869072 0.294519 6.97913
0.926407 -0.393114 6.11578
0.162064 -0.178094 5.86494
0.156655 -1.10074 7.80429
1.36663 -1.21022 6.0367
0.760959 -0.381258 6.02066
0.924642 -0.428412 6.17858
0.764192 -0.412979 6.03521
1.10443 -1.93557 6.48148
1.15625 -1.8409 6.60183
1.33286 -1.13046 6.08432
0.78992 -0.00730474 7.49586
0.560874 -0.929683 7.57262
0.419128 -0.903736 7.79594
0.103387 -0.446207 6.37072
0.851028 -1.23767 5.89163
0.857597 0.35855 7.10926
0.808995 -0.259291 6.15957
0.3352 -0.0184062 5.73086
0.00217928 -1.05915 7.90405
0.590816 -0.276778 5.877
0.443091 -0.179334 5.80885
1.52415 -1.44944 6.24443
0.882012 -0.136204 6.31338
0.928932 -0.433211 6.37564
0.639466 -0.075543 5.95897
0.629762 -0.0545586 5.95163
0.427188 -0.0263565 5.7624
0.788867 0.114234 7.42432
0.527692 -0.883694 7.57861
0.811845 -0.32042 6.97096
0.498958 -0.999336 7.66906
1.59524 -1.45432 6.37746
0.381767 -0.124955 7.82829
0.430286 -1.2633 7.29361
0.661831 -0.186289 5.97061
1.43704 -1.13042 6.24494
0.929869 -0.0491747 6.48531
-0.415074 0.286003 6.71796
0.786145 -1.77683 6.56959
0.385499 -0.00049742 5.74539
1.28998 -1.74591 6.7882
1.09906 -1.3503 5.866
-0.0294658 -1.03124 6.90811
1.39683 -1.1908 6.0901
0.741309 -1.17505 7.27023
0.837685 0.356777 7.05312
1.07357 -1.4288 5.84107
-0.273544 -0.00380746 7.06562
0.819768 -1.9258 6.30785
0.497275 -0.112299 5.78978
0.644609 -0.748487 6.12658
0.522144 -0.233891 5.82979
0.893299 -0.15954 6.3025
0.834307 -0.136624 6.79363
1.35708 -1.59959 5.99001
1.56664 -1.63098 6.7038
0.00386977 -0.764015 6.57676
0.255851 0.267239 5.80908
0.5653 -0.906636 7.53984
0.425523 -1.14285 7.66171
1.36218 -1.79011 6.24419
0.789364 -0.981222 5.98659
0.688814 -1.57552 6.01577
0.684836 -0.249921 5.9894
-0.82346 1.38194 4.47362
-0.255768 -0.174714 7.56694
1.45793 -1.31018 6.11455
1.00505 -1.08063 5.95609
0.293296 -0.171791 5.78136
1.29343 -0.943457 6.32591
0.0755085 -0.257473 6.47061
0.942844 -0.210476 6.22467
0.367153 0.185159 5.82448
0.591719 -0.310069 5.91797
0.317907 0.239888 5.77082
0.14529 -0.182909 5.86252
0.182102 0.303894 5.78675
0.356204 -0.0758645 5.76933
0.664617 -0.219433 5.93984
0.897859 -0.0515973 7.90933
0.39751 -1.15393 7.73825
1.20861 -1.30912 5.8918
0.651488 -0.546389 7.44645
1.26695 -1.12579 6.02257
0.372957 0.118604 5.88324
1.60055 -1.30939 6.40667
1.10192 -1.39606 5.88441
0.818848 -1.01382 5.96454
0.43752 -1.06682 7.7554
1.45462 -1.18284 6.24292
0.879885 0.0551853 7.15423
1.10227 -1.37019 5.88698
0.676015 -1.18828 7.43733
1.42971 -1.65476 6.22145
0.535506 -0.369673 5.90101
0.384468 -1.14225 7.72707
0.831904 -1.05112 5.90782
0.625491 -1.37 6.77259
1.61522 -1.25005 6.38777
1.36273 -1.07972 6.15408
0.885831 -1.14912 5.89338
0.809544 -0.725186 6.42304
0.0986474 -0.740285 6.63847
0.998138 -0.979678 6.02688
1.24974 -1.10451 6.04234
0.983281 0.494645 6.79096
1.19268 -0.916606 6.14579
0.634083 -0.0774825 7.70554
-0.116976 -0.893767 7.09688
0.926581 -0.44726 6.07877
1.41281 -1.66916 6.31798
0.619792 -0.25535 5.91376
1.55078 -1.17839 6.30135
0.467551 -1.27542 7.22054
-0.079831 -0.937815 6.98284
1.11675 -0.883711 6.13735
0.645302 -0.192605 5.93433
-0.295253 0.230387 6.66874
0.511292 0.0843735 5.97831
0.32675 0.0249789 5.78542
0.798375 -0.608194 5.99979
0.90477 -0.165279 6.29071
1.46489 -1.71136 6.72072
1.37911 -1.77602 6.34369
0.424404 -0.0753194 5.76995
1.35975 -1.79683 6.3959
0.457601 0.000556966 5.78457
0.525071 -1.10577 7.55111
1.34756 -1.79768 6.42367
0.284111 0.21226 5.79954
1.55931 -1.64166 6.63691
1.37688 -1.13764 6.11767
0.509953 -0.956166 7.62503
0.91456 -1.15881 5.92387
1.25619 -1.81551 6.56544
0.283062 -0.190091 5.97409
0.464009 0.102722 5.89545
0.825352 0.166042 7.48961
0.318548 0.00985872 5.73
-0.409917 -0.0899432 7.07543
0.906692 -0.351141 6.08844
0.45537 -0.0747922 5.77915
0.406356 -0.00475219 5.80157
0.469138 -1.24498 7.41723
-0.00296413 -1.04733 7.933
0.479524 0.0276617 5.83712
0.837123 0.279769 7.43966
0.930041 -0.415204 6.15872
0.536474 0.0429009 5.87875
0.526533 -0.0748742 5.8664
1.41093 -1.32845 6.06042
0.798893 0.053833 6.40741
0.880365 -1.71277 6.01529
0.462818 -0.727118 7.56387
-0.141516 -0.930363 6.89677
0.312175 0.104302 5.78566
0.915921 -0.655197 6.74809
0.724212 -1.11519 7.38816
1.36319 -1.16467 6.05615
0.353572 -1.11498 7.79081
0.402816 -1.03087 7.80453
1.49783 -1.68672 6.6683
0.985738 0.341783 6.74234
1.38995 -1.69429 6.83738
1.30688 -1.14345 6.0803
1.16848 0.533014 6.92354
0.651735 -1.35873 7.30672
0.929667 -1.50135 5.84536
0.439322 -0.0692593 5.80284
0.186898 -0.728887 6.43646
0.912024 -1.79175 6.68085
0.619069 -0.976052 7.50983
1.17006 -0.98049 6.12084
0.982569 -0.972064 5.99259
0.229607 -0.669902 6.24784
-0.0223846 -1.05271 6.88644
0.647021 -0.0893715 6.23312
1.26296 0.345202 7.16359
0.719849 -0.804059 7.37662
0.820296 -0.303977 6.94253
0.503397 -0.333688 5.89969
1.66047 -1.48443 6.53357
0.650538 -0.0939104 6.41931
0.596359 -0.500591 5.96095
2.30096 0.777654 7.56149
0.730645 -1.17907 7.34752
-0.425369 -0.0794166 7.20151
0.307226 0.126696 5.79672
0.900055 -1.70528 6.00824
0.71596 -1.77986 6.52701
1.2419 -1.76073 6.05388
1.3244 -0.964476 6.19212
1.05033 -0.913195 6.11207
0.792638 -0.950982 5.99002
0.325845 -0.551884 6.04825
-0.0832515 -0.911861 7.10109
0.49495 -0.0186897 5.77231
0.962407 -0.313679 6.08055
0.668202 -1.15416 7.46366
0.822443 -0.254162 6.41408
0.446594 -1.08305 7.71755
0.0388024 0.518561 6.1476
0.317289 -0.984935 6.37974
0.802446 -0.988079 5.98016
0.560426 0.0318352 5.9552
0.906406 -0.385987 6.40233
1.02573 -0.616763 6.54399
0.813291 -0.458895 5.91074
0.891628 -0.379051 6.3726
0.831524 -0.29928 6.27824
0.718407 0.59428 6.46348
0.142314 -1.14568 8.02308
0.838532 -1.42095 5.85503
0.52135 -1.04141 7.61613
0.682528 -0.114663 6.0462
0.390804 -0.832255 7.77866
1.06737 -0.871772 6.06884
1.52217 1.15201 6.51379
0.483084 -0.350232 5.91987
1.33991 -1.81828 6.36671
0.731944 -0.265589 6.03699
1.0149 -0.298535 6.15181
0.0935165 -0.270647 6.42268
0.72458 -1.14048 7.34415
0.0598126 -0.698445 6.75057
0.734526 -1.76226 6.5625
1.61359 -1.46852 6.41108
0.0430696 -1.16803 7.56032
0.739841 -0.305655 6.07601
1.29293 -1.25677 6.02063
0.0607431 -0.151793 6.07347
1.52182 -1.30605 6.27883
0.299723 -0.162512 5.83821
0.624561 -1.05435 7.52494
1.62309 -1.32259 6.48785
1.70883 0.760123 7.35008
0.341374 -1.14352 7.82509
0.678621 -0.132774 6.0163
0.919614 -1.47125 5.8428
0.858241 0.259763 7.15234
1.11571 -1.12387 5.95017
0.569682 -0.229271 5.88561
1.33434 -1.29487 5.99245
1.36908 -1.79334 6.27123
1.33734 -1.52173 5.94107
1.11295 -0.481439 6.46634
1.04348 -1.51569 7.17469
0.210759 -0.238244 5.92166
0.813897 -0.120805 6.24731
1.22258 -1.0989 6.64664
0.441199 -0.124386 5.75942
0.959314 -1.14672 5.94559
1.42688 -1.67518 6.26034
0.721095 -0.759529 6.31948
0.268208 -0.188214 5.85808
1.22888 -1.05167 6.07807
1.32246 -1.82763 6.42152
0.618162 -0.103434 5.92332
0.787927 -0.0567259 6.39473
0.40341 -0.801884 6.42225
0.673048 -1.2017 7.46755
0.507911 -0.280593 5.83032
1.36521 1.39934 6.01315
0.723202 0.458101 6.48993
0.355356 -0.785825 6.44383
0.667139 -1.19629 7.47307
0.537426 -0.26909 5.84226
0.645205 -1.58237 6.01419
1.41964 -1.13665 6.17083
0.546612 0.511521 6.32251
0.278303 -0.782225 6.46018
0.652698 -1.15856 7.5055
0.551068 -1.42106 6.0913
0.881848 -0.0129862 7.26659
0.684228 -0.10072 6.03014
0.19916 0.714169 6.40926
0.9058 -0.690673 6.80055
0.40387 0.00584323 5.7361
0.370478 -0.757425 6.37102
1.35027 -1.80039 6.40213
0.922408 -1.15236 5.90422
1.25407 -1.06887 6.07799
1.27504 -1.62797 5.97062
0.831756 0.038865 7.34818
0.210571 -0.684126 6.34865
0.873721 -0.112302 6.4281
1.63632 -1.34647 6.4567
1.33279 -1.27473 5.99783
1.06242 -0.866269 6.10848
0.518267 -0.287109 5.88319
0.281626 -0.456665 6.02608
0.769518 -0.996054 5.98946
0.413393 -1.26794 7.30896
0.709103 -0.755431 7.39103
0.356434 -0.61092 6.12838
0.688186 -0.111943 6.12322
0.926107 -0.790249 6.68167
1.13524 -1.22124 6.76846
1.00001 -1.18851 5.92031
0.401894 -1.18234 7.68118
0.332797 -0.410386 6.00556
0.335176 -1.00646 7.85986
1.51523 -1.29545 6.24349
0.731386 -0.676 7.36341
0.021178 -1.04142 7.78987
0.038663 -0.28763 6.48537
2.54848 1.27274 6.80942
0.356922 -1.03442 6.43602
1.35693 -1.04745 6.19205
0.45066 0.0142733 5.83404
0.909546 -0.675707 6.79696
0.753793 -0.408388 6.02806
1.54663 -1.61516 6.75209
0.372371 -1.18562 7.7042
0.325232 -0.410986 5.98067
1.3322 -1.80101 6.43252
1.61415 -1.51995 6.82131
-0.409896 0.0621667 6.82961
0.661368 -0.0872519 6.16267
0.386147 0.169976 5.89826
0.588639 -1.03232 7.58823
1.47099 -1.24068 6.46005
0.569797 -0.311835 5.92555
0.649366 -1.01752 7.4881
0.715836 0.611422 6.45214
0.702579 -1.584 5.98693
0.757309 -1.11849 7.28224
0.808764 -0.748474 6.43772
1.42486 -1.67144 6.2908
0.508148 -1.4047 6.14104
0.687099 -0.725085 7.38552
0.670238 -1.0843 7.47748
0.503346 -1.36901 6.13382
0.820967 -0.0828382 6.52861
1.43624 -1.61011 6.22786
0.913081 -0.406895 6.05575
0.339486 0.0775712 5.8401
1.34829 -1.07784 6.14135
1.19091 -1.91909 6.35137
0.707769 -1.2134 7.36137
1.07196 -1.52158 5.87498
0.814289 -0.235186 6.89764
0.648291 -1.0622 7.49842
0.183926 -0.828089 6.49863
1.13854 -1.84253 6.60786
1.49301 -1.3317 6.15943
0.71912 -0.0802616 7.62774
0.831016 0.190275 7.10297
0.305439 -0.432934 6.02999
0.911487 0.431194 6.89109
0.883545 -0.699143 6.94606
0.654225 -1.15306 7.48095
0.101444 -1.2156 7.31292
0.33007 -0.118043 5.82072
0.688489 -0.968559 7.45848
1.1175 -0.887002 6.0755
1.31625 -1.21007 6.05248
-0.0813444 -0.93748 7.00067
0.374696 0.194313 5.86661
0.985815 0.0158237 6.54214
0.720827 -1.68566 6.63515
0.814211 -0.162184 6.26637
-0.348355 -0.00599047 7.19277
0.417691 -0.942398 7.8165
1.07042 -0.98639 6.05956
1.13391 -0.967823 6.09782
0.0849916 -0.703226 6.6323
-0.325675 -0.159188 7.47325
1.23955 -1.57634 5.93467
-0.234466 0.104592 6.48921
0.437073 -0.921868 7.78411
1.43948 -1.41105 6.14996
1.02706 -0.838381 6.16821
1.2261 -1.8188 6.0942
1.15217 -0.96741 6.10673
0.403291 -1.04606 7.79267
1.30971 -1.3253 5.95369
0.873553 -1.45731 5.86658
1.42818 -1.6948 6.45289
0.858085 0.327087 6.90549
0.09464 0.441777 6.26127
1.11487 -0.940306 6.10738
0.546994 -0.388008 5.93595
0.894625 -0.0458574 6.745
0.668923 -1.1659 7.45472
1.52009 -1.14449 6.37271
0.208724 -1.20195 7.71432
1.16239 -0.949432 6.12198
0.86917 -0.224206 6.0964
0.447196 -1.12208 7.65643
0.838204 -0.683958 6.48365
0.475998 -0.971258 7.72402
0.264716 -0.156918 5.83581
0.126545 -0.402817 6.35231
1.35057 -1.3244 6.04857
0.592693 -0.48523 5.92612
0.633652 -0.990414 7.49692
0.57315 0.0758302 5.99493
0.258879 0.321983 5.9987
0.0706327 -0.329565 6.39352
0.445666 -1.04791 7.76616
0.782026 0.396239 6.68104
0.573495 -0.286035 5.91631
0.879094 -0.104668 6.64959
0.339514 -1.20018 7.71437
1.45025 -1.61972 6.34398
0.881207 -0.227955 6.18106
1.41126 -1.16915 6.12909
0.893441 0.311754 6.9462
-0.0436356 -1.00378 7.89101
0.580972 -0.63513 6.02101
0.946417 0.513994 7.01934
0.902671 -0.143943 6.32059
-0.284497 0.0442412 6.90423
0.887278 -1.91811 6.44024
0.689275 -1.11872 7.473
0.385215 -0.0112052 5.74786
0.526423 0.0683635 5.91001
1.30095 -1.84317 6.39167
0.838896 -0.710673 7.03568
1.60011 -1.58845 6.53841
0.946178 -1.11584 5.90444
-0.0124025 -0.579297 6.86513
1.28053 -1.3467 5.93835
0.0963471 -0.857153 6.77768
0.210879 -0.254562 5.91385
1.14648 -1.86873 6.58998
0.579227 -0.474457 5.95766
0.39272 -0.086525 5.77124
1.27272 -1.7953 6.57528
1.16022 -1.05827 6.01112
0.928914 -1.16183 5.90081
1.49368 -1.31451 6.16508
1.63394 -1.57387 6.61121
1.38139 -1.36063 5.99632
0.800063 -0.789074 7.29001
0.550683 -1.32767 6.13424
0.832303 -1.55673 6.92668
1.44695 -1.29264 6.10052
1.11674 -0.971484 6.08554
0.828038 -0.22336 6.16879
0.788463 -0.259059 6.11915
0.926437 -0.51508 6.27302
1.49464 -1.68295 6.67922
0.773423 -0.14154 7.26417
1.19538 -1.66984 6.94466
1.48638 -1.39652 6.18436
0.891525 0.59933 7.42046
0.894568 -0.413617 6.21758
0.886431 -1.93531 6.38687
0.902641 -0.404288 6.32866
1.56802 -1.2774 6.36867
0.626345 0.0588835 5.99715
0.739103 -0.37077 6.00603
1.14456 -1.33047 5.85597
0.473464 0.155601 5.91284
0.770854 -0.399119 6.04756
0.129752 -0.182061 6.34607
-0.178309 -0.655254 6.87481
0.920268 -0.419572 5.96431
1.02543 -0.887121 6.09323
1.44239 -1.48043 6.14489
0.829534 -0.377113 6.00669
0.435124 0.180341 5.91344
1.44466 -1.50796 6.21717
1.2145 -1.82399 6.57573
0.725518 -0.282427 6.02824
-0.656793 -4.62082 17.6632
1.4403 -1.52497 6.18537
0.906576 -0.032574 6.63399
1.12348 -1.83944 6.61741
1.40141 -1.11568 6.16121
0.919597 -1.09738 5.90089
0.111273 0.436048 6.09964
0.821229 -1.30924 5.87158
0.550396 -0.831281 7.47388
0.445777 0.0280606 5.82863
1.23461 -1.09431 6.03674
0.642109 0.617812 6.47647
0.0687704 -0.660735 6.63348
1.40226 -1.75599 6.32798
1.32753 -1.17531 6.02495
1.24753 -1.15173 6.6298
1.09538 -0.933837 6.11141
1.2271 -0.904701 6.18864
0.843983 0.241982 7.19999
0.00172236 -1.11888 7.54114
0.905268 0.439331 6.88287
0.407448 -1.10091 7.72348
0.772873 -0.930802 6.05225
0.983516 -0.884281 6.08428
0.00793957 -1.12201 7.55437
0.842698 0.275235 7.44639
0.610099 -0.937014 7.49387
1.46475 -1.50538 6.14055
0.442794 -0.245049 5.79013
0.545867 0.0610656 5.89383
0.560369 -0.069456 5.88473
0.477941 -0.742206 7.4757
0.626235 -1.30908 7.05286
0.748859 -1.02869 7.31868
0.569238 -0.21889 5.86414
0.84753 -0.262693 6.14334
0.940293 -0.0294809 7.96559
0.865088 -0.189862 6.11393
0.782258 -0.152978 7.17382
0.519333 -0.880814 7.58457
0.393965 -1.26288 7.36997
0.790318 -0.12685 6.25949
0.384936 -0.0983495 5.82617
0.761747 -0.783525 7.35538
0.792838 -0.990425 5.97636
1.10362 -1.23371 6.80068
0.836374 0.215692 7.17957
0.27741 -0.211108 5.8741
0.984823 -0.457863 6.28129
1.43581 -1.12866 6.26559
0.652872 -0.453371 5.88335
0.571917 -1.00871 7.58251
0.633983 -0.257115 5.92529
0.481563 -0.868471 7.70621
0.38219 0.209743 5.88807
0.615053 -0.119431 7.78521
0.732934 -1.029 7.38652
1.63435 -1.35923 6.49352
1.47699 -1.50587 6.28519
0.36957 -0.933422 7.8379
0.913576 -0.0165511 7.95732
0.478954 -1.01181 7.70441
1.19491 -1.29496 5.91611
