0.518319 -0.309105 5.87754
0.6087 -0.89599 7.48054
0.666467 -0.0819316 6.1623
0.907455 -1.1179 5.89512
0.751448 -1.61325 6.78484
1.51191 -1.68698 6.6264
1.01797 -1.16785 5.89254
1.25084 -1.07156 6.08034
0.870494 -1.7763 6.65613
0.758992 -0.609515 5.98927
0.993268 0.473756 7.12151
0.7863 -0.0332959 7.46269
1.33158 -1.13215 6.08572
0.871352 0.445722 6.80249
0.722226 -1.83419 6.34205
0.825445 0.205558 7.27194
0.295991 -0.948611 7.95749
0.229864 -0.916337 6.61664
0.941754 -0.538624 6.33113
-0.0767677 -0.930561 7.00914
0.710655 -1.21434 7.36271
1.4515 -1.20161 6.16676
0.899428 -0.388939 6.40158
0.395821 -0.828998 7.78269
-0.215173 0.243826 6.3048
0.279798 0.20769 5.80837
0.830516 0.250082 7.20096
0.802021 -0.466997 7.04241
0.285067 -1.22695 7.03755
0.408037 -0.54564 6.00466
0.614446 0.0258704 5.97286
1.59254 -1.6021 6.68511
1.40974 -1.71975 6.32616
1.28983 -1.09249 6.52412
-0.0217881 -1.02798 7.77614
1.32418 -1.34532 5.96784
0.909516 -0.632109 6.81543
1.44283 -1.57556 6.20467
0.867509 0.339023 6.91875
0.920772 -0.0209349 7.95173
0.923344 -0.708722 6.92706
0.611939 -0.986363 7.52199
0.240452 -0.561015 6.24994
1.33298 -1.29541 5.99397
0.0520042 -0.663321 6.70093
1.35726 -1.1431 6.09103
0.739846 -1.01758 7.35706
1.62749 -1.58228 6.62473
0.135969 -0.344066 6.33235
1.3937 -1.41291 6.03914
0.676318 -1.68224 6.5783
1.64529 -1.49008 6.58209
0.845053 0.235887 7.20227
1.51331 -1.65568 6.75343
1.33653 -1.14625 6.05773
0.426561 -0.0599888 5.78925
1.40529 -1.71891 6.3464
1.43088 -1.71836 6.77269
1.03383 -0.992641 6.02723
0.350048 -1.27154 7.37504
0.793256 0.0840277 7.37719
-0.111249 -0.911183 6.89133
0.0915167 -0.171448 6.08513
0.856174 -1.43635 5.85516
1.0355 -1.64496 6.98207
-0.0774387 -0.631269 6.85232
0.45775 -1.26764 7.2173
0.62826 -0.532012 5.92719
0.575968 0.079032 5.99362
0.91848 -0.431023 6.17707
1.44931 -1.42484 6.15415
0.912259 -0.445432 6.23977
1.45363 -1.541 6.15095
0.491058 -0.982398 7.67531
0.375748 -1.17908 7.71085
0.469713 -0.923158 7.71913
0.795337 0.103717 7.40841
0.251485 -1.23629 7.63741
0.248818 -0.421772 6.03129
0.932716 -1.80739 6.64191
0.858357 0.208111 7.15943
1.36107 -1.08122 6.15535
1.06007 -0.580369 6.63104
0.529055 -0.260902 5.86097
0.68465 -0.969044 7.45443
0.316039 -1.27133 7.51017
0.487303 -0.386392 5.91314
1.06603 -0.482765 6.57017
0.837886 -1.42162 5.85294
1.34987 -1.81728 6.29975
-0.015965 -1.0831 7.64171
1.21106 -0.833792 6.27222
1.48709 -1.69907 6.66579
0.626962 -0.0700532 6.2336
0.484857 -1.11756 7.60883
0.272884 0.242596 5.79625
0.688286 -0.113319 6.04491
1.26653 -1.83424 6.50586
0.833428 -0.200154 6.93329
0.416189 -0.0230666 5.81037
0.676813 -1.26243 7.38359
-0.00383401 -1.04834 7.9331
0.709499 -1.27935 7.10303
0.361793 -1.27053 7.38961
0.475183 -1.44329 6.26811
0.867972 0.136425 7.23121
-0.0468925 -0.943356 7.13299
0.97211 -1.07759 5.93326
1.4504 -1.696 6.79454
0.198017 -0.226687 5.89386
0.609345 -1.32599 7.02123
0.870206 0.505361 7.59845
0.874314 -0.175881 6.33639
0.767275 -1.78028 6.5614
0.314043 -0.535012 6.07791
0.80295 -1.04403 7.24415
1.50328 -1.28964 6.61792
0.745562 -0.86483 7.36165
0.706592 -0.58509 7.39419
1.46555 -1.657 6.81837
0.620653 -1.02437 7.52522
0.729067 0.591772 6.4292
0.632448 -0.207397 5.91083
1.24654 -1.14735 6.61373
0.0872427 -1.28778 7.05001
0.805256 0.0186108 7.40442
0.709948 -1.57538 5.99877
1.00522 -1.82283 6.65007
0.845122 -0.291682 6.8362
1.27671 -1.34824 5.94625
0.172739 -0.235441 5.93154
0.816637 -0.326817 6.93713
0.0741345 -0.542934 6.45106
0.839362 0.126878 7.25516
1.59302 -1.61972 6.5999
1.44675 -1.5323 6.18764
-0.0149783 -0.559975 6.7935
0.593395 -0.48524 5.92878
0.794325 -1.24806 7.19823
1.403 -1.36511 6.05295
1.13215 -1.91431 6.52377
0.668286 0.420177 6.5581
0.946861 -1.49189 5.85926
1.44355 -1.15547 6.21821
-0.212762 0.201189 6.3018
1.05776 -1.7508 6.7873
-0.00866709 -1.09374 7.53901
0.135383 -0.398232 6.3377
0.309653 -0.167159 7.8232
-0.0717105 -0.948746 7.88403
0.288861 -1.24786 7.61653
1.52061 -1.63736 6.76703
0.95071 -0.504847 6.18904
0.354331 -0.0671241 5.75285
1.12667 -1.42115 5.85272
1.32843 -1.01103 6.19569
0.668556 -0.102949 7.67698
0.865099 -0.179435 6.31861
-0.331194 0.0766548 6.76279
0.906742 0.436823 6.88375
0.477303 0.0669845 5.873
1.36798 -1.80003 6.28475
0.639491 -0.532295 5.92691
1.43996 -1.20678 6.14191
0.862318 -1.37256 5.84077
0.873214 0.296812 6.90273
1.25043 -1.81528 6.56199
0.721778 -0.803724 7.37889
0.805976 -0.162964 6.24236
0.230316 -0.892476 8.06181
0.668494 -0.954608 7.46583
0.731845 -0.987259 6.0035
1.12718 -1.85585 6.60367
1.44395 -1.71559 6.74727
0.92038 -0.658653 6.23708
0.893256 0.470276 7.57563
0.0331587 -0.428137 6.51702
1.42018 -1.67271 6.31717
0.334127 0.0371566 5.75613
0.753372 -0.770224 6.35759
0.867192 -1.12435 5.88892
0.818966 -0.428647 6.84558
0.288098 -0.446179 6.00773
0.613993 -1.24117 5.96488
-0.0455579 -0.974306 8.0272
0.163721 -0.188684 5.88003
-0.0210551 -1.02557 7.79665
0.391352 -0.140511 7.80074
0.663687 -0.12817 5.97864
1.356 -1.7747 6.41681
0.172399 -0.964654 8.09365
1.51502 -1.26583 6.21637
1.08271 -1.12882 6.82006
1.32828 -1.72621 6.81178
1.34339 -1.06906 6.146
1.63591 -1.48559 6.48243
0.784064 -0.130513 7.22864
0.615283 -0.0105434 5.95205
0.79326 -0.992753 5.97793
0.997197 0.292431 7.513
0.910593 -0.651914 6.8523
0.604751 -0.677852 7.44015
0.914187 -0.672638 6.7974
0.490954 0.157094 5.93633
0.262501 -0.483534 6.13524
0.955729 -1.51047 5.86297
1.11465 -1.74016 6.82398
0.646529 -1.03257 7.49652
0.723939 -0.0751816 7.60988
0.247643 -0.954957 8.03206
1.51956 -1.31873 6.2267
0.288066 -0.932708 7.99134
-0.204818 0.212352 6.29165
0.872084 -0.16127 6.77743
1.34162 -1.17757 6.04941
0.666723 -1.17268 7.46115
0.343839 -1.27283 7.39365
1.28296 -1.83693 6.46986
-0.144675 -0.593029 6.8616
1.61559 -1.39414 6.42687
0.713015 -1.11581 7.41112
0.648412 -1.0622 7.49852
0.466175 -1.26637 7.22058
0.387408 -1.18843 7.67475
0.175301 -1.23162 7.62374
1.07629 -1.32713 5.85089
0.65615 -1.20806 7.4705
1.42977 -1.23664 6.09902
1.39324 -1.72919 6.44528
1.45545 -1.47773 6.17881
1.45008 -1.17112 6.20789
0.748308 -0.0739993 7.83309
1.45693 -1.16028 6.27703
0.394667 -1.27059 7.40001
0.536828 -0.0692572 7.91608
0.813478 0.0559692 8.07306
1.57791 -1.32426 6.36227
0.866792 -1.89126 6.44678
0.863485 -1.02444 5.92751
1.07537 -0.475243 6.59328
0.224096 -1.21024 7.02535
0.90567 -0.437046 5.96505
0.466242 -0.691218 7.50135
1.493 -1.69594 6.6532
0.807575 -1.23507 7.2438
0.785154 0.0382787 8.08454
0.638473 -1.00305 7.49786
1.55646 -1.37846 6.30764
0.503257 -0.286356 5.86147
0.21955 -0.241562 5.8923
0.805153 -0.258053 7.03739
0.749538 -1.17703 7.27261
1.14336 -1.86208 6.58559
1.03297 -1.09498 6.84734
0.272256 -1.23532 7.66001
1.15969 -1.0592 6.01213
0.651597 -1.01696 7.49048
-0.0985582 -0.245201 7.75971
0.334617 -0.635371 6.1594
0.422339 -1.05583 7.7707
1.43232 -1.62175 6.24201
0.582156 -1.37355 6.92441
0.560172 -0.929966 7.5721
0.950248 -0.392133 6.05512
-0.113929 -0.263095 7.73663
1.09854 -1.9632 6.35736
0.884359 0.149352 7.20915
1.64971 -1.48956 6.52319
1.46495 -1.1899 6.2594
0.916025 -0.137211 6.6418
0.658525 -1.14284 7.48174
0.271562 -1.04039 7.93853
0.342272 0.20558 5.83198
0.715766 -0.903918 7.40517
1.59697 -1.60318 6.67046
0.767871 -0.6675 7.30188
0.796861 -1.41931 5.8637
0.0801298 -0.254236 6.45085
0.207776 -1.23321 7.63023
0.860367 0.268737 7.02877
1.54838 -1.33969 6.31043
0.0808336 -0.222547 6.4478
0.403772 -1.20177 7.62594
0.366661 -1.19597 7.69225
0.706098 -0.13398 7.57785
1.31191 -1.24817 5.99798
0.98325 -0.336037 6.08756
1.53346 -1.33808 6.24924
1.10027 -0.50703 6.64773
1.35303 -1.79897 6.38501
0.627689 -0.608084 7.5578
1.20263 -1.29617 5.90449
0.0553713 0.00217269 5.86304
0.364849 0.208682 5.84722
0.609527 -0.528108 5.93542
0.753897 -0.919241 7.35637
1.63034 -1.44149 6.44303
1.31416 -1.71916 6.81901
1.42705 -1.2761 6.07514
0.466523 -0.279662 5.84211
1.48133 -1.24096 6.2038
1.26733 -0.921949 6.20478
1.63854 -1.42372 6.54628
0.377026 -0.0120942 5.76578
0.413192 -0.149467 5.80509
-0.423178 -0.030157 6.94821
0.734203 -0.743927 6.34298
1.33316 -1.82204 6.38749
1.46041 -1.23861 6.14381
0.911045 -0.368479 6.3705
0.670874 -1.03283 7.47311
0.212231 -0.276446 5.91987
0.62608 -1.0543 7.52633
0.997072 -1.26643 5.86336
0.76141 0.0126946 7.50364
0.74012 -1.72901 6.59795
1.64389 -1.53208 6.54664
0.535183 -1.31817 6.0825
0.49596 -0.998977 7.66745
0.85164 -0.51276 6.95566
0.573156 0.0464767 5.94656
1.63399 -1.56213 6.58419
0.548827 0.0485281 5.88379
0.297197 -0.47544 6.02607
0.225666 -1.05869 7.99052
0.93698 0.485244 6.90988
-0.180171 -0.706098 6.99247
1.24353 -0.946974 6.16624
1.59858 -1.45428 6.37589
0.783219 -0.138359 6.2689
0.677974 -0.959647 7.45932
1.59185 -1.2774 6.38685
0.898192 -1.7085 6.00351
0.618483 -0.887057 7.47252
1.29458 -1.80836 6.47851
0.923848 -0.43736 6.38345
-0.045123 -0.986662 6.90325
0.469346 -1.11185 7.63193
0.0738243 -0.300243 6.44321
-0.30268 -0.11898 7.64178
1.31379 -1.11322 6.09209
1.387 -1.75585 6.36109
-0.0979914 -0.901614 7.0429
0.719506 -1.22888 7.31175
0.842481 -0.969397 6.00761
0.863739 -1.71042 6.05398
1.2443 -1.15705 6.61631
1.0566 -0.690347 6.59735
1.59891 -1.25003 6.40898
0.990582 -1.23383 5.86519
1.3588 -1.16912 6.06006
1.00308 0.0358848 7.7475
0.606293 0.0096599 5.95833
0.435889 -0.0704698 5.77456
1.28876 -1.73913 6.78511
0.502062 -0.730594 7.44619
0.754941 -0.15568 6.223
0.653952 -0.965656 7.47451
0.757189 0.00097919 7.51414
1.62045 -1.32322 6.48822
0.446042 -1.01637 7.74865
1.56814 -1.38329 6.32703
1.38442 -1.77796 6.29719
-0.489752 -0.0285247 7.01761
0.940984 -0.554024 6.187
0.227716 -0.212476 5.86883
0.177518 -0.190651 5.86383
1.45859 -1.23156 6.14678
0.501805 -0.818553 7.54151
1.47491 -1.21483 6.24665
0.656895 -0.198107 5.95013
0.658906 -1.33885 7.32086
1.58132 -1.63101 6.57052
0.200633 -0.40297 6.14968
1.32568 -1.77913 6.53933
-0.308524 0.031203 7.00946
0.527626 -1.3774 6.11167
1.27733 -1.07 6.5335
0.480057 -0.885683 7.68515
0.610321 -0.609247 5.96791
0.393357 -0.951948 6.39008
1.35262 -1.45116 6.0049
0.424611 -1.05108 7.77095
0.966922 0.336323 7.51036
-0.282385 0.177081 6.62514
0.17951 -0.808708 6.48841
0.647103 -1.25862 5.93757
0.848219 -1.21022 5.86965
0.364305 -0.581212 6.07025
1.09011 -0.481819 6.62242
1.0542 -0.949441 6.07673
1.61884 -1.36782 6.38928
1.53228 -1.15679 6.38088
0.888333 0.604205 7.42174
0.679219 -0.0949589 6.13787
-0.0908844 0.413896 6.28891
1.349 -1.76587 6.52392
0.733037 -0.429788 7.33846
0.447547 -0.972838 6.37732
1.42128 -1.70578 6.8127
0.433334 -1.07949 7.72745
0.767625 0.572015 7.57034
1.36122 -1.36559 5.98826
0.912168 -0.682591 6.82967
1.45553 -1.50846 6.1488
0.494187 -1.563 6.39313
0.841842 -0.397361 6.74459
0.232404 -1.22911 7.65326
0.423118 -0.20054 5.8175
1.39125 -1.13276 6.13475
1.51949 -1.39474 6.22088
0.604715 -0.268299 5.90979
1.45706 -1.52782 6.10809
0.684508 -1.17252 7.42981
0.466183 -0.860411 7.67974
0.463044 -1.08592 7.65761
0.0639897 -0.315847 6.44636
1.32542 -1.15199 6.04444
0.88902 0.735929 7.18385
0.831388 -0.284999 6.86375
1.37903 -1.32584 6.03996
1.37215 -1.3417 6.00728
0.189524 -0.524345 6.29975
0.49632 -1.56755 6.40028
0.714992 -0.796749 7.3827
1.02101 0.308234 6.96847
0.0183959 -1.13372 7.57306
0.903871 -1.16318 5.87682
0.742852 -0.0621765 7.55268
1.45738 -1.48265 6.21087
0.0967386 -1.2114 7.57898
1.48214 -1.5087 6.28205
1.62546 -1.53836 6.48352
1.4542 -1.29957 6.09563
0.732632 -0.73486 6.3449
0.870479 0.0800021 7.26705
1.00758 0.0487705 7.77562
0.884708 -0.0109965 7.99487
1.18903 -1.09259 6.00099
0.441572 -1.35747 6.3119
0.79798 0.0975579 7.42327
1.01226 -1.76734 6.73199
0.952622 -0.0647774 7.82406
1.49502 -1.25003 6.27051
0.385012 -1.2612 7.53557
0.166212 -1.25164 7.28926
1.4912 -1.27388 6.18636
0.763988 -0.0566006 6.3868
0.96022 0.353748 7.51622
1.44697 -1.54793 6.24372
1.44059 -1.58679 6.21636
0.722642 -0.676183 7.35596
1.05738 -0.909645 6.09011
0.49098 -0.921204 7.65705
1.46147 -1.18247 6.26382
0.0333008 -1.08733 7.94171
0.751034 -1.0449 7.31797
0.827504 -0.472487 6.97466
0.678365 -1.11746 7.46402
0.77842 -0.59344 5.98867
0.820971 -1.92411 6.30711
1.636 -1.43976 6.45965
-0.0724204 -0.924999 7.06421
0.423525 -1.07072 7.76067
0.704291 -1.1359 7.42253
0.820509 0.0158333 7.38697
1.42084 -1.14732 6.16357
0.338199 -0.122841 5.76465
0.527982 -1.46894 6.68826
1.0754 -0.340804 6.60653
0.302244 -1.24098 7.63846
0.136824 -0.381549 6.3349
0.63223 -0.863184 7.45677
0.609853 -1.71704 6.33384
0.67057 -1.55768 6.01855
0.750172 0.0231446 7.58313
1.50757 -1.27669 6.26593
0.716205 -0.462946 7.40155
0.921351 -0.625731 6.23075
1.09773 -1.09834 5.96993
0.713329 -1.17789 7.37941
-0.115515 -0.883727 7.07223
0.750172 -1.02164 7.32955
1.14201 -1.83587 6.61523
0.39457 -0.739424 6.26126
0.739902 -0.416779 7.13993
0.402415 -1.07365 7.77951
0.828086 0.518114 7.55892
0.450202 -1.02917 7.72545
1.09633 -1.36267 5.8485
1.46561 -1.21004 6.20327
0.924399 -0.385905 6.08843
1.30011 -1.01149 6.17412
1.43716 -1.42134 6.12874
0.885535 0.456449 6.82566
-0.0684513 -0.926368 7.13183
1.00031 -1.58233 5.88438
1.16987 -0.937487 6.1261
1.28783 -1.84479 6.14618
1.0401 -1.5672 5.87792
-0.0412944 -0.426918 6.6098
0.911213 -0.640326 6.8169
0.191284 -0.983848 8.07545
1.16558 -0.945908 6.1143
1.00537 0.0573321 7.80622
0.940912 -1.79727 6.66211
0.783129 0.0784379 7.4449
0.794582 -0.720894 6.41534
1.39607 -1.09151 6.20027
0.816923 -0.107658 7.16722
0.914702 0.462389 6.92461
0.636094 -1.28426 5.94697
1.16588 -0.972679 6.10716
0.493607 -1.55569 6.40609
1.53442 -1.6566 6.66762
0.648119 -0.0861492 6.23227
-0.388616 -0.102813 7.53345
1.48337 -1.27489 6.1682
0.68347 -0.181873 5.99352
0.709635 -0.562735 7.37921
1.56019 -1.20763 6.37106
0.558213 0.0721879 5.93338
1.34381 -1.36973 5.98331
0.78991 -0.758734 7.29496
0.484381 -0.923773 7.68382
0.52856 -0.490152 5.93277
0.625655 -1.73526 6.34129
1.27945 -1.62056 5.96329
1.1564 -1.30396 5.87108
1.13658 -0.890254 6.14982
1.3461 -1.69177 6.87504
1.1366 -0.901546 6.10886
1.08845 -0.500502 6.62269
1.09555 -1.66901 6.95433
-0.111597 -0.889436 7.09644
0.789433 -0.000711343 7.46736
0.924599 -0.402472 6.07992
1.42946 -1.65471 6.22145
0.674298 -1.18772 7.43634
0.0918431 -1.29878 7.05441
1.08103 -0.498064 6.61078
0.444342 0.0250275 5.83373
1.09866 -1.33917 5.84378
0.728448 -1.17848 7.34671
0.686158 -1.30032 7.28667
0.912053 -0.395755 6.1506
0.740745 -0.617815 5.98736
0.884396 0.605297 7.42049
0.785738 0.0535411 7.42074
0.630005 -1.21705 5.94656
1.35439 -1.42057 6.00425
0.0715781 -0.741019 6.60264
0.370503 -1.21596 7.65173
0.647342 -0.0444066 5.98944
0.265194 -1.25622 7.57501
0.397374 -0.779404 6.38739
0.492685 -0.117402 7.81933
0.751811 -1.84644 6.38655
1.37246 -1.76684 6.23009
1.06745 -0.934981 6.07828
0.981264 -1.62723 6.99335
0.397903 -1.16099 7.69728
1.61893 -1.30163 6.45515
0.387157 -1.26528 7.5249
0.84985 -1.70499 6.75994
1.40937 -1.10222 6.2072
1.43729 -1.68593 6.43547
1.55105 -1.31355 6.32948
0.652309 -1.15673 7.48809
0.288595 0.234058 5.81147
0.320844 -0.960845 6.44166
1.05151 -1.25689 5.86697
0.527149 -1.49675 6.67856
1.30459 -1.84784 6.39274
1.09022 -1.27813 5.85418
0.960447 0.505782 7.01446
0.611508 -0.105326 7.70345
1.13105 -0.94897 6.10662
0.689314 -1.18952 7.41186
0.0792173 -1.16905 7.24318
1.40979 -1.21774 6.08
1.31025 -1.1897 6.01302
0.86743 0.355448 7.1094
0.410511 -0.957027 6.37864
0.397272 -0.105831 5.79292
0.97423 -1.7534 6.73979
0.698014 -0.614648 7.39855
0.694033 -1.1955 7.40221
0.69499 -0.238753 5.99176
0.803668 -0.0231709 7.44548
0.461336 -1.41324 6.30513
1.36143 -1.68728 6.8699
0.582299 -0.51591 5.9306
0.61554 -1.14633 7.51968
0.66045 -1.33345 7.32301
0.467834 0.169715 5.92664
0.647851 -1.26248 5.93718
1.43118 -1.72027 6.75881
1.45238 -1.17798 6.20127
0.319745 -1.22955 7.69036
0.769555 0.0328033 7.51612
0.766319 -0.293538 7.11606
1.36113 -1.30449 6.02091
0.446616 -1.26092 7.07417
0.546429 0.0614267 5.89348
1.05074 -0.517001 6.51501
1.05579 -1.25787 6.82322
0.256931 -0.980337 8.01825
0.647126 -0.0433964 6.01007
0.943629 -0.704912 6.92001
0.241742 -1.11186 7.90067
0.191316 -0.804939 6.47693
0.42012 -1.05093 7.7766
1.36536 -1.78034 6.2361
-0.308866 0.049047 6.99602
1.43071 -1.63543 6.19546
0.382912 -0.133525 7.80864
1.44462 -1.15695 6.21946
1.39521 -1.12557 6.14705
1.62257 -1.52279 6.45594
0.00748703 -1.11947 7.58089
0.0619922 -0.94201 6.9479
1.40996 -1.21126 6.08649
0.742855 -1.00785 5.97754
1.07715 -1.72011 6.8537
0.295665 -1.16096 7.80363
0.472292 -0.253328 5.83569
-0.292104 -0.151429 7.54598
0.766353 -0.945858 7.3319
1.02555 -1.56569 5.87716
0.715463 0.426448 6.59448
0.429383 -1.15746 7.65456
0.661734 -0.264771 7.61929
-0.373696 0.0321755 6.76818
0.783288 0.392595 6.6802
0.577477 -0.643036 6.00933
0.111497 -0.353689 6.35455
0.979748 0.519729 7.04067
0.758499 -0.610021 5.9894
0.174587 -0.00580831 5.77024
0.211429 -0.73978 6.42441
0.370738 -0.0905553 5.77209
1.49566 -1.51899 6.30778
1.09435 -0.926202 6.09722
0.916296 -1.16734 5.87588
1.39712 -1.09509 6.19368
1.36696 -1.74816 6.52937
0.784548 -1.02153 7.26626
0.25507 -1.11077 7.87518
0.982246 0.0389448 7.65295
0.637453 -1.02964 7.50665
0.540611 -0.342204 5.9042
0.717766 -0.252169 6.01052
0.821774 -0.0873405 6.97345
1.35904 -1.14232 6.09342
0.390988 0.20431 5.88128
0.894201 -1.74694 6.73926
0.9789 0.488177 7.11335
1.00909 0.0805674 7.65885
0.177389 -0.363977 6.16514
1.59229 -1.2876 6.38602
1.32372 -1.31445 5.98322
0.478265 -0.954019 7.70489
0.810546 -1.29659 5.85415
0.984776 -1.05827 5.95346
0.965422 -0.0433558 7.84162
1.53214 -1.62351 6.76131
0.886548 -1.59224 6.96012
0.872639 0.722114 7.21139
1.62956 -1.5334 6.49502
0.945163 -1.11717 5.90359
1.30429 -1.80791 6.46506
1.50275 -1.19654 6.32828
0.466852 -1.4145 6.26618
0.641764 -0.802832 6.31459
0.292034 -1.23475 7.67631
-0.36902 -0.112404 7.28143
0.921302 -0.629139 6.20638
1.28505 -1.21104 5.98245
0.38485 -1.23065 7.60696
1.04588 -1.01829 6.0083
0.245865 -1.23946 7.62165
-0.0338868 -0.974685 7.34404
1.38067 -1.19517 6.05893
0.450678 -1.06385 7.70972
0.524617 -0.985419 7.61887
0.903291 0.70289 7.17587
1.00441 0.0511334 7.79385
1.45068 -1.71021 6.74755
0.42431 -0.146097 5.79695
0.520534 -1.22053 7.42145
0.153527 -0.173959 5.86917
0.768149 -0.272741 7.09812
0.844637 -0.0901727 6.83388
0.415173 -0.137682 7.78333
0.963019 -1.11912 5.91511
1.42776 -1.21915 6.10847
-0.276959 0.0421471 6.80867
0.399075 -1.05525 7.78847
0.595862 -0.999566 7.54591
0.470089 -1.45137 6.44195
1.0066 0.0642649 7.66548
0.695583 -0.159679 6.04371
0.716863 -1.07105 7.40038
0.607254 -0.0493685 5.94046
0.915799 -0.482282 6.0493
0.626384 -0.635413 7.42159
1.07075 -0.87705 6.10286
0.22639 -0.535495 6.26071
0.253067 -0.951559 8.02571
0.183266 -0.746375 6.4461
1.04681 -0.734236 6.55383
1.63079 -1.57232 6.61137
1.62887 -1.35406 6.45863
0.452806 -1.09309 7.6793
1.433 -1.6806 6.38797
0.727863 -1.62179 6.75608
1.03496 -1.76996 6.73563
0.975429 -1.79868 6.67395
0.460766 -0.938216 7.74707
0.10916 -0.207911 6.03823
1.22128 -1.26454 5.93055
0.860338 0.605099 7.44419
1.61435 -1.29967 6.47676
0.48117 -1.16416 7.57032
0.863603 0.34904 7.05195
0.391081 -1.17177 7.69351
1.29572 -1.78262 6.59221
0.773826 -1.71583 6.66671
0.195413 -1.19572 7.71976
1.51482 -1.19753 6.46901
0.912819 0.072369 7.18394
-0.0100537 -0.591335 6.86534
0.597132 -1.70791 6.36029
0.690927 -1.12096 7.44616
0.545665 -0.387091 5.93866
0.666095 -1.23631 7.42752
0.710751 -0.171718 6.07148
1.49085 -1.24181 6.2721
0.438943 -1.31573 6.27344
0.628785 -0.0550215 5.95239
0.663191 -0.0108309 8.01809
1.00129 0.0263435 7.71306
0.966253 -0.0439419 7.82988
0.12683 -0.369397 6.34168
1.24741 -1.57656 5.93491
0.432453 -0.965704 7.78648
1.20066 -0.932043 6.14394
0.364785 -1.20781 7.68069
1.61023 -1.32371 6.42878
0.783805 -1.78409 6.56571
0.386463 -0.148219 7.79665
1.39591 -1.06715 6.23248
0.282074 -0.414797 5.99413
1.62897 -1.46829 6.44034
0.940164 -0.553081 6.17394
0.527845 0.115742 5.95806
0.695829 -1.31878 5.90248
0.417264 -0.926579 6.36989
1.35935 -1.32799 6.00996
0.572689 -1.28277 6.01024
0.761037 -1.75752 6.58863
0.637587 -1.16633 5.94206
1.4525 -1.63565 6.35015
0.654073 -1.34482 7.3245
1.41937 -1.12354 6.19837
0.555903 -1.5213 6.70156
0.91104 -1.60823 6.9676
1.31028 -1.03584 6.15931
0.866917 0.525391 7.41682
1.31506 -1.04784 6.14533
1.63305 -1.47893 6.4543
1.26859 -1.0116 6.14589
0.503877 -1.04674 7.63718
-0.295668 0.0638782 6.94703
0.748972 -1.25696 7.09472
1.20574 -1.03406 6.0801
0.74984 -1.39012 5.87892
1.3481 -1.79911 6.40135
0.87043 -0.96102 6.01114
0.261406 -0.903369 8.02768
0.795615 -1.78687 6.5698
0.017374 -1.12999 7.54105
0.830948 -0.219687 6.95517
0.925492 -0.600475 6.23151
0.144394 -1.13247 7.82867
0.307914 -1.23782 7.66278
1.2745 -1.07307 6.54649
0.349751 -1.02062 7.84965
1.0022 0.041902 7.85858
0.229973 -1.20831 7.72596
0.89698 -0.0125365 6.72918
0.585342 -1.04202 7.56783
0.848617 0.0217129 8.0329
0.740459 -0.388954 6.02155
0.217255 -0.886504 8.07206
1.01588 -1.03918 5.98092
0.940507 -0.500239 6.27867
0.198846 -0.73221 6.41902
0.871207 -1.46006 5.8586
0.989675 -1.07183 5.94632
1.19092 -1.91911 6.35137
1.08772 -1.96525 6.39878
0.562467 -1.2212 6.0383
0.341165 -0.558462 6.06585
0.83727 -1.84385 6.50056
0.850843 -0.248074 6.87573
0.873194 -0.183082 6.78315
1.26506 -1.80937 6.55112
0.456294 -0.0327513 5.78488
-0.252483 -0.128161 7.6978
0.472638 -1.01015 7.70056
0.639723 -1.07336 7.50886
1.37345 -1.31854 6.02886
0.374558 -0.612241 6.10015
0.419744 -0.90368 7.79657
1.43333 -1.72172 6.75094
0.3925 -1.16384 7.70477
1.42793 -1.40639 6.08996
0.857033 -0.346039 6.21575
0.642607 -0.55895 5.9351
0.504799 -1.48784 6.64682
0.374198 -1.01925 7.83461
0.671068 -0.18607 5.96689
1.3088 -1.82686 6.45029
-0.308735 0.0290044 7.06038
0.572659 -0.648549 7.43512
0.558545 -1.5364 6.69491
0.561765 0.0653151 5.9348
0.829755 -0.246288 6.91478
0.882427 0.445952 6.84186
0.878024 -0.467405 5.97237
0.365401 -1.26792 7.32216
0.589337 -1.0495 7.56886
0.159391 -0.799786 6.5022
1.33456 -1.80861 6.42037
0.156569 -1.14034 7.81903
0.637634 -0.108022 5.94774
0.935763 -0.48577 6.14483
0.861334 -1.58099 6.94
0.852949 0.233952 7.15164
0.769301 -0.0712051 7.2577
0.23417 -0.836612 6.4921
1.18235 -1.59949 5.90862
0.683346 -0.0982478 6.06329
0.499444 -0.114366 7.83655
1.3082 -0.929722 6.31414
0.710882 -1.10297 7.4162
0.761824 -0.736249 7.32635
0.825801 -0.269992 6.9454
0.898038 -1.46488 5.85536
1.09217 -0.906416 6.09574
0.680968 -1.0851 7.45961
1.43168 -1.58126 6.13401
0.66795 -1.56825 6.03582
0.97468 0.385235 7.56366
1.12747 -1.94448 6.28364
-0.0797787 -0.91745 7.0821
0.706795 -1.81972 6.37373
1.5148 -1.35948 6.19929
0.812647 -0.491863 5.96538
0.804748 -1.54144 6.91289
0.521812 -0.997358 7.62127
1.29016 -1.2339 5.98575
1.41877 -1.66918 6.29122
1.30825 -1.20721 6.00848
0.131678 -1.11969 7.99611
0.863361 0.593479 7.428
-0.0074448 -1.06788 7.69481
1.14496 -1.66554 6.95021
0.919117 -0.283747 6.72807
0.896255 -0.0101827 6.72326
0.789987 -0.984658 5.9889
-0.176674 -0.644069 6.91557
0.87574 -0.188325 6.78774
0.680129 -1.11838 7.46207
0.90877 0.508576 6.58848
0.852698 -0.147573 6.97119
1.20624 -1.05652 6.05463
0.923247 -0.443096 6.09851
1.40639 -1.71533 6.34722
1.46788 -1.2312 6.16711
0.231796 -1.03574 8.00242
-0.105628 -0.86407 6.85472
1.06536 -0.442159 6.55352
0.744304 -0.315919 6.04105
1.60543 -1.27543 6.42933
0.673239 -1.17786 7.44837
0.459736 -1.0414 7.70941
0.275446 -0.964071 8.00375
0.580867 -1.06433 6.09526
1.29557 -0.99362 6.18385
0.434886 -0.921871 7.78206
0.981127 0.311625 7.4985
1.35125 -1.59904 5.99754
0.7371 -1.39455 5.88766
0.845883 -1.06902 5.90821
1.54341 -1.66522 6.58576
0.719549 -1.07175 7.3961
0.767654 -1.02609 7.28976
0.845889 -1.26122 5.86118
0.822631 -0.20934 6.24363
0.579837 -0.270149 5.89285
0.912184 -0.637647 6.7842
0.569761 -1.5562 6.68989
0.723756 -1.14606 7.37353
0.229141 -0.938266 8.0565
0.445887 -0.847878 7.74375
0.641336 -0.0749767 5.95768
1.35353 -1.78604 6.41071
0.608445 0.44957 6.47085
0.3296 -1.13513 7.81456
0.582998 -0.68396 6.04417
-0.374893 0.173946 6.7695
0.685503 -0.774993 7.40314
0.27236 -1.23733 7.64306
0.203578 -0.878961 6.57001
1.22104 -1.14877 5.97847
-0.0323738 -1.04974 7.55149
1.30078 -1.09827 6.09661
0.369571 -0.760627 6.36996
-0.420441 -0.0113229 6.9148
0.382334 -1.16962 7.71944
1.115 -0.898852 6.10784
0.503748 -0.0240019 5.8194
0.633218 -1.0469 7.51521
0.185631 -0.734046 6.43095
0.631739 -0.791235 6.30804
-0.238672 0.178494 6.42603
0.69126 -1.16119 7.43056
0.356585 -0.110969 7.83822
1.06779 -1.01235 6.019
0.468961 -1.24437 7.41709
1.14596 -1.94576 6.32254
1.34216 -1.34276 5.98791
1.44337 -1.24411 6.11261
1.35303 -1.80118 6.36332
0.476142 -0.772025 7.55416
1.63867 -1.54 6.55312
0.353593 -0.984901 6.41851
-0.0907579 -0.945848 6.92686
0.902569 -0.456083 5.97411
0.109923 -0.304398 6.3561
1.63107 -1.35481 6.50196
0.496482 -1.39636 6.17952
1.21438 -1.24562 5.92011
1.41815 -1.10289 6.22685
0.405554 -0.894932 7.80802
0.315273 -0.498169 6.00807
1.58907 -1.33172 6.37555
0.0605275 -0.372008 6.42344
0.720419 -1.34063 5.88564
0.829886 0.485557 7.361
0.316605 -1.23082 7.67643
0.964245 -0.285707 6.12697
1.62773 -1.4987 6.45234
1.65314 -1.49973 6.56654
1.57542 -1.31782 6.3633
-0.358684 0.0169776 6.97311
0.182677 -0.767798 6.4545
0.236425 -1.2201 7.70786
0.877415 -1.16796 5.87434
1.5026 -1.64528 6.78283
0.57865 -0.891573 7.50234
0.557252 0.0439282 5.9177
0.464341 -0.715979 7.54128
0.969018 0.566884 6.98265
0.692611 -1.3198 5.90446
0.525469 -0.782238 6.28624
0.358286 -0.0550222 5.75464
0.690365 -1.05575 5.96825
0.2382 -0.666581 6.25626
0.841812 0.329028 6.86546
0.74437 -0.410153 6.00344
1.46455 -1.58496 6.31464
1.13912 -1.84388 6.60888
0.523312 -0.878622 7.58684
1.41991 -1.66423 6.29432
-0.0273612 -0.514677 6.62499
1.60159 -1.30926 6.40605
0.699306 -1.26855 7.30498
0.309328 -0.837833 7.96989
1.45897 -1.25609 6.12922
1.05082 -1.75199 6.78303
0.810323 0.0714117 8.0765
1.37547 -1.36285 6.00083
0.817563 -0.712331 7.1401
0.450866 -0.171284 5.80729
0.743245 -0.804739 7.36304
0.700774 -0.496234 5.90932
-0.22988 -0.189059 7.61769
0.264179 -0.168159 5.82655
0.849824 -1.06794 5.90662
1.46095 -1.51316 6.13537
0.0620373 -0.889027 7.06684
1.2112 -1.6695 6.93439
0.637917 -1.57142 6.07236
0.777816 0.050181 7.50101
0.700974 -0.270058 5.99374
0.895485 0.467319 6.81775
1.62815 -1.45132 6.44067
1.25474 -1.67418 6.91305
1.02696 -1.17945 5.88868
0.949296 -1.26356 5.8588
0.676012 -1.07458 7.46476
0.224351 0.295364 5.82782
0.144344 -0.0666486 5.7976
0.175553 0.293335 5.821
0.802847 0.108351 7.42323
0.639635 -0.96333 7.48388
1.37614 -1.34365 6.02043
1.11492 -1.31778 5.84531
1.40898 -1.30476 6.07139
0.763094 -0.104493 6.29337
1.15897 -1.91023 6.49719
1.21984 -1.02285 6.10378
1.65077 -1.50732 6.5274
0.39647 -0.385644 5.92498
0.13015 -0.278936 6.31006
0.474529 -0.681395 7.48844
1.26191 -1.28784 5.95398
0.840872 -1.02083 5.93045
0.888218 0.0188144 7.28482
0.162382 -0.974745 8.09578
1.00147 -1.00652 6.00299
-0.111171 -0.900559 6.98333
0.781432 0.0394903 7.42743
1.60825 -1.3747 6.41237
0.538588 0.0975073 5.94471
1.27772 -1.6296 5.96623
0.796157 0.077088 7.088
0.69455 -1.68355 6.59624
1.33331 -1.14949 6.0435
1.43209 -1.64293 6.20751
0.847987 -1.28421 5.85288
-0.0215599 -1.05231 6.8864
1.43486 -1.66551 6.36015
0.382468 0.19262 5.85696
0.86147 0.133568 7.52504
0.722197 -1.15148 7.37432
0.187118 -0.00730942 5.76004
0.539754 -0.058306 7.9425
1.43148 -1.42054 6.10661
0.752314 -0.405208 6.01806
1.4523 -1.6886 6.80353
0.455794 -0.0663706 5.78508
1.29495 -1.30544 5.96508
-0.224002 0.23395 6.31523
1.19125 -1.12489 5.9785
0.0103152 -0.575472 6.7371
0.993265 -0.711492 6.55512
1.40314 -1.32808 6.06775
0.382059 -0.791503 6.41963
0.94865 -1.1755 5.87629
1.38471 -1.75411 6.73323
0.766663 -1.49061 6.92982
0.65036 -1.35502 7.32267
0.840393 -0.295095 6.27807
0.436352 -0.236489 5.81698
1.55239 -1.39896 6.2772
0.434834 -1.16612 7.63548
0.765495 -0.206837 6.12227
0.944328 -0.580895 6.31038
0.832384 0.255489 7.20858
-0.0404742 -1.02478 7.52505
0.291016 -1.26622 7.54346
0.71915 -0.0432747 7.63325
1.22172 -1.15489 6.66155
0.00418067 -1.11476 7.56795
0.764611 -0.52549 5.93972
1.34687 -1.36547 5.98464
1.0962 -1.23345 6.79403
1.44619 -1.22974 6.13046
0.868416 0.303215 6.93305
0.725555 -1.45755 6.85749
1.06767 -1.67449 6.94228
1.57631 -1.42035 6.33238
0.622277 -1.21998 5.95452
0.470889 -0.970986 7.72175
0.736629 -1.01502 5.97118
0.95535 -0.113421 6.56371
1.33942 -1.81784 6.36662
1.3943 -1.25411 6.04872
0.0681112 -0.900704 8.15323
0.281126 -0.9675 7.99105
0.652677 -0.0836786 7.76652
1.33907 -1.8155 6.38998
0.580588 -0.29102 5.90518
1.62479 -1.46334 6.42771
0.711322 -0.807686 6.33308
-0.0160136 -1.04048 7.72749
0.844844 -1.69639 6.02566
0.856452 -1.07387 5.90491
1.52757 -1.32163 6.24941
0.847926 0.158478 7.14706
0.710252 -1.14886 7.40284
0.71829 -0.0256998 7.95269
0.739836 -1.06498 7.33881
1.08371 -0.37509 6.63417
1.22113 -1.37107 5.91281
1.59786 -1.60491 6.54756
0.856847 0.215592 7.1736
1.43234 -1.65119 6.33058
1.61926 -1.42705 6.42243
0.519601 -0.30328 5.87651
0.0776526 -1.29173 7.06887
0.590783 -0.271845 5.89974
1.44931 -1.2773 6.10322
1.11188 -0.940371 6.10517
0.00889494 -1.12131 7.55432
0.988277 0.0317557 7.66868
1.07197 -1.25846 5.86601
1.34818 -1.07795 6.14146
0.395945 0.19816 5.91631
0.423403 -0.0202121 5.77958
0.207751 -0.224636 5.88651
0.667519 -0.955223 7.46667
1.18819 -1.88198 6.52041
0.658265 -1.07528 7.48552
1.26397 -1.31769 5.94084
1.47393 -1.6987 6.69576
1.4175 -1.36117 6.08348
0.73106 -1.62786 6.75225
0.942862 -0.597674 6.38469
0.778955 0.0433565 7.55309
0.442703 -1.23354 7.51726
0.675645 -1.0851 7.46641
1.4562 -1.17539 6.24914
0.257392 -1.28913 7.34664
0.604605 -0.0200829 5.94639
0.762352 -0.847811 7.34627
1.45466 -1.5371 6.16241
1.29162 -1.58994 5.95993
0.389752 -0.14289 7.79944
0.569282 0.0554883 5.94548
0.929617 -1.71838 5.99364
0.801823 -0.784963 6.42325
-0.357139 -0.138667 7.41655
1.19074 -1.31914 5.88932
0.59301 -0.631942 7.56384
0.942174 -1.61977 6.97373
0.468593 -0.864566 7.67715
1.50795 -1.31188 6.19769
0.765739 -1.86245 6.35514
0.22273 -1.23112 7.64243
0.488323 -1.25494 7.16714
1.04295 -0.925449 6.08545
0.83443 0.307634 7.15044
0.610496 -1.40879 6.77716
0.747897 -0.00918932 7.54269
0.0813339 -0.282935 6.44349
0.0831667 -0.363651 6.3898
0.858356 0.327019 6.90543
1.2658 -1.12731 6.02408
-0.0767791 -0.974309 6.8891
0.503728 -1.10501 7.58507
-0.374669 0.136112 6.76682
0.543338 -0.745092 6.20437
0.689399 -1.00587 7.45545
1.4289 -1.63019 6.24724
0.669877 -1.01359 7.47394
1.45638 -1.63202 6.35569
1.14473 -1.88726 6.55532
0.187027 -0.731987 6.42758
0.703712 0.0538868 8.07092
1.05789 -0.4274 6.55962
0.728521 -1.01021 7.39339
1.519 -1.36919 6.2078
-0.0953876 -0.904208 7.04538
-0.0670188 -0.947273 7.00147
1.61908 -1.57501 6.54471
-0.293789 0.0331164 6.97241
0.641228 -1.55271 6.05346
0.835327 -0.48822 6.99364
0.827163 -0.303903 6.87185
0.560077 -1.00715 7.59134
0.543309 -0.791575 6.30217
1.47812 -1.34542 6.15073
-0.0447982 -0.961588 7.3689
0.471502 -1.07779 7.65489
0.858901 -0.967524 6.00581
0.287033 -0.885946 8.01051
0.872739 0.090538 7.25979
0.769195 -0.993698 5.98748
0.289076 0.0184274 5.75398
0.82373 -1.89117 6.37872
0.915282 -0.213431 6.72786
1.14967 -0.923093 6.1168
0.790138 -0.723479 6.40854
1.16457 -1.74173 6.80623
0.703869 -1.44577 6.8169
0.48489 -0.914105 7.68005
1.11012 -1.73437 6.83688
0.784087 0.0822133 7.44087
-0.277076 -0.192696 7.50155
0.237871 -0.667481 6.25731
1.44062 -1.45177 6.12295
1.53119 -1.6316 6.75735
0.860385 -0.518799 6.93926
1.50168 -1.28967 6.19786
-0.179063 -0.651966 6.87634
0.841467 -1.56278 6.93899
-0.127618 0.339166 6.27082
1.404 -1.10749 6.18821
1.64526 -1.52438 6.58676
0.780709 -1.77554 6.57776
0.804944 -0.177875 7.0859
-0.386879 0.320995 6.66787
1.28246 -1.49671 5.94867
0.936839 0.43525 7.6357
0.87333 -1.24684 5.8513
1.38275 -1.01266 6.24258
0.710767 -0.803591 7.38486
0.728568 -1.04018 7.38014
1.59074 -1.23897 6.38481
0.579741 -1.36726 6.90843
0.428826 -0.504165 5.94248
1.42644 -1.09399 6.24869
1.55724 -1.32885 6.33087
0.740178 -1.05323 7.3427
0.502413 -1.01851 7.65348
0.396565 -1.12422 7.73381
1.46782 -1.21808 6.19676
0.189094 -0.574725 6.28849
-0.0140376 -1.0304 7.81132
0.768742 0.0221997 7.48659
0.446421 -1.06649 7.71223
0.889922 -0.359777 6.34001
1.4353 -1.44043 6.10716
0.748298 -0.428981 6.0053
0.355716 -1.018 6.43866
0.477853 -1.00318 7.69998
0.0581924 -0.562219 6.53353
0.392509 -0.0441254 7.92311
0.216091 -0.506645 6.28076
0.486842 -1.36052 6.18416
0.336328 0.184738 5.82536
1.52638 -1.37749 6.2219
0.13987 -1.22829 7.59051
1.06219 -1.75764 6.77467
0.677658 0.43532 6.54709
0.711075 -0.29765 6.00149
1.38115 -1.7603 6.38233
0.435537 -0.824652 7.70965
1.28475 -1.10611 6.54834
0.905214 0.438719 6.8819
0.813564 -0.354741 6.95676
0.808031 -1.55094 6.90804
0.804108 -1.36303 5.83779
0.463884 -1.03817 7.70311
-0.0613429 -0.979571 6.93264
1.43345 -1.21624 6.12246
0.751835 -1.64683 6.04046
0.739025 -1.17457 7.31383
-0.39276 0.143394 6.82659
1.4429 -1.66011 6.36807
0.685372 -0.917352 7.44744
0.951836 0.460006 7.65733
0.99981 0.0368433 7.84488
1.40888 -1.3372 6.07258
0.701972 -1.81205 6.38055
0.48765 -1.1426 7.5809
1.15742 -1.67468 6.92739
1.62906 -1.56626 6.56972
0.730389 -0.9432 7.3915
0.701171 -0.148573 6.06376
1.41918 -1.66718 6.28989
1.09229 -0.437599 6.64161
0.464145 0.102881 5.89502
-0.439051 -0.0320338 6.98473
1.63715 -1.46177 6.48055
0.570673 0.053461 5.95214
-0.280428 0.0572738 6.66308
-0.0791509 -0.937344 6.98268
0.454516 -0.947086 7.757
1.35725 -1.76078 6.4279
1.31349 -1.6898 6.87602
0.785752 -0.0689762 7.81196
0.801481 0.107243 7.44667
1.4824 -1.21824 6.28861
1.07321 -1.42787 5.85046
1.59304 -1.43431 6.36639
1.45612 -1.52865 6.14072
0.831397 0.190175 7.10296
0.365794 -0.131571 5.77523
0.241415 -0.944111 8.04384
0.732796 -0.265397 6.03647
0.390994 -1.11918 7.74766
1.12303 -1.7226 6.85456
-0.423712 -0.134231 7.37848
0.902167 -0.397157 6.29386
0.833813 0.128046 6.98077
0.916761 -0.0181617 7.95981
0.529056 0.122485 6.02393
0.0515971 -0.667827 6.62924
0.651474 -1.35612 7.31996
0.788374 0.0547034 7.42139
0.777049 -1.41696 5.87283
0.49835 0.0795544 5.89097
0.00697214 -1.12036 7.06316
0.521785 -0.860149 6.33411
0.66941 -0.204386 5.96788
0.714189 -0.0691165 7.63276
0.177164 -0.245437 5.93563
1.29022 -1.02841 6.14555
0.849332 0.577134 7.40038
0.648321 -0.192722 5.93215
0.817987 0.0950801 7.3078
1.46713 -1.1109 6.31471
0.39385 0.08137 5.82026
0.192882 -0.217881 5.88538
1.40844 -1.32987 6.07266
1.12921 -0.998402 6.75703
1.06038 -1.70981 6.86682
0.938991 -0.453581 6.36095
1.53198 -1.16195 6.36231
0.655659 -1.76687 6.33002
0.762523 -0.986292 7.32682
0.478885 -1.24601 7.39234
0.289231 -1.2471 7.61578
0.160906 -0.983788 8.09185
1.00472 -1.77021 6.72377
0.585901 -0.248231 5.8885
1.00258 -0.737184 6.57933
0.498287 -0.294368 5.86318
0.843714 -0.500299 6.9698
0.314446 0.101642 5.79007
0.349662 -1.27148 7.4813
0.230779 -1.23655 7.6325
0.439803 0.0563519 5.84469
0.56997 -0.634394 6.00439
0.918751 -0.420869 6.38568
0.691186 -1.09423 7.44162
-0.115305 -0.880386 7.05421
-0.00789983 -1.09434 7.6397
1.25631 -0.986961 6.15127
1.03325 -1.24392 5.87121
-0.287742 -0.169519 7.50341
0.902963 -0.373847 6.1221
1.264 -1.1166 6.59261
0.176266 -0.201875 5.8858
0.79684 -0.770083 7.29249
0.706297 -1.07986 7.42236
0.221601 -0.491973 6.26616
1.36802 -1.17471 6.06554
-0.309789 0.0312904 7.06526
0.429426 -0.188239 5.80699
0.888378 -0.356003 6.39602
0.914646 -0.655261 6.74804
1.42365 -1.37488 6.09424
0.223202 -0.643431 6.26411
0.472879 -0.817801 7.59766
0.76182 -0.752114 6.36742
0.834781 0.278195 7.45657
0.3511 -1.07293 7.83895
0.511954 -1.36759 6.13819
0.277229 -0.978664 7.99816
0.684111 -1.14373 7.44934
0.186345 -0.554151 6.29257
1.25772 -1.71978 6.82673
0.226706 -1.22123 7.69031
1.43658 -1.19088 6.15135
1.62694 -1.45248 6.43784
0.512498 -0.640472 7.47066
0.912298 -0.644396 6.79835
0.968143 0.603953 7.05798
0.827128 0.130048 7.26322
0.475755 -0.74275 7.47435
0.0649413 -0.405908 6.40902
0.524841 -1.28515 6.09083
1.40298 -1.08837 6.21725
1.37751 -1.78115 6.32936
0.453526 -1.06159 7.70284
1.08419 -1.48297 5.85553
0.696139 -0.17333 6.01878
0.957497 0.476358 6.74199
0.81124 0.135806 7.4807
0.618125 -0.103449 5.92335
1.25177 -1.10221 6.04028
1.34147 -1.78011 6.42843
0.921105 -0.444958 6.08326
0.464155 -1.05491 7.69508
0.755025 -1.45347 5.89862
0.786446 -1.52116 6.90474
1.45657 -1.26689 6.11877
0.494934 -1.11791 7.59382
1.44673 -1.22333 6.13675
0.760947 -0.854977 7.34723
0.681295 -1.30594 7.30008
0.97406 0.585275 7.03968
0.578058 -1.08061 7.57126
1.60535 -1.59193 6.53715
0.239772 -0.465112 6.20866
0.342233 -1.00418 7.85389
1.41615 -1.74318 6.71279
1.17603 -1.14205 5.95883
1.44288 -1.215 6.1391
0.456429 -0.059914 5.78257
0.588245 -0.0054133 5.93835
1.64733 -1.47369 6.57363
1.26743 -1.08209 6.55816
0.336333 0.151278 5.7994
0.13095 -1.18123 7.69557
1.08905 -1.06132 6.81389
1.22806 -1.89555 6.36912
1.35628 -1.80255 6.24027
0.825735 -1.54838 6.93415
1.54598 -1.64866 6.72222
1.04112 0.111835 7.89254
1.20583 -1.10096 6.00381
0.239976 0.00579486 5.74596
0.278611 -0.941009 8.00465
0.514049 -0.227385 5.84891
1.07029 -1.78206 6.01743
0.692521 -0.73971 7.39822
1.50611 -1.69033 6.63073
0.783923 -0.180802 7.19397
0.980426 0.508774 7.04429
0.773561 -1.00499 5.97156
0.44936 -0.999232 7.75588
1.01845 -1.57952 5.88163
0.816953 -0.684573 6.09392
0.542739 -1.54107 6.6715
1.35571 -1.04831 6.19303
0.895351 -0.0547891 6.65494
0.833132 -0.276933 6.19939
0.676588 -1.29158 7.33696
1.40975 -1.71754 6.46201
0.327682 -0.0531878 5.73526
1.14643 -1.27981 5.8627
0.205237 -0.836094 6.49959
0.265122 0.0488754 5.77501
0.761416 -1.01821 5.95893
1.39412 -1.72465 6.3726
0.878872 -0.0998286 6.42267
0.520216 -1.08958 7.57864
1.23457 -1.09436 6.03679
0.353811 -0.0311878 5.75173
0.764748 -0.941533 7.33782
0.57374 -0.944776 7.55695
0.339054 0.190804 5.82334
1.10865 -0.889677 6.1014
1.55075 -1.36341 6.29114
1.44438 -1.55155 6.12538
0.779102 -0.324319 7.07834
0.380657 -1.26853 7.36405
0.991956 -1.52105 5.86578
1.10345 -1.3239 5.8419
0.475264 -0.876974 7.69937
1.14853 -1.22964 5.87626
1.57361 -1.422 6.32187
0.964458 -1.21216 5.86314
1.57853 -1.27895 6.3784
0.0747737 -0.872076 6.52679
0.896986 -1.18802 5.87138
0.437103 -0.111053 5.79945
0.0814966 -0.140979 6.07717
0.759545 -0.0644863 6.44453
1.42514 -1.64541 6.29238
0.905083 -0.595665 6.12477
-0.244892 -0.120331 7.7277
-0.301738 0.0623629 6.86397
0.912923 -0.445303 6.2181
0.564395 -1.42432 6.08187
1.04419 -1.02433 6.83728
1.4369 -1.59788 6.20351
1.23086 -1.08038 6.04999
0.732158 -1.61611 6.76494
0.834238 -1.10044 7.2175
1.6111 -1.41052 6.40952
0.0957882 -0.365801 6.37246
0.718233 -1.21626 7.3439
0.467508 -0.953573 7.73531
0.460313 -1.05826 7.69764
-0.275396 0.355079 6.36616
1.47242 -1.20783 6.2496
0.303451 -0.175031 5.8306
0.768579 -1.41467 5.88428
1.60358 -1.36059 6.39618
1.51019 -1.28896 6.2477
0.941232 -0.510267 6.28091
0.555555 -0.111365 7.81212
1.42302 -1.68114 6.84224
1.41909 -1.67813 6.32012
1.49945 -1.32846 6.17408
0.805651 0.120978 7.28711
0.530934 -0.882007 7.58079
-0.0211122 -0.97102 8.07614
0.702365 -1.0807 7.42876
0.660151 -1.26653 7.14828
-0.300364 0.38932 6.39488
0.40537 -1.08534 7.76436
0.602284 -0.598123 7.52505
0.765417 -0.0588046 7.46114
0.73433 -1.48162 5.9256
0.744829 -0.331051 7.15083
0.382757 -1.26863 7.33957
0.895776 -0.0137794 6.71969
0.138136 -1.11113 7.85808
1.04041 -1.7773 6.71733
0.606177 -0.0283166 5.94516
0.466756 -1.01264 7.70946
1.44814 -1.65358 6.36752
0.665514 -0.207458 5.96095
0.0375624 -0.297268 6.50281
0.526439 -1.22705 7.41364
0.79069 0.133585 7.38135
1.38342 -1.74636 6.75485
0.469695 -0.943654 7.72142
0.717774 -0.111708 7.42825
0.713434 -0.552811 7.37566
0.709072 -0.309926 5.99776
0.00247822 -1.11147 7.50016
0.609392 -1.30088 7.06224
0.782545 0.0632293 7.44384
0.519562 -0.12929 7.76203
0.874077 -1.77435 6.66381
0.207802 -0.258044 5.90929
0.495182 -1.06111 7.63916
0.916264 -0.0310331 6.63802
0.688082 -1.12848 7.4489
0.685681 -1.06875 7.45313
0.729538 -0.834719 7.37411
1.15224 -0.967324 6.10654
0.890942 -0.954522 6.02173
1.59592 -1.26562 6.47006
-0.233779 -0.202627 7.59348
0.694407 -1.21537 7.38698
0.394839 -1.26784 7.36877
0.853887 0.208039 7.13566
1.14817 -1.00655 6.0737
0.318727 -0.422089 5.97948
0.00139121 -0.651536 6.94495
0.728188 -1.70184 6.62299
0.929773 -0.790694 6.6839
0.469669 -1.07121 7.67052
1.42582 -1.66677 6.23032
1.6393 -1.37098 6.48564
0.855577 -0.31508 6.26366
1.00973 -0.616349 6.54982
0.462161 -0.712343 7.51148
0.360777 -1.04948 7.83979
1.6286 -1.42888 6.43884
1.4524 -1.29198 6.09562
0.737704 -0.375005 6.01953
0.895476 -0.01958 7.98204
0.530225 -1.63544 6.37551
0.883667 0.431273 6.86085
0.274028 -1.23437 7.65816
0.200046 -0.600489 6.27706
1.50502 -1.32399 6.1831
0.711651 -1.06774 7.41247
0.868476 -0.209385 6.81935
0.0757575 -1.19481 7.45706
0.672267 -0.77161 7.40951
0.747461 -0.945336 7.36461
0.429482 -1.04496 7.76474
1.07402 -1.52066 5.86816
1.47911 -1.13491 6.3176
1.29851 -1.73062 6.79691
-0.334473 0.172869 6.74123
0.788995 -0.0914992 7.22758
0.800826 -0.0340068 7.45191
-0.229329 -0.12525 7.73468
1.41729 -1.7367 6.72956
1.4194 -1.6991 6.40173
0.776927 -0.394528 6.03603
0.543491 -1.3646 6.86418
0.794848 -0.605156 6.00523
0.904512 0.466202 6.75994
0.291554 -0.529052 6.12735
0.90088 -1.11246 5.89584
0.494997 -1.04559 7.65371
1.48738 -1.13805 6.32531
1.21273 -1.01411 6.10798
0.719237 -1.68742 6.6362
1.54924 -1.61814 6.75336
0.783017 0.0641086 7.45559
0.610687 -1.13263 7.52149
0.858739 0.227993 7.02162
1.47715 -1.20167 6.2949
0.158059 -1.2246 7.21774
1.62837 -1.34771 6.45987
1.36866 -1.78823 6.3511
0.780553 0.0295173 7.30897
0.204458 -1.23333 7.62604
0.123183 -0.403128 6.34884
1.5857 -1.32239 6.37742
0.535944 -0.403231 5.94573
1.10482 -0.853396 6.21658
0.238708 -0.925208 6.61413
-0.220105 -0.188218 7.6416
0.797684 -0.705151 6.42034
0.75239 -0.785249 7.34687
1.46142 -1.18886 6.23896
0.938288 -0.475827 6.31172
0.942183 -0.37154 6.06536
0.67569 -1.13178 7.46556
0.555542 -1.41936 6.09434
0.684679 -0.100611 6.03002
0.844074 0.282365 7.1528
1.39298 -1.7571 6.26074
0.146688 -0.211602 5.93723
0.561406 -0.250805 5.87422
0.519875 -1.04079 7.6151
0.50892 0.0515492 5.86645
-0.181806 -0.671645 6.94574
0.354726 -0.554966 6.04591
1.4243 -1.27055 6.07403
0.510506 -1.00638 7.64241
0.643667 -0.164732 5.92452
0.504051 -0.134799 5.81302
1.41311 -1.55288 6.0509
1.0424 -1.48972 5.86479
1.5873 -1.26399 6.38055
0.883137 0.436723 6.87312
0.393386 -0.0820524 5.78306
0.940997 0.416187 6.71771
0.84577 -0.253404 6.25514
0.940482 -0.486986 6.2942
0.582851 -1.21605 6.00176
0.858012 -1.08842 5.90179
1.24409 -0.936354 6.17106
1.13122 -1.83256 6.6273
1.3423 -1.76896 6.52617
0.871412 -0.0346381 6.60516
1.03489 0.249546 7.56096
0.157241 -0.0288901 5.76941
1.21458 -1.02236 6.10016
0.862505 -0.196424 6.85003
1.55573 -1.35474 6.31616
1.0073 -1.55366 5.87409
0.794824 -1.65431 6.77197
0.862408 0.345396 7.05429
1.40437 -1.54428 6.03285
0.540201 -0.629068 7.46563
0.214315 -1.20337 7.71923
0.0804691 -0.473051 6.4062
1.03315 -0.466705 6.45167
0.394545 -1.26789 7.37027
0.698601 -0.130315 6.07322
0.887679 -1.50175 5.86753
0.652548 -0.452362 5.90223
0.479767 -0.949586 7.69874
0.704845 -1.12868 7.42287
1.26916 -1.82524 6.51626
1.11858 -1.59476 5.88313
0.482586 -1.52787 6.39384
0.838352 0.0295925 7.05754
0.715535 -1.18527 7.37385
0.546934 0.076085 5.92187
0.759543 0.00423594 7.49291
0.964545 0.296818 7.4765
0.216219 -0.308363 5.94718
1.36098 -1.06037 6.19071
0.752909 -1.02965 7.32047
0.734489 -1.00684 7.38252
0.746841 -1.43696 5.89472
0.775969 -1.35419 5.85005
1.46215 -1.21533 6.17686
0.199167 -1.19015 7.73398
0.627562 -0.0750399 5.94539
0.737708 -0.0480574 7.7008
0.493001 -1.09801 7.60556
0.606146 -1.60282 6.66702
0.430234 -1.13442 7.67881
1.27775 -1.118 6.04768
1.31719 -1.24757 6.00426
0.748122 -1.54988 5.9468
0.290057 -0.979736 7.95575
0.467214 -0.694721 7.49544
0.913171 -1.7581 6.73105
0.873091 -0.963206 6.009
0.417177 -1.10711 7.7287
0.804303 -1.78215 6.58358
0.386114 -0.945721 7.82693
0.718357 -1.01939 7.41437
0.62639 -0.926597 7.48088
1.64098 -1.50175 6.59677
0.753653 -0.301101 7.15973
1.027 -1.6488 6.97474
0.49301 -1.53783 6.42291
1.15544 -1.86913 6.57045
1.63965 -1.47049 6.4997
0.504116 -0.00144096 5.82046
1.45684 -1.52771 6.13759
1.06283 -0.906609 6.09464
-0.0150366 -0.999921 8.03712
0.695301 -0.146506 6.04781
0.820516 -0.227372 6.21042
0.336568 0.0166103 5.75525
0.448279 -0.0348602 5.78294
0.242279 -0.133934 6.03549
-0.232861 0.104843 6.48963
0.334965 -0.508906 5.99158
0.894462 -0.413672 6.21756
1.11018 -1.84754 6.62046
0.848632 0.258109 7.15118
0.863031 -1.77212 6.65521
0.533234 0.0605885 5.88565
1.08582 -0.441465 6.60806
0.214038 -0.913859 8.07346
0.866985 -0.322549 6.15917
0.26201 -0.36108 5.96371
0.159849 -0.397935 6.31527
0.589637 -1.59142 6.66846
0.118484 -0.333055 6.34992
0.473134 -1.02965 7.69491
0.899371 0.454252 6.87054
-0.0100799 -0.516287 6.68131
0.379889 -0.952414 6.39789
0.0655302 -0.876238 7.07256
1.31759 -1.8166 6.44357
0.572986 0.065355 5.96317
1.17808 -1.66832 6.94485
0.27513 -0.202361 5.8805
0.418509 -1.08009 7.75533
1.24177 -1.76058 6.05403
1.61608 -1.34072 6.52225
0.767361 0.0503601 7.50202
0.361022 -1.11961 7.79595
-0.0647856 -0.422857 6.63718
0.0674981 -0.372352 6.41001
0.269869 -1.22946 7.68697
1.62977 -1.49108 6.45198
0.43125 -1.27063 7.29417
0.959551 -1.06256 5.93591
1.63367 -1.53076 6.51857
0.480845 -1.10238 7.6207
-0.361636 -0.018418 7.10462
0.689867 -0.249767 5.9846
-0.293187 0.0389583 6.85894
1.43151 -1.62946 6.24407
0.821125 -1.42514 5.858
0.534607 -0.672466 6.04425
1.40823 -1.70298 6.354
0.350851 -0.121663 7.83098
0.451768 -0.777931 6.34972
0.689619 -1.57485 6.01672
-0.349101 0.161068 6.71759
1.02423 0.127254 7.96112
0.999767 0.270608 7.51592
0.513095 -1.48083 6.1945
-0.066693 -0.952696 6.98557
0.104194 -0.504456 6.37498
0.989027 0.463465 6.78008
1.41584 -1.65479 6.18721
0.628443 0.051439 8.05607
0.58793 -0.89354 7.49418
1.4585 -1.71993 6.68991
-0.0408682 -1.00124 7.89069
1.4824 -1.32385 6.14585
1.1388 -1.32991 5.8637
1.42078 -1.56751 6.07832
1.4803 -1.69898 6.68812
0.87091 -0.534313 6.89553
0.393318 -1.00647 7.81724
1.0314 0.134929 7.61892
0.648484 -0.20978 5.94235
0.379949 -0.988886 7.83399
0.528319 -1.35851 6.90482
0.998235 0.0216406 7.73522
0.866526 -1.90384 6.42386
1.1174 -0.970743 6.08448
0.885414 0.720168 7.22339
0.756713 -0.4056 6.02162
0.689437 -0.526605 7.42801
0.523316 -1.27303 7.10803
0.731256 -0.746393 7.36643
0.915707 -0.380715 6.10433
0.730258 -1.02861 7.3854
1.00215 -0.291943 6.13688
0.00169438 -1.11069 7.61406
0.0119518 -0.559226 6.83193
0.399408 -0.802135 6.41674
0.999425 0.481192 6.78402
0.480675 -0.902916 7.69732
0.93395 -0.475801 6.30008
1.01036 -0.935954 6.06837
0.743912 -0.0353322 7.58315
0.696645 -1.60824 6.04621
0.60733 -0.254109 5.9066
1.18662 -1.08634 6.00286
0.642873 -0.732554 6.13539
0.91397 -0.659935 6.77856
0.0919793 -0.741848 6.55008
0.81674 0.042078 7.36606
0.594462 -0.91964 7.50211
1.30129 -1.78931 6.55503
0.35899 0.200087 5.83194
1.24648 -1.48255 5.91936
1.38435 -1.21532 6.05064
0.816635 -1.00584 5.96465
0.991568 -0.349568 6.05198
0.447417 -0.00976193 5.80049
0.784852 -1.76171 6.609
0.588207 -0.2396 5.88912
0.691275 -1.08633 7.44216
0.914293 0.0692866 7.16353
1.03184 -1.06869 5.96868
0.697482 -0.53451 5.91225
1.17273 -1.83585 6.59786
0.61562 -1.39493 6.79315
0.928252 -0.538083 6.14802
0.43458 -0.970042 6.3777
0.816505 -0.086181 7.16899
0.635978 -0.855535 6.31671
0.504873 -1.32303 6.14027
1.24889 -1.88248 6.38246
0.293973 -0.960872 7.95697
0.905032 -0.41367 6.1891
0.704805 -0.607273 5.9672
0.219328 -0.945398 8.06306
0.784261 -0.761559 7.30225
0.537707 -1.51518 6.68292
0.656659 -1.02966 7.48628
0.622428 -1.72022 6.41896
0.955855 0.477814 7.68194
0.920966 -0.409403 5.98845
0.416406 -0.981937 7.80004
0.849136 0.112418 7.26627
0.37135 -1.18448 7.7034
0.789642 -1.40536 5.86111
0.357809 -1.27057 7.39098
1.11096 -1.55596 5.87616
-0.356977 0.127786 6.77177
0.302173 -0.906594 7.97534
0.123712 -0.565061 6.35433
1.33076 -1.38311 5.97304
0.201626 -0.56723 6.27882
1.07427 -1.75226 6.7943
0.177909 -0.437787 6.30982
0.922909 -0.0222749 7.94878
0.835067 0.409189 6.68779
0.435684 -1.33514 6.32929
1.4581 -1.18126 6.24247
0.472186 -1.16324 7.5743
0.586851 -0.633821 6.00055
0.393642 -0.0687604 5.79676
0.744074 -1.06697 7.32756
1.10365 -0.955687 6.08588
1.06069 -0.869225 6.1126
0.889124 -1.91551 6.43897
1.26852 -1.8386 6.49608
0.389821 -1.0972 7.77764
0.261711 -0.427248 6.017
0.708084 -0.131409 7.57525
0.642237 -0.0574768 5.96801
0.416675 -0.810254 7.72068
0.416854 -1.26649 7.37398
