55.7645 94.0785 544.263
186.716 22.6926 767.122
-15.1042 91.1362 564.097
-4.32893 119.649 573.732
63.1224 -2.82643 503.402
-28.1481 -92.0783 521.194
262.355 32.1021 748.053
62.3065 -7.71157 500.168
101.69 90.7951 603.5
70.4657 34.4472 532.947
108.781 85.5976 610.683
-3.48146 -51.3141 458.402
79.2094 -14.8649 517.575
87.3228 -39.011 515.445
95.0551 6.08455 550.714
219.755 29.337 755.032
305.961 -32.3984 837.813
-29.0936 66.9161 563.203
81.0822 35.6737 546.613
-70.3126 -75.8297 523.501
76.6985 -44.2165 498.056
-18.8915 -54.0146 470.563
227.721 -72.923 908.244
60.6226 118.74 562.687
100.165 73.1212 592.981
156.714 20.1323 769.811
100.804 -10.5001 549.429
71.9444 -19.3842 505.707
199.487 26.3587 759.995
84.0046 -25.4156 518.586
99.7851 26.0783 566.892
70.1569 -4.98928 511.449
283.426 -17.7073 820.326
72.0197 13.6524 524.332
-29.1517 -24.8127 502.768
19.6598 127.501 550.633
144.49 17.356 773.875
-26.9292 -8.22854 509.523
33.5861 -53.3061 442.041
-26.8668 75.9944 568.121
93.1787 -14.2201 536.827
103.108 -48.0382 532.1
100.976 -43.2295 531.709
62.4869 50.6706 531.178
63.267 34.7556 523.833
65.4855 -34.3076 489.138
90.8025 -15.1121 533.333
-35.5683 -16.2403 514.736
67.9088 -8.94392 506.511
11.736 130.01 564.293
84.3182 -10.8287 526.772
11.8195 -57.6012 442.003
58.9256 -32.5556 481.575
-0.687273 52.2927 526.878
4.03355 -38.9252 461.465
64.5892 -0.619585 506.53
251.649 31.1239 747.221
-50.8334 -74.5266 493.434
65.1504 23.4439 520.289
82.0017 36.9966 548.59
77.6513 20.6996 533.828
186.369 24.9424 764.098
60.5523 -22.495 489.277
69.227 -19.9485 502.154
263.466 -0.184656 795.887
56.9292 -20.8336 485.673
-21.205 128.977 597.921
-66.8386 -68.508 522.428
101.721 114.687 615.876
143.98 -52.4438 883.357
76.7573 -22.7562 510.021
68.3519 143.78 587.555
97.2921 -55.586 518.419
73.692 -25.9143 505.001
105.867 -86.9411 515.006
93.4571 32.4184 560.996
215.763 24.7925 758.019
-20.5652 113.245 585.951
60.5896 118.747 562.65
-37.973 142.888 609.565
96.668 -45.8848 523.583
4.7157 34.3217 512.205
83.5485 33.0099 548.599
13.3803 66.0259 520.049
87.88 34.3024 554.799
250.412 -19.7654 821.874
61.0676 45.0572 526.33
88.9694 -76.2695 494.985
57.8289 3.93082 499.749
83.8053 27.5336 546.237
57.6526 76.5422 534.547
65.5683 -14.9959 500.489
92.8537 -18.047 534.575
84.9582 -38.1454 512.71
-37.4898 -66.169 485.983
1.92989 -53.3087 453.723
83.4913 -27.2452 516.785
101.073 -91.6736 506.952
76.4684 -26.3814 507.904
-22.4737 65.6395 555.111
102.347 -68.4005 519.895
-2.90978 59.6805 532.166
91.5266 -1.63031 540.638
68.6903 -38.5814 490.678
62.4517 93.3448 551.823
175.511 2.22005 794.607
-34.3414 119.339 606.51
73.0838 -12.7943 511.364
94.3344 -18.3435 536.451
69.2793 39.7623 534.295
33.7318 -49.4817 444.689
32.728 151.533 560.561
10.9 -34.5038 458.775
317.443 -57.582 878.058
192.192 25.327 762.577
-0.687144 52.2926 526.877
241.031 -103.539 954.263
67.9673 -18.311 501.512
-53.1559 -3.43987 546.368
86.6446 58.0565 565.174
66.7302 -15.7333 501.5
108.011 -62.4543 531.311
14.9932 -35.6909 454.166
207.819 -40.7172 863.702
84.2764 -39.7141 510.901
-24.3508 133.609 601.7
110.227 -94.0828 519.392
74.3172 -5.6121 516.255
5.76065 20.7527 500.283
239.76 -12.7592 811.403
87.9102 -57.5218 505.185
263.634 32.8669 748.04
194.64 -41.6729 862.894
-23.2126 139.541 601.803
125.614 61.8252 623.297
105.311 -53.0006 532.99
64.9049 2.21889 508.906
94.7518 -88.9469 499.766
112.986 111.053 630.184
17.0519 -101.154 531.667
171.109 -82.2401 922.639
80.6298 38.4095 547.743
84.2725 -27.0343 518.055
-1.24887 126.702 576.656
74.8431 -32.1532 503.139
227.572 1.45913 795.703
-11.3425 143.993 596.367
32.9477 157.265 562.983
292.708 -70.819 900.312
75.3428 -42.9633 496.68
85.8773 -40.1968 512.815
62.4115 -19.4437 494.136
58.2845 137.43 569.829
-41.6638 -66.6816 491.693
80.4076 8.88407 532.06
90.0329 -27.2086 525.931
91.9747 -80.8209 498.443
233.135 29.9263 754.186
221.11 10.0054 786.486
-36.6241 -48.55 491.878
84.3221 -10.7901 526.796
-32.2456 110.932 599.931
223.779 0.594202 796.527
69.4531 -1.88514 512.261
70.4614 34.4473 532.942
-16.996 65.1122 550.137
65.405 -6.70403 504.715
60.6407 -32.0353 484.057
58.3941 95.5868 547.908
92.7976 7.58014 547.579
62.8153 -40.3262 482.706
68.6666 1.45389 513.091
249.131 32.9719 746.332
10.9997 -34.5456 458.649
-65.0974 -64.6251 522.093
100.956 -47.1758 529.773
61.7194 91.6521 550.316
75.2762 -13.3171 513.649
14.9047 131.4 561.753
91.2951 -29.709 526.213
-10.3462 -45.8148 468.25
30.1646 160.366 564.171
99.6285 -22.287 541.571
183.735 4.28815 793.572
65.8979 -15.9123 500.431
99.3354 -57.6984 520.415
-46.6658 -14.0827 530.281
248.955 20.9137 763.638
100.938 24.4513 567.812
-26.1249 65.246 558.415
65.072 -19.7484 497.229
111.08 -96.2848 520.072
207.072 3.47034 795.053
80.3055 -45.9047 501.278
91.2468 19.4948 552.237
266.683 -35.586 845.758
95.3925 -53.8881 516.682
96.3683 -37.4471 528.441
70.5586 -16.8869 505.387
20.5952 132.756 555.408
87.5762 -49.7404 508.897
55.8472 -30.5299 477.986
65.4888 38.7914 528.652
26.2103 -14.95 459.924
92.993 -38.5875 522.721
63.0222 12.6937 511.406
-27.9656 127.613 603.426
54.9678 96.9071 544.511
158.558 8.04491 785.482
54.5763 90.5306 541.399
74.631 -21.1201 508.24
85.8966 -30.9799 518.46
70.4803 11.9491 521.385
219.869 3.84767 793.629
-1.86697 27.5605 509.756
66.9345 26.0129 523.925
75.4596 -48.5419 493.786
94.2346 -49.0711 518.397
98.7653 54.0034 579.793
102.528 2.37507 558.733
79.7096 27.831 540.562
88.1097 -81.6017 493.625
83.2835 -34.7698 511.848
57.4524 -16.6646 489.309
75.5077 -49.8831 493.071
70.4685 34.444 532.949
88.5526 -37.3537 517.733
77.2561 4.80771 525.561
83.5112 -25.7783 517.635
108.771 -90.4667 518.08
54.1211 -16.5992 484.173
61.1461 -3.86883 500.188
86.594 37.4003 555.178
109.697 -92.4997 518.888
219.397 30.7666 754.126
86.813 -56.4343 504.296
91.8638 -59.0288 509.589
173.543 8.58556 787
24.4216 127.642 551.267
-36.091 -9.64316 518.46
92.8682 121.479 607.759
102.078 -38.3675 535.331
55.202 -48.3541 471.618
36.3204 -85.3882 493.719
1.96103 -48.365 456.54
65.2339 -36.9972 487.656
77.6326 17.8291 532.904
83.4304 25.6928 544.813
68.1843 0.0128333 511.703
92.9927 24.1384 556.845
70.03 -28.4471 498.314
85.4378 28.8177 548.949
-16.1152 -44.6575 474.417
73.6615 -49.6685 490.83
75.2537 -47.1931 494.257
58.1255 -41.3852 475.645
2.18971 -53.0021 453.662
87.0012 -20.6771 525.233
30.3475 -55.8739 438.094
250.549 32.1196 743.358
88.4614 49.6126 563.214
-63.6074 -79.1963 510.059
70.4697 34.447 532.953
-50.1919 -61.1767 500.776
17.6686 126.319 553.26
68.1246 -38.4449 490.088
49.6398 91.0084 535.56
91.743 -78.5789 498.471
59.3337 -3.14709 498.171
-69.2507 -56.4722 535.403
57.452 -24.8857 483.581
96.0295 -83.9606 502.939
103.233 -58.5799 526.163
18.8649 64.2057 515.706
62.2332 134.961 573.834
84.329 36.6083 551.582
189.841 -11.6982 810.094
13.3809 -49.972 444.658
231.613 29.3849 755.305
104.541 -50.472 532.93
83.4321 -24.0814 518.442
116.183 109.112 634.087
30.1135 -57.7808 437.584
18.529 3.27966 478.455
73.8506 17.7786 528.693
69.9237 15.2646 522.761
57.1224 95.3492 546.445
81.4599 27.3178 543.043
309.205 -16.5886 820.608
100.938 -18.58 545.182
74.2677 34.0915 537.811
95.511 -36.7814 527.605
58.5392 99.8611 550.074
101.443 -58.5325 523.296
103.22 1.15346 558.908
262.325 -13.8661 814.677
107.36 19.8442 574.886
86.3947 -15.2673 527.43
78.3014 -44.3361 500.255
82.0481 -46.3039 503.58
-65.2253 115.145 638.32
10.9039 29.4543 460.423
-4.50691 -57.5313 456.217
101.345 -12.0608 549.273
12.6787 132.561 564.703
95.9735 79.141 590.583
26.1486 -55.2303 438.951
187.022 -30.9699 839.766
54.1705 -19.8835 482.399
-52.6982 -59.0748 504.838
272.453 20.7524 759.928
50.3456 100.025 540.564
48.9212 102.509 540.349
67.6484 -45.7915 485.211
108.496 -97.317 516.2
156.354 -61.8162 896.568
-30.9291 131.603 606.081
275.806 18.7823 763.448
87.5816 53.023 563.789
109.432 -93.6546 518.333
305.519 -9.87638 811.024
257.058 12.5019 773.038
193.725 -30.9371 841.71
20.309 -31.6377 452.359
5.40257 48.5927 518.633
17.5982 68.0397 519.115
-66.3972 -76.3275 516.517
102.788 1.69954 558.677
82.8078 37.7958 550.084
75.1594 20.8959 531.198
96.6847 -37.3756 529.023
74.9832 -32.1292 503.294
261.231 -43.9632 859.26
74.5902 -49.8419 491.95
269.299 -15.1929 816.481
97.8361 -82.642 505.571
4.678 48.7371 519.419
61.8063 -10.188 498.431
-32.5604 -49.1154 487.987
306.788 -12.2065 814.73
292.9 4.47474 789.966
115.916 -101.748 525.805
90.6177 122.833 605.405
13.3818 -5.03312 477.078
74.1213 74.3551 563.469
219.96 13.1577 780.282
33.1132 -56.9035 438.452
97.3498 4.34226 553.23
-6.85544 144.988 592.907
19.7768 65.1798 515.936
21.7339 63.1364 513.735
108.732 112.954 624.815
-13.094 -59.6374 462.573
237.487 29.9316 753.77
59.0808 -9.622 494.713
205.618 24.2681 760.423
89.3863 -33.1289 521.533
72.6755 115.106 576.191
234.494 -102.425 952.619
-0.0138048 29.8473 511.227
61.3612 4.67002 505.176
160.957 -56.1953 886.319
116.791 103.956 631.661
79.7474 -22.476 513.987
88.4931 12.6925 544.173
-15.1701 -46.3047 472.121
-29.1337 -57.4742 478.962
61.3817 -13.0322 496.201
66.9725 26.114 524.034
2.34972 119.435 563.477
78.7208 -53.1088 495.601
106.676 87.7932 608.879
82.735 15.7897 537.61
-31.2115 -47.9279 487.049
68.2276 3.97409 513.964
70.0944 -18.7836 503.778
59.5645 41.8922 522.567
60.6449 -18.0697 492.588
20.0985 155.966 567.13
217.908 -49.7855 875.689
274.924 -106.26 958.267
103.822 -95.738 510.091
80.9258 -26.8821 513.332
94.2836 2.29681 547.176
288.514 -7.45584 805.953
196.803 -77.4883 916.004
-4.37341 117.694 569.417
235.846 9.46991 783.438
61.8633 -36.4593 483.747
1.95469 62.4595 528.855
116.791 103.956 631.661
106.902 93.7103 612.282
77.9569 11.0764 530.06
96.0553 22.1889 560.565
74.9403 40.2977 541.787
70.3562 23.9137 527.108
107.603 -90.5092 516.722
73.0025 -49.8938 489.862
98.1512 -7.59088 547.668
51.6318 -18.5819 479.542
-15.1306 116.948 582.896
97.7818 -55.9509 519.023
84.0363 -28.5099 516.936
12.2016 71.4721 524.706
2.49131 21.5866 502.019
161.58 4.71726 790.268
19.0048 59.1467 512.917
68.0502 -15.7603 503.007
69.2738 -47.1809 486.381
119.155 -89.7198 534.714
117.406 58.1171 608.075
14.9829 35.05 498.285
205.842 25.1842 759.322
110.938 107.957 624.671
276.307 -12.834 814.358
93.2542 -16.3865 536.073
1.0428 58.5684 527.984
100.214 24.1539 566.686
67.1332 8.88072 515.133
74.111 -41.9051 495.4
77.4109 40.6604 545.004
83.5261 -48.2212 504.327
79.3691 -53.4247 496.301
10.8692 146.639 572.79
67.7266 -48.1872 483.4
103.965 -11.8829 553.041
310.923 -42.6539 853.309
74.7968 -47.5215 493.483
60.4815 90.7485 548.173
45.4674 104.416 535.797
137.241 16.9555 775.017
84.6456 27.5986 547.436
-4.07931 39.3239 521.472
3.66812 22.5651 503.773
-38.1104 -64.2291 485.246
270.717 -86.401 928.218
89.9499 6.86236 543.021
64.9459 17.6445 516.799
-16.3094 -58.9677 467.028
74.3394 15.2214 527.924
-2.22246 -42.835 464.103
-58.7592 -9.78967 553.093
-28.2768 -46.4088 485.12
94.3603 -51.3634 516.844
76.5935 -50.7838 493.902
56.5509 -31.3797 478.621
71.3958 -21.6215 504.012
271.167 -40.8119 851.347
57.0598 -31.187 479.508
31.804 -54.8829 439.832
74.7251 -32.1123 503.021
80.5771 -12.214 520.689
-32.575 -69.7612 479.725
77.0522 -13.8787 515.44
63.4343 -5.71152 502.522
107.36 19.8442 574.886
-66.3114 72.2627 619.339
73.4987 -22.6841 506.076
66.9354 25.9207 523.856
278.917 -90.1449 933.088
20.6972 135.779 556.529
73.4469 -18.465 508.179
11.3366 19.7929 496.084
3.90926 20.958 500.928
53.7682 94.9056 542.099
100.735 -65.8371 518.99
52.7137 123.675 556.087
105.399 75.7807 600.647
71.2923 46.1666 540.198
87.3474 -51.1227 507.533
5.51149 22.1729 503.085
66.7951 11.7534 516.18
-56.5211 -78.9288 494.039
115.434 -103.749 524.265
105.292 -61.3501 527.886
322.11 -43.0462 857.817
104.829 -45.1084 536.592
-0.0271266 -36.3841 467.501
77.3816 40.6743 544.974
60.6209 16.0912 509.776
74.871 -32.1702 503.166
119.35 91.9497 628.92
76.0249 21.5043 532.423
55.657 119.738 557.375
95.967 -54.6261 517.126
238.649 -22.9338 827.271
293.846 -21.8935 825.472
252.292 -67.3084 899.472
96.4256 -41.1659 526.152
68.656 -38.5596 490.649
84.3336 -30.0434 516.621
74.0203 6.62217 522.526
22.2773 -54.8777 439.495
63.2409 98.8572 555.751
78.6839 -27.3572 509.867
267.941 -108.839 962.455
102.916 -60.5938 524.721
-23.4726 89.35 571.814
11.236 145.455 571.199
99.421 -81.4424 507.746
53.7592 100.451 545.185
56.426 103.012 549.334
11.0019 -34.5497 458.644
75.8338 -51.2618 492.765
90.2238 -58.4565 507.799
71.9872 -97.5522 516.656
103.358 -25.9403 545.198
51.5043 140.937 564.497
96.3783 -55.0364 517.508
236.14 0.518309 795.792
167.076 14.199 777.107
-8.58536 118.095 576.338
70.5286 27.0996 529.126
95.1938 -66.8626 510.085
73.6063 36.5018 538.432
19.2552 59.7708 513.088
93.1086 -79.8145 500.127
98.4491 -45.406 526.564
77.3981 40.6482 544.982
22.9057 145.024 560.505
16.6253 14.4112 487.297
78.1731 104.009 577.857
74.678 -26.0896 506.134
199.39 2.51371 796.512
61.3977 -41.729 479.588
-63.6074 -79.1963 510.059
179.309 23.8033 767.467
66.8119 3.19033 511.776
72.0281 -1.572 515.678
84.9127 -29.3252 517.823
98.7472 -56.7084 520.026
94.9274 -5.80887 543.662
102.747 40.5135 579.257
29.2697 156.527 563.231
103.444 -38.3663 538.057
17.2023 -43.4128 446.433
-8.05578 115.915 574.304
87.5198 -1.64274 535.31
242.933 -24.128 828.656
303.882 -95.3675 939.615
92.0325 65.2182 575.189
100.715 19.074 565.578
94.5449 -52.9409 516.156
47.5303 -73.7677 489.469
-3.42688 120.65 574.653
208.606 -54.4147 882.937
70.721 -47.9217 487.806
66.9601 25.9592 523.93
10.9938 -34.5454 458.655
92.8914 28.2418 558.442
74.671 -23.376 507.155
18.6232 127.591 552.216
102.127 -84.9934 510.552
13.0419 17.5635 492.023
-62.5703 113.11 635.567
52.8315 103.2 545.545
46.143 107.02 539.23
59.1699 -14.5527 492.625
97.183 -86.2868 503.173
-21.9686 -50.5319 475.159
101.823 24.9324 569.249
78.2285 6.53978 527.919
18.1343 130.936 556.791
10.9978 -34.5436 458.652
86.0845 -47.6625 507.981
87.5274 23.7175 549.179
76.787 24.7388 534.732
-28.9638 -7.82038 511.752
74.2323 -50.7286 491.016
10.8994 81.8351 533.692
97.0342 14.4943 558.315
7.65798 49.4325 517.07
76.3088 32.5722 539.379
91.6628 10.1856 547.064
64.353 -14.7176 499.226
84.3246 -47.2686 505.871
75.9871 18.0076 531.108
81.995 -37.0749 509.033
217.026 -24.0273 829.728
-0.505625 145.626 587.044
10.3605 27.6483 506.3
-32.227 -4.72675 516.626
266.477 30.432 750.215
20.4346 -32.2817 451.919
106.316 111.748 619.64
232.682 32.4302 749.058
74.1085 35.2401 538.234
235.975 32.1628 749.298
86.892 15.1458 543.541
6.24369 48.8108 517.996
100.512 123.557 621.953
93.3648 19.0786 555.415
-46.866 -57.0553 499.96
20.5107 -32.4016 451.81
60.6007 118.728 562.653
94.2626 -85.204 500.424
-24.6848 -48.8381 479.447
64.0109 89.5887 553.944
44.9966 -59.0423 464.741
61.866 78.3887 545.522
71.0799 88.5227 562.947
18.0834 -27.1746 457.185
91.1931 56.9314 570.839
2.30748 31.6169 511.494
106.306 -91.0341 515.241
93.7131 -18.641 535.458
58.0677 -41.3174 475.617
10.74 17.9625 493.678
91.7398 -83.8417 497.732
148.67 -31.7798 843.309
93.6766 -37.347 524.472
74.3298 -2.05909 518.34
75.0499 -44.2282 495.613
102.558 17.3779 567.228
91.199 -40.5294 519.563
102.66 -89.9647 510.216
94.9633 -45.9406 521.386
71.2082 -29.3552 499.534
15.1685 -30.9242 457.569
77.4931 25.0644 535.822
-17.5103 -46.3325 474.271
81.0147 -55.9635 497.361
38.3234 161.232 564.799
265.732 21.8477 757.776
109.87 -90.9545 519.265
26.8889 160.876 564.881
84.0407 -14.5074 524.619
2.0525 -53.159 453.696
94.7402 -80.1616 502.335
11.0311 -34.57 458.601
10.9965 -34.5484 458.65
7.22667 20.3638 499.225
65.0926 36.7955 527.261
86.2118 125.172 600.697
-60.561 -63.1955 515.516
87.7207 2.56243 537.822
-56.3136 -67.8338 506.167
240.244 30.6855 753.377
285.107 24.0335 762.598
141.43 15.0443 776.496
63.9398 15.5111 514.229
287.457 -1.08293 796.563
188.726 22.7469 766.905
90.8692 -60.0826 507.636
-76.9115 -80.429 525.219
224.569 -50.2687 875.755
28.243 -90.9164 503.298
77.333 -11.372 517.141
84.0609 6.65133 535.556
61.5412 40.9364 524.698
67.1988 80.1599 555.672
213.798 -19.6036 822.318
83.2756 -43.8412 506.781
16.2567 55.1875 512.773
110.885 95.3536 619.635
-25.6297 -46.3683 482.592
9.08402 125.464 565.056
70.416 1.76165 515.527
54.452 136.463 565.631
221.417 -97.8371 945.373
171.866 -31.0004 839.941
20.585 -32.273 451.846
76.4782 -4.60574 519.548
74.8278 -32.1799 503.117
-6.62856 -42.9169 467.411
109.42 -72.0075 529.702
277.086 -57.337 877.252
-23.9043 -42.1316 484.942
12.8696 -17.6489 469.083
106.647 -89.0388 515.91
77.0711 -51.9354 493.98
89.3665 123.138 604.182
74.1619 -43.1972 494.867
-48.0199 73.243 595.355
28.1711 -90.8522 503.184
192.118 -3.75763 803.038
122.329 102.216 640.447
100.843 46.4981 579.554
29.2124 160.367 564.342
76.1624 -7.40749 517.522
59.0277 -9.70207 494.606
60.2066 76.9432 539.374
12.3512 64.684 519.826
102.09 -86.488 510.229
110.976 -98.9754 519.161
-34.899 -10.5287 516.656
62.2474 23.162 515.781
248.094 -44.0617 862.183
79.159 -19.9406 514.81
63.2267 -14.8113 497.758
79.6342 138.042 599.605
64.6527 78.4383 550.229
-16.6291 -8.56584 499.485
12.595 18.8859 493.696
60.5752 118.734 562.625
288.62 8.71707 779.675
16.3994 63.9302 516.85
78.4309 15.5266 533.041
18.1799 31.074 493.853
69.9554 5.78404 516.941
-15.2819 74.6463 555.768
142.109 17.312 774.129
202.807 13.4419 783.56
92.1018 12.7503 549.509
104.072 95.8531 609.14
-33.6714 -50.6683 488.986
87.19 -53.4894 505.748
97.5206 103.92 604.618
76.721 -2.07773 521.201
-14.7369 -50.1181 468.924
303.409 -19.9205 824.009
62.066 -43.8211 479.239
89.139 30.5979 554.598
94.9783 -6.01785 543.471
20.7681 -83.1772 492.308
307.437 -38.6071 846.643
87.6984 -31.6285 520.264
60.3528 9.59219 506.618
84.3049 114.391 591.657
64.7161 113.838 565.161
73.1637 33.334 535.936
69.9248 -0.380853 513.705
102.399 95.2889 606.642
179.29 23.8033 767.469
76.4587 -20.4496 510.979
-69.784 -70.2746 526.357
-21.2572 51.031 541.233
80.0637 -36.042 506.908
-19.6025 -43.723 478.834
65.69 90.7547 556.451
223.659 -81.2319 921.257
109.02 -91.7972 518.214
71.0387 -24.9241 502.085
92.4959 -40.5254 521.332
60.5691 -82.4168 491.337
59.5045 8.67804 505.017
33.5165 163.087 564.933
-35.7685 -2.96442 521.797
68.8824 9.04986 517.694
243.533 -131.756 995.168
-42.2965 -52.9403 495.776
88.6496 19.6282 548.296
109.211 120.088 633.232
-29.1337 -57.4742 478.962
57.9961 -41.2482 475.572
102.426 -21.9038 545.751
55.3345 -125.81 572.928
103.68 20.9352 570.188
239.672 -17.0571 816.946
85.0682 4.39243 535.462
78.1279 40.4176 545.68
84.2911 -10.7188 526.79
295.594 -18.0961 820.609
-68.488 -78.3032 518.802
74.9394 -0.292849 519.99
-8.05247 141.711 592.974
-4.48956 -42.6715 465.947
96.9713 -44.4009 525.151
288.514 -7.45587 805.953
204.421 -45.0257 870.919
4.25821 -49.4881 454.575
74.8569 -32.1256 503.16
91.0552 24.6225 554.026
17.6016 68.0386 519.113
18.5275 130.581 555.917
67.0159 18.5393 520.453
60.5675 6.93547 505.488
103.231 16.4855 567.823
12.8187 69.6605 523.066
64.9718 4.51816 510.216
106.04 -51.2582 534.801
53.6306 88.8128 538.918
93.2735 -82.2077 499.883
-16.1264 -92.1891 537.345
92.6042 -43.5901 519.634
172.963 21.3148 769.009
54.3518 122.112 557.191
206.7 26.9439 756.076
62.745 -12.923 498.12
84.2329 26.2177 546.156
81.0491 -34.3141 508.864
-70.7562 -67.0395 530.291
8.90865 19.9246 497.826
75.1071 4.35552 522.71
105.663 -89.262 514.687
303.056 -123.549 981.93
46.9061 -46.3897 459.646
73.1037 -42.5311 493.816
166.613 -37.0874 849.76
-28.2777 65.5961 561.031
-42.2775 124.625 614.556
60.6023 118.746 562.665
296.265 -13.2673 813.8
277.934 24.8925 758.246
67.0588 30.4661 526.661
60.7727 31.5282 518.781
105.944 -3.5964 559.708
67.4259 -41.777 487.476
-18.6526 111.689 582.574
20.5882 -27.5803 454.819
103.187 -44.0355 534.526
49.6094 114.237 547.377
16.0229 126.92 556.656
62.2382 0.47533 504.03
-25.3697 66.7223 559.112
63.6025 107.551 560.822
79.2614 -25.0772 512.125
75.1465 -25.0564 507.048
99.3274 -45.454 528.295
90.9662 -11.4162 535.178
86.9248 28.5979 550.577
72.0411 -48.6963 489.157
205.618 24.2681 760.423
-33.3801 5.27095 522.936
100.854 95.7668 604.997
253.363 -45.3776 863.131
252.658 -1.35023 796.858
262.648 -80.2005 918.484
103.05 -87.3651 511.292
-21.205 128.977 597.921
100.929 -40.1189 533.051
205.584 -99.8447 947.738
73.2684 -24.3736 505.146
279.339 6.14307 782.062
49.8555 95.9326 537.269
58.0772 -41.3893 475.583
63.1292 -34.8061 485.849
40.962 -76.1697 490.217
-18.9811 -66.7986 467.63
296.125 -7.96646 806.519
18.1799 31.074 493.853
-0.687149 52.2929 526.878
65.113 -15.7307 499.549
69.5259 134.39 583.635
69.4305 -28.1857 497.531
245.283 21.1987 764.476
156.725 20.1316 769.812
101.456 -67.2974 519.193
257.048 19.7059 760.721
-39.6986 102.425 603.078
66.1029 -46.0969 482.919
88.8666 -76.1957 494.815
77.3956 1.23512 523.759
-13.7134 -72.9112 462.856
60.8395 27.8837 516.324
-14.7324 -50.1204 468.918
55.4434 -12.4351 488.7
12.755 35.4885 471.42
-55.3247 -20.5584 540.903
66.8732 25.6722 523.641
79.5306 2.44576 527.013
199.487 26.3587 759.995
50.952 96.3786 539.251
258.115 -17.3987 818.955
100.661 26.44 568.336
66.9737 26.011 523.978
-41.7367 -14.6812 523.087
60.1609 -0.593272 500.413
222.415 19.3961 767.35
81.0305 -17.9148 518.322
170.756 20.2311 770.346
-14.7174 -39.456 478.628
81.4963 20.9337 538.904
-63.2243 -87.7333 522.543
87.3252 -25.3233 522.902
71.8272 -30.1008 500.242
77.6697 -52.3712 494.563
48.2596 -73.6965 489.641
173.083 6.54427 789.404
61.0109 102.404 554.522
-28.6005 -65.2801 476.629
18.0361 56.2948 512.21
-43.3869 -13.6693 525.856
14.629 128.933 560.345
16.5556 33.2323 495.781
66.6331 97.7143 557.834
223.907 34.4053 750.314
72.6388 -30.6134 501.268
82.2983 -27.7221 514.803
15.1825 125.089 555.94
89.7771 -39.2455 518.478
68.6078 -38.5653 490.606
105.264 95.3625 610.637
75.4706 -22.389 508.605
-35.2804 -51.1849 490.269
34.4732 161.352 564.45
-10.9056 118.388 579.522
180.419 -102.324 950.945
233.211 31.569 751.007
103.888 -41.9428 536.813
81.9277 7.74795 533.589
70.4562 -43.3632 490.195
-4.95404 125.228 579.141
-13.094 -59.6374 462.573
13.7372 125.756 558.65
20.6385 -32.4901 451.695
227.23 33.1602 750.359
89.011 -58.267 506.386
59.4688 -37.1308 479.868
87.8248 25.94 550.674
286.354 15.5941 770.633
38.2433 -56.9983 440.934
79.4738 -9.39919 520.595
19.8517 60.5076 513.162
37.4436 150.744 559.741
91.8267 122.074 606.642
78.1652 -1.65417 523.191
97.0079 28.0239 564.036
96.5286 -90.6511 501.534
-18.9333 -47.9735 474.346
63.0818 38.3627 525.397
93.1646 -32.075 527.393
83.0574 5.04258 533.373
99.6291 -85.0331 506.843
71.9047 44.2912 540.086
228.964 -48.3214 872.438
19.5817 60.0457 513.063
73.424 -20.8837 506.79
44.3413 160.367 564.928
67.414 15.0597 518.984
9.97001 21.1731 498.881
111.483 111.144 627.778
189.982 7.90583 790.743
60.8742 38.9668 522.76
-12.9706 -41.643 473.969
75.752 45.079 545.188
-44.1632 93.5462 603.4
84.4093 38.8034 553.226
246.29 31.9857 750.571
108.303 -1.52732 564.067
206.7 26.9439 756.076
-56.3136 -67.8338 506.167
43.9926 -82.9133 493.834
214.664 -75.4775 913.077
106.878 79.1854 604.396
190.087 23.2967 765.804
57.3881 -14.1856 490.408
86.1445 12.53 540.708
66.3045 1.04691 509.935
88.1508 -13.9138 530.401
-17.4661 113.024 582.18
243.747 -29.7447 842.567
78.1896 -52.6711 495.104
263.727 -43.941 859.403
-24.6809 64.202 556.041
60.3136 -6.34863 497.911
97.8231 -44.184 526.397
88.4039 50.6506 563.665
222.667 26.2387 757.577
18.3068 -58.0789 439.642
87.1204 -10.5398 530.566
74.7831 -46.3446 494.114
100.798 -22.004 543.558
97.3583 117.346 611.65
73.7335 -9.10906 513.81
85.7666 5.77954 537.205
70.5925 -28.8848 498.865
320.042 -39.4931 852.263
28.2059 -90.8839 503.24
96.6125 2.12843 550.398
-38.8983 104.483 605.472
83.3112 -29.0298 515.745
71.4734 21.7533 527.452
7.1344 -58.1774 445.683
98.0722 30.2769 566.785
8.65241 20.6925 499.023
-8.36256 77.9338 550.929
59.0912 -9.71731 494.69
61.4846 -34.5717 483.915
29.5201 -46.1369 443.401
85.7075 -49.9479 506.174
-47.391 117.011 621.214
81.3853 -21.849 516.684
-41.4391 99.8449 603.849
-36.7985 105.758 601.354
41.5653 -87.1217 497.341
250.755 -94.2263 940.85
90.4147 3.62357 541.973
239.325 26.334 758.825
98.971 -87.1587 505.241
116.111 62.7645 608.848
59.4156 -20.4391 489.404
16.8445 132.954 560.043
57.6665 -32.069 479.892
89.7762 -16.5701 531.199
42.6766 -40.5878 461.748
71.6042 22.9961 528.221
99.5069 -89.8264 505.031
101.51 91.4295 603.215
-25.2873 108.406 587.413
70.4663 34.4503 532.95
28.833 153.801 562.412
99.4284 -38.0258 531.796
87.0903 55.3247 564.309
66.9713 37.1866 529.828
42.6821 81.7711 524.89
60.305 3.59607 503.085
66.2006 40.3071 530.305
59.2023 52.4664 528.055
58.0301 -41.3416 475.556
84.2858 -10.7541 526.766
104.26 -0.214988 559.462
77.44 40.647 545.034
62.4433 90.6549 551.578
251.228 -55.498 879.785
17.5924 68.0282 519.11
75.1789 -19.8959 509.611
94.14 -35.6096 526.386
69.3487 -16.8126 503.984
265.658 -74.8301 909.242
79.137 -31.038 507.891
218.716 36.8025 750.869
280.128 28.3376 756.734
97.2987 -37.8477 529.338
-29.3304 -63.1343 477.243
61.7907 21.0114 513.881
109.42 -72.0075 529.702
76.3738 -16.8498 512.9
63.6167 31.8908 522.816
79.4802 33.7615 543.595
272.498 35.9205 749.483
73.2121 21.3207 529.637
112.902 107.352 627.383
63.4109 42.4992 528.049
101.851 -11.1795 550.505
67.1783 27.2543 525.001
110.361 -92.2452 519.914
68.8565 -38.6464 490.841
72.8277 3.32612 519.261
76.5217 15.0591 530.116
-19.5164 -51.695 472.211
3.05959 127.007 571.925
11.6099 65.7324 521.097
1.93006 -53.0159 453.866
75.8008 -24.2549 508.208
102.999 -55.4668 527.714
106.582 20.5842 574.19
-0.687436 52.2927 526.878
95.8419 -62.8204 513.097
65.413 -28.3424 491.981
12.8879 67.7692 521.688
-16.3996 114.795 582.338
108.274 -93.059 517.149
104.275 -88.9176 512.893
68.6604 -38.5983 490.633
89.0076 -76.1642 495.09
74.604 27.6657 533.832
7.55717 34.6099 509.341
104.538 -92.7161 512.438
-68.3423 -71.4917 522.966
66.5661 46.5146 534.361
-65.7664 -82.7216 511.487
52.518 -22.0362 478.445
231.852 -95.7872 942.568
59.0268 -9.61886 494.638
196.987 17.1492 781.412
61.6863 97.4979 552.838
76.1821 19.9336 532.049
109.68 109.911 623.942
79.8144 17.3039 535.118
11.2379 157.585 575.213
-46.8707 -57.0507 499.966
101.044 22.3345 567.153
198.799 -55.6523 888.488
4.39499 53.3014 521.802
66.1911 43.5303 532.187
71.8502 -17.097 506.942
202.842 -2.40232 801.224
94.9051 -36.0101 527.28
69.352 110.834 569.696
59.3531 -30.374 483.419
273.165 -78.1007 913.884
-11.8231 68.8718 548.323
52.6492 98.6351 542.69
95.1674 -6.052 543.875
227.31 2.05535 794.973
106.08 -96.0359 513.611
-42.2965 -52.9403 495.776
84.1724 29.1181 547.443
113.742 -77.4637 533.142
91.3201 -34.6105 523.135
87.52 -1.64182 535.311
67.2812 131.185 578.701
96.1783 -2.43132 547.457
74.3135 -24.8079 506.203
60.4897 83.9609 544.358
95.9592 -36.8333 528.357
-28.7628 127.647 604.043
89.4485 -35.074 520.392
59.1682 35.5121 518.687
-14.7337 -50.1065 468.929
15.996 17.9804 490.039
63.1372 3.84463 507.153
82.9176 -31.5638 513.559
249.951 11.5207 778.023
75.1537 -45.7533 494.928
3.05959 127.007 571.925
257.645 29.2083 749.195
236.907 31.3282 751.104
52.1848 85.9889 535.645
102.582 -63.5762 522.799
48.6339 100.286 538.513
146.641 -33.7682 847.01
78.4187 -33.5108 506.259
54.0984 112.47 551.607
-60.561 -63.1955 515.516
177.117 8.08636 788.451
89.0219 -76.2957 495.074
174.911 -81.0584 921.021
71.8742 -40.798 493.096
96.794 -55.3159 517.912
73.2588 -31.9932 501.198
172.963 21.3148 769.009
82.0055 -16.3906 520.429
77.6422 28.4024 537.988
4.51657 32.5741 510.732
18.4129 57.9393 512.679
76.3158 8.8082 526.752
-54.9446 113.591 627.955
98.2739 -56.2543 519.565
90.2977 -30.9463 524.006
109.803 -95.4838 518.496
-14.7291 -50.1088 468.923
74.2026 -44.6837 494.176
56.3228 100.211 547.976
74.7173 -48.5028 492.837
-34.2969 -43.582 492.279
90.4931 -81.0559 496.528
57.6822 112.008 556.173
80.1602 -54.0216 497.039
