87.167 -20.2179 525.21
71.0131 -43.1507 490.963
194.64 -40.1979 863.755
-21.0645 -43.5496 478.567
70.1009 -19.0062 503.091
87.5029 -10.0327 529.758
21.6416 -32.6735 449.669
97.6725 -83.1136 503.49
205.944 16.4223 754.242
56.222 -29.8607 479.882
61.3028 27.2235 515.883
172.632 10.9811 786.972
17.0442 68.8003 517.925
236.339 3.49284 797.999
183.378 7.95137 796.577
-211.938 48.2074 735.215
63.1188 40.1354 525.17
187.397 -1.37285 798.492
142.266 19.2079 775.429
82.1521 8.21778 534.291
320.073 -37.0935 853.935
177.385 -23.783 831.721
72.7024 -2.12665 515.32
87.7145 -1.73504 534.85
93.8761 -17.9613 535.731
-45.003 -12.8141 524.7
103.144 -38.2749 533.736
180.418 -102.86 950.582
107.025 -50.8635 534.97
-16.5259 -43.8153 473.864
-32.4166 -47.7913 486.759
22.6326 149.509 564.486
-42.6964 -52.4041 494.681
90.2158 123.142 603.928
92.1377 -79.2126 497.961
70.2373 111.193 569.022
107.889 119.556 634.142
62.1964 93.1155 551.241
97.1994 117.376 611.55
20.4702 60.7637 511.651
77.5428 28.6201 538.567
65.1215 2.16976 509.127
166.502 -30.7133 853.772
82.3463 -15.2508 521.383
57.5394 -14.4327 490.034
75.2981 -21.7194 507.945
57.3456 -23.6196 483.757
79.7391 -24.5943 513.145
88.8102 -32.3389 521.827
84.7441 -39.5439 511.051
64.5848 -36.1516 488.608
83.3186 -45.432 506.916
98.2031 -90.2872 501.024
28.9506 154.779 560.849
1.46169 58.1826 528.462
86.3392 125.225 600.604
4.63733 20.1703 501.271
10.953 73.975 527.255
227.31 34.3613 751.205
-247.03 79.5491 724.732
98.8387 29.8241 565.695
28.6729 11.7885 474.853
-236.869 27.3419 772.609
20.6418 -33.868 450.632
60.7435 4.8329 505.302
69.6691 -37.3807 492.074
100.758 -19.2239 545.43
74.4833 -47.1025 493.146
101.958 -91.0725 507.937
-210.349 -88.3977 847.099
-34.44 -50.1761 488.063
60.0813 39.1914 523.086
58.6072 -9.83888 493.624
252.694 0.119695 797.945
-27.6791 142.221 597.339
93.5431 -19.9361 536.979
-205.996 44.6679 733.412
71.3479 -15.9151 507.074
-194.941 25.2515 767.016
-14.5969 -68.9958 473.001
97.8125 -22.2884 539.314
-202.495 21.3502 740.033
64.8025 -17.3396 498.339
71.0251 -23.5765 502.634
103.618 95.7457 606.551
83.084 -28.6779 515.148
104.752 94.6991 612.006
-55.445 -20.4995 540.822
94.5747 -34.9555 527.666
-229.528 69.3528 723.88
98.2523 -37.2352 531.301
69.7094 33.1641 532.546
65.4813 18.0232 517.491
91.6309 -29.8871 525.697
44.9066 104.178 535.913
76.035 -2.1115 520.681
96.083 22.5279 559.993
-64.8458 -80.2435 510.82
95.1393 55.1516 575.612
234.004 29.9389 749.634
77.3917 -32.9798 504.848
97.0977 -36.7804 529.309
306.787 -12.05 814.843
70.4996 -47.3011 487.838
27.7994 -96.5186 498.772
94.8147 -85.063 500.251
51.4143 140.872 564.594
-223.248 45.8832 766.37
-57.487 -61.1729 514.202
70.322 8.5114 518.724
-14.4814 -39.6701 478.871
83.1198 14.4744 538.586
75.7818 24.2206 534.927
255.626 -42.0321 861.225
-61.0863 -65.8929 514.024
4.68664 71.0573 534.502
92.656 -80.4891 500.496
7.41828 19.3444 498.043
50.9323 96.2814 540.145
106.675 -69.2336 525.916
-19.5743 -47.5629 473.728
89.0067 -58.0842 506.379
243.748 -29.7161 842.585
-11.2343 -47.3011 468.963
301.972 -37.9397 851.553
-8.06427 77.7136 551.243
81.1704 -57.3622 496.717
8.52007 -59.3024 448.023
312.25 -44.5107 858.292
-5.36214 -56.971 455.156
27.0114 -55.6238 439.054
71.671 -29.2737 499.849
116.083 103.321 630.712
68.7675 -15.7317 504.015
56.6 101.966 548.327
-1.01039 27.1203 510.163
16.9581 33.9685 498.807
107.806 -91.5996 518.493
190.479 21.5601 764.514
104.702 -88.9862 514.152
239.17 24.5809 757.589
108.614 -71.4813 528.166
37.7579 162.216 563.702
46.1496 -121 535.294
18.6139 -9.6195 468.67
263.606 34.0951 749.066
292.17 -30.4257 841.697
-31.9396 -48.5507 487.235
-229.568 66.6226 715.461
97.4689 -44.8633 527.115
65.9174 89.7175 554.596
62.6769 -34.7126 484.733
85.8504 -40.5433 513.393
-4.12943 128.729 573.841
57.7403 -32.4089 480.077
67.5408 28.7645 526.248
61.2302 118.336 562.695
87.4264 28.2513 550.703
104.881 26.3283 572.847
89.3829 30.2858 554.712
222.427 19.2359 767.245
93.4694 33.9667 561.699
235.064 20.4273 765.334
73.8109 36.4026 537.833
280.141 16.5683 769.996
61.7296 134.716 574.235
280.155 27.0557 755.809
-36.9727 -49.196 490.426
67.3631 49.7289 537.534
103.679 -57.4422 526.862
12.1389 -58.0076 442.705
59.9582 2.92089 502.496
-2.77389 -42.1466 462.65
65.2007 -27.6623 491.245
76.1698 140.312 597.217
90.2206 -31.5195 523.703
73.0521 -23.1051 505.113
-14.1784 -51.74 469.336
-28.1046 -7.41974 508.424
79.0291 -14.6461 517.237
102.183 4.45496 560.603
74.4158 39.578 541.733
104.581 84.3736 603.696
102.01 -10.7684 550.154
66.9954 10.8101 516.003
72.5868 3.64642 519.386
80.245 27.4754 541.238
74.6856 5.90244 523.501
202.955 14.6474 784.295
109.913 -95.5821 517.88
210.827 -23.3253 833.783
70.7313 35.1935 533.194
76.2682 -43.6325 497.203
63.1338 12.3974 511.861
-255.035 38.06 751.355
251.719 30.8777 747.131
70.9462 -16.9883 506.204
72.5108 13.947 524.307
63.1245 16.0517 512.471
17.7251 59.5901 512.434
199.397 1.99904 796.076
50.3407 -77.4285 485.32
62.3391 23.2045 515.779
223.886 2.18627 797.819
77.9733 10.4992 530.487
-13.0182 -59.9205 462.112
189.936 8.54458 791.263
214.606 18.3738 769.808
219.615 27.1581 752.616
77.833 40.6203 545.171
198.801 -57.8923 887.166
12.9549 18.5742 489.566
95.282 59.5217 578.105
233.768 37.0774 759.199
64.254 113.642 565.522
108.609 85.5298 610.804
103.809 -42.2183 536.496
97.4905 104.638 604.294
221.122 8.55106 785.638
-25.1536 66.6485 559.211
101.032 123.783 621.592
96.0696 -66.5517 509.448
109.541 -71.8734 529.795
74.664 -0.529007 519.725
249.536 -141.693 1005.74
96.1058 2.498 550.566
71.7721 32.5673 535.145
15.87 131.381 561.701
17.5406 126.078 557.301
-70.8797 -70.1384 525.961
253.269 -46.4965 862.437
258.108 -18.3805 818.259
83.367 -10.8975 527.045
202.824 -3.22469 800.515
254.457 -7.6442 811.522
262.433 28.6996 745.209
62.9309 77.7596 537.57
90.9443 56.834 571.022
113.09 111.182 627.23
267.944 -108.664 962.569
63.9037 -19.147 495.997
-16.9259 75.8567 554.04
100.409 73.2177 592.796
-20.9835 118.052 579.926
39.3676 159.639 567.274
62.5744 -47.9342 483.567
98.0961 -51.7885 522.881
74.6825 -33.4334 503.232
208.218 26.4216 757.915
76.5982 -22.784 510.71
28.9134 161.151 561.965
104.834 51.5323 588.133
61.0894 -11.2727 498.56
105.263 75.7305 600.743
60.5103 -7.46639 496.089
106.201 93.1639 612.954
63.9163 107.677 560.572
37.7631 149.931 558.763
-33.8418 -43.8271 492.712
80.612 -41.1483 504.07
61.9054 -29.4236 482.117
100.329 22.6386 567.662
-34.7724 -10.597 516.753
116.281 108.87 632.899
251.076 -57.3179 878.628
-216.907 5.70041 792.199
204.437 -45.86 870.419
81.3451 21.5231 539.407
245.331 27.3878 750.459
-28.4796 130.299 608.399
72.1655 114.893 576.582
-42.7813 -52.8355 495.609
20.8064 -52.3944 438.743
1.07027 -47.259 456.41
76.422 -13.1632 515.375
56.1419 121.384 557.739
207.8 -38.9159 864.778
95.512 13.8979 559.43
48.012 128.651 551.408
82.1881 37.5217 549.715
102.884 -87.8064 511.968
29.8367 -74.2513 505.918
-0.349845 51.0743 525.834
94.1104 -80.638 502.784
-68.7854 -56.6779 535.684
107.932 -1.88214 563.495
104.232 -61.1057 527.359
92.2638 3.38339 540.936
58.6355 95.8687 547.273
192.313 24.5375 761.77
102.26 -59.9385 524.799
220.75 -5.7908 808.626
42.6798 -40.5851 461.744
32.0614 -11.1828 465.64
261.401 -42.3991 860.295
39.2107 -56.708 468.31
-21.6016 52.2648 543.905
63.7368 78.1406 550.851
15.1904 132.618 553.056
74.823 53.7923 555.846
72.377 13.949 525.071
91.0607 49.1918 566.938
54.4944 -19.3593 484.01
275.761 20.196 764.486
77.8487 -1.15113 523.431
82.7271 4.62756 534.216
111.346 -95.8422 519.474
76.4946 8.48435 527.344
108.854 -90.4728 517.949
83.4729 -47.8333 503.886
-209.628 47.0955 738.566
75.5544 -46.2844 495.12
71.0801 22.5411 527.867
100.727 -45.985 528.351
71.7915 89.2785 563.014
61.6828 97.3035 553.572
104.96 95.9735 608.867
-35.8714 -9.7617 518.627
83.7271 -28.3843 517.297
56.3784 102.066 549.65
90.1516 -33.3979 520.907
-34.4447 6.02924 522.037
72.704 -24.8791 505.47
89.9923 123.073 605.3
80.8164 -26.4351 512.829
80.1305 -16.6158 518.512
-31.3969 38.5623 547.588
59.5612 -21.1454 489.337
109.727 -93.607 517.968
75.0751 -25.7408 506.196
88.6083 -81.1139 493.289
-205.282 14.1257 764.803
74.8984 -24.4988 507.393
61.617 -43.1344 479.71
95.8266 -19.039 537.04
91.855 -34.3213 523.372
73.7082 -26.3791 504.774
69.711 -16.9426 505.276
73.8944 33.7177 536.708
57.8843 53.1349 527.785
70.7558 44.8618 539.539
-11.5833 -49.4284 464.378
105.791 111.537 620.002
-18.514 112.035 587.807
66.038 0.522168 509.142
45.7667 106.964 539.753
11.295 20.9008 493.96
-242.275 82.6983 713.418
79.447 -9.73262 520.498
14.967 125.091 559.897
93.6383 -82.822 499.098
12.7168 17.5214 492.703
102.445 -84.0276 510.399
71.1563 22.5179 527.862
90.6237 -80.954 495.641
8.93951 21.3565 498.35
58.7714 -41.3245 477.443
60.7168 39.9834 523.148
72.0261 -40.4149 492.846
68.1128 -37.7221 490.069
281.534 -49.6329 874.312
10.1002 -36.1149 459.281
-66.0783 -69.079 521.609
85.6817 -37.4967 512.432
-0.281607 53.8424 526.752
78.3646 -35.5182 505.85
-55.6622 -79.2691 494.694
317.587 -56.9427 872.664
90.8773 -26.2537 525.896
74.9674 -25.92 506.858
91.7233 12.6578 549.588
290.601 -10.616 807.536
107.269 21.2848 575.268
72.4224 96.3825 565.994
74.3807 19.5326 529.29
249.424 33.3404 746.026
-15.4255 116.055 582.845
75.223 27.3627 534.892
-218.613 29.9522 748.101
80.399 27.5983 542.516
-38.789 -69.0228 471.721
214.666 -75.3989 913.131
70.8582 35.1279 533.096
71.9856 -97.5431 516.664
84.7184 38.6714 553.196
76.3195 -17.0085 513.277
7.05847 35.0096 508.649
102.253 -85.9921 509.835
69.8447 38.7433 534.278
202.296 -52.403 879.885
53.5035 88.3354 538.206
-14.7181 -72.4918 461.624
113.136 110.908 629.401
57.852 112.083 556.032
-68.2578 -72.5564 523.309
-7.4576 117.18 578.317
-4.31648 124.728 579.75
110.952 -72.3211 530.286
99.9081 23.6248 566.463
20.9998 155.108 568.769
283.72 23.7769 763.074
12.1195 -153.638 618.87
101.501 114.593 616.031
27.9621 -97.9583 498.905
-45.0053 -55.2612 497.875
69.3907 -9.40153 508.25
-34.472 -50.4655 488.787
110.844 -98.8238 519.369
241.679 31.7969 753.769
-60.214 -63.1894 516.359
65.3095 -21.3085 497.18
100.689 -21.6172 542.633
-49.6339 -61.6384 501.448
88.0514 -13.6596 530.009
80.5238 -12.3811 520.631
-15.2688 -46.2402 472
76.8716 -7.1038 517.203
-29.3359 -46.6698 485.666
86.007 -48.0401 508.893
75.1795 -5.921 518.14
68.767 -2.18417 512.098
29.8675 -57.9466 441.478
94.9113 0.39172 546.84
77.3545 1.24126 523.573
69.5015 2.57306 515.141
91.7153 12.5675 549.921
75.4891 21.1527 531.722
177.589 21.5413 766.161
100.744 -39.9416 532.397
87.1099 -52.8084 506.072
68.1552 -20.3548 500.853
-47.8981 -55.1969 502.037
80.2008 -53.2415 496.26
221.416 -97.922 945.316
87.3833 28.39 550.868
60.437 -13.3317 493.985
67.221 28.8824 525.859
231.851 -95.8637 942.517
-15.84 -49.5303 469.182
8.73366 -33.5074 461.829
-3.41279 38.738 522.403
4.85137 126.18 573.336
225.365 -92.2394 938.85
250.614 -51.6518 868.527
-46.9793 -58.1137 499.772
266.88 -33.4392 847.193
79.6145 3.13042 526.636
98.498 -9.06726 546.082
9.67304 66.2388 516.631
262.854 -50.7434 866.931
104.251 -43.8165 536.968
97.3984 5.10415 551.865
-29.6311 -57.5354 477.691
101.25 95.4948 605.501
56.6879 -47.9707 470.059
95.6036 -62.9006 513.268
-22.6933 -46.4882 480.132
102.055 90.2941 603.863
96.7275 -84.9935 501.821
60.9288 90.8787 551.398
84.3184 -12.1268 526.304
-29.4582 -67.5748 494.151
-30.066 -53.5456 482.549
184.384 -133.398 995.621
78.0998 -25.9722 509.247
-21.2997 65.1317 555.958
49.5426 114.207 547.434
103.643 -12.0739 553.44
22.3609 145.44 559.834
62.668 -5.43019 501.811
61.4355 -35.4366 483.803
40.0065 -83.6867 501.945
50.8931 -77.1269 485.753
74.3633 -5.66672 515.945
186.901 23.5146 763.252
32.9872 -56.6312 438.905
-79.1987 -80.9308 534.491
69.4437 -1.55105 512.571
102.814 -89.6925 511.043
78.0138 103.947 577.977
3.8329 -60.249 443.915
99.0845 -56.7422 519.881
12.2445 71.2485 524.125
67.1045 -17.3519 501.064
12.8633 88.3921 566.013
-54.8594 -65.9435 502
101.921 -47.4195 530.483
-33.2721 -17.5474 516.605
305.967 -30.998 838.818
76.3641 -43.6701 498.067
-3.85561 -42.4363 465.457
54.3682 136.413 565.71
79.3688 16.9282 532.895
23.7626 -14.8071 460.867
-60.2256 -59.6494 519.306
89.0624 -27.6641 524.162
48.9507 102.525 540.494
91.3287 23.4761 554.381
21.6716 27.8373 493.704
80.5936 37.4969 546.744
87.7515 25.4162 549.612
91.039 56.5899 570.737
82.0999 37.6142 549.337
91.3166 64.8713 575.782
43.2823 82.0349 523.715
207.365 30.1767 757.528
91.6235 -80.3518 499.351
21.5201 131.144 556.972
71.4981 -48.8278 488.366
59.1246 125.095 564.392
106.849 79.1743 604.416
-58.4079 -71.3101 507.159
-71.3735 -66.7901 530.181
86.6752 -31.2064 519.567
93.1038 -39.8099 521.3
2.32309 -43.7383 459.528
4.68897 -33.9622 464.97
51.0807 -19.2409 479.61
62.9234 -14.5561 497.861
60.5664 102.181 554.842
196.841 15.0081 780.151
103.159 -53.508 527.886
53.8005 112.341 551.86
93.3282 30.828 560.378
1.78549 -53.2066 453.032
-19.2706 -54.2819 471.251
-2.68368 -51.9786 459.429
94.242 -49.7809 517.713
87.9893 1.44861 537.819
63.2979 -12.7197 498.396
-0.0173124 -36.3919 467.513
53.2199 101.024 544.836
98.5479 -88.4554 503.672
196.806 -77.1749 916.224
62.4612 78.5986 545.112
276.225 -10.6985 815.812
58.6085 -41.7463 475.411
71.3672 -24.9776 503.074
19.9576 60.8792 512.938
96.6112 121.978 613.974
101.339 -10.3534 549.208
9.82668 61.8768 524.774
74.7595 -45.9301 495.294
63.391 3.9442 508.739
0.151731 65.497 532.438
59.4941 120.521 562.664
62.6421 -2.24082 502.869
29.5738 -45.9496 443.1
317.47 -56.5132 878.726
74.1735 -43.3852 495.535
82.528 -17.4391 521.039
-53.8255 -3.0891 545.867
87.9513 34.4292 554.892
172.088 -49.7913 827.9
75.5919 -14.4881 513.916
2.3686 35.7735 509.847
162.376 83.0578 679.763
11.3791 -50.7408 445.926
81.7291 -3.99829 526.78
-36.8251 -53.2866 489.767
-2.77448 24.2182 510.237
246.146 -17.4097 824.811
176.266 8.4487 788.369
-9.25629 142.843 598.649
88.1213 -76.5501 494.067
55.2782 119.589 556.767
98.0971 -14.3483 542.293
65.3571 5.11177 510.475
75.9455 -24.8583 508.559
21.4402 134.695 556.407
17.3107 -99.2643 532.641
75.895 -50.9548 492.951
203.835 29.0018 757.732
51.5722 -14.4359 481.244
-27.4171 -87.9524 523.732
70.6186 -5.45943 511.145
181.368 22.449 766.375
109.446 112.4 624.414
-29.5101 127.687 602.813
67.9279 -46.1189 485.858
60.1755 8.66637 504.471
219.981 5.59197 794.967
234.429 -105.833 950.359
95.4599 -36.3572 526.379
64.1256 -34.0478 487.387
-74.5561 -80.3701 527.309
105.564 87.4049 609.636
20.3549 -27.7838 454.967
113.285 96.1146 618.005
222.673 24.9831 756.402
269.325 -16.314 815.751
92.8932 27.4167 557.92
-2.38545 119.399 575.589
86.6899 -15.2232 528.358
59.6084 42.1279 522.585
37.9207 -58.2328 441.357
12.7575 -4.58295 476.407
4.31601 128.589 571.642
273.139 -79.1952 913.195
93.1978 -52.7564 515.492
18.4887 30.8729 494.859
245.389 21.9093 764.936
17.916 64.1204 518.422
80.5721 -73.6568 486.796
205.597 21.0724 756.55
322.105 -43.3173 857.627
100.391 -91.2106 506.301
-27.9727 112.015 594.08
250.417 -19.3693 822.159
63.0027 98.4421 555.767
60.9308 21.5827 513.599
89.725 -35.5247 520.738
211.968 23.2761 759.913
80.0119 -21.8577 514.176
262.348 -11.9927 815.978
218.745 37.2523 751.368
265.692 -73.906 909.831
294.948 -64.3272 893.702
86.5104 12.1991 540.729
9.46315 19.5178 497.736
74.7711 -33.1061 502.451
11.507 -35.7608 458.377
-24.5378 -52.3524 475.269
57.3468 -12.1295 490.882
286.518 -61.6776 888.766
9.74937 158.573 573.701
199.679 -147.247 1017.89
241.083 -100.806 956.075
60.9826 27.2009 517.018
41.102 141.93 554.93
64.1231 -0.778632 505.527
-66.1212 72.1647 619.487
57.1763 -40.9901 473.561
67.1975 3.68012 513.061
75.3986 -19.7486 510.215
73.2799 -42.1017 493.977
77.7194 -12.9214 515.976
78.2747 6.73222 526.763
68.7534 -19.6624 501.792
89.749 50.1884 562.351
173.901 146.686 584.644
278.9 -90.8581 932.627
103.316 1.3543 558.483
322.884 -60.7063 877.202
301.558 -11.619 807.131
-8.65055 -28.2141 483.48
77.2869 -2.60605 522.124
13.0207 130.159 563.793
62.0919 118.91 563.822
84.1454 -10.078 527.36
99.2479 -46.3232 527.364
5.07607 48.4719 518.631
117.538 -95.7359 527.281
167.143 13.1523 776.348
-43.1084 99.8254 603.293
0.734391 144.994 588.302
67.1415 26.212 524.676
221.623 -26.8442 838.034
65.5715 117.257 569.257
-11.1658 68.3916 549.014
48.0759 127.177 551.867
55.4761 -31.5854 477.145
-48.2413 73.3525 595.189
172.742 20.6368 768.7
-31.7822 -54.6871 488.833
76.5063 -19.8223 511.397
-70.2734 -74.8777 521.956
95.9984 -5.73733 545.009
56.6887 -31.8317 479.027
-26.9425 -12.4765 505.38
54.8251 -12.121 488.785
213.882 -18.7032 822.921
252.25 -67.9717 899.056
81.5768 -36.9813 508.695
102.05 -68.7357 520.367
84.3054 -14.4548 524.433
65.4191 43.036 532.047
-24.3369 89.1109 573.418
171.121 -80.777 923.666
223.693 -79.5749 922.387
11.0246 -35.7044 454.753
207.074 3.23066 794.868
265.621 26.2305 743.367
20.8165 -82.3208 492.876
51.0676 85.2874 536.17
59.2623 -15.2686 491.7
205.393 21.1964 758.775
70.7289 24.1236 527.653
173.801 16.0293 777.748
11.5097 -32.9169 459.355
103.249 1.4541 558.497
105.21 -91.8567 512.124
-44.7835 -61.174 494.638
66.7792 -14.2646 502.126
60.7991 -22.8757 489.37
19.8774 -30.9251 453.188
257.93 18.548 767.28
137.393 18.756 779.433
84.3656 114.416 591.613
65.3919 -13.8551 500.315
91.0529 20.5801 552.351
32.0267 -55.364 439.569
13.9656 130.117 559.964
237.885 -33.2713 849.634
158.55 8.15398 785.567
-28.9706 -24.9394 502.95
199.462 28.449 760.831
-17.2875 -59.3339 466.613
-13.5763 -41.8867 473.83
51.8761 127.472 561.533
13.7982 132.178 565.768
77.0175 -51.9861 494.069
248.768 19.703 762.759
99.2115 -83.3729 507.337
53.1312 123.242 556.406
99.5303 54.3474 579.814
239.591 -19.6131 806.306
250.419 30.7228 742.181
29.1505 -99.0087 500.211
100.458 26.6997 569.114
307.444 -38.0854 847.01
-37.8114 122.855 618.463
-29.3053 65.9414 562.093
263.568 -45.678 858.273
66.5616 40.8316 531.737
-14.2178 90.5176 565.045
16.471 55.0764 513.193
111.317 -92.2957 522.012
293.445 -45.0785 854.96
215.472 -27.5134 836.625
70.3588 -0.957662 513.892
67.5879 90.9005 556.723
-16.7363 64.9225 550.41
111.589 107.651 625.372
102.901 -62.6116 523.313
78.2764 -44.9226 500.157
223.708 31.2082 747.301
95.9392 -46.0997 522.341
83.7774 -23.9747 517.484
1.86735 127.283 574.155
54.0681 93.2987 542.168
-7.3793 141.377 593.622
54.2714 91.1609 542.093
66.9088 32.4431 532.835
14.4996 130.651 546.208
80.189 -53.0563 496.892
75.8409 -49.6916 492.977
95.5311 -55.4743 517.468
75.409 -48.3947 493.786
79.1591 -44.6805 501.113
103.841 -50.2165 533.194
62.4258 -36.7458 484.537
65.3152 -37.2629 486.982
104.489 -0.587491 559.951
60.781 7.40009 505.593
67.0326 9.25639 515.011
94.5741 6.58065 550.116
80.14 9.32636 531.302
91.1482 9.09511 546.887
89.0419 12.0917 544.813
74.7122 14.8666 527.774
76.393 17.1491 531.163
85.4755 29.081 549.614
279.362 8.29076 783.456
70.5258 34.1829 532.737
67.9351 35.986 530.837
86.8614 36.959 555.3
84.2659 37.5189 552.516
70.8075 88.4647 561.846
53.6578 97.7994 542.587
51.4911 99.457 543.302
105.691 -90.7425 515.067
98.0541 -81.7004 506.734
93.0972 -79.5664 501.523
89.1821 -75.7278 495.269
41.207 -54.5387 442.235
41.3075 -53.8717 444.33
100.503 -65.5656 519.053
90.4878 -59.6707 509.063
86.3916 -56.8914 504.12
78.9374 -55.1763 497.834
73.7038 -51.4711 491.139
86.1769 -50.871 507.316
59.2834 -42.7678 475.28
72.7172 -32.9224 501.122
103.152 -39.6011 537.774
93.6619 -36.0299 526.11
93.8697 -15.0354 537.339
59.9599 -2.89655 499.008
98.1248 -7.02075 547.913
62.0276 0.0984022 504.424
58.3572 3.61957 500.926
62.5612 4.14992 505.033
81.5914 6.04942 533.164
60.6228 9.78586 507.376
242.941 -23.7889 828.888
80.9859 15.9453 536.24
76.2312 18.6855 532.379
161.606 4.37282 789.984
103.733 16.5681 568.055
74.1061 21.8833 532.07
65.2253 24.4254 521.093
106.802 19.2073 573.841
184.977 11.221 783.585
83.6976 26.1645 546.178
99.3554 25.9082 567.46
83.6241 28.0146 546.252
164.707 22.3227 768.503
61.688 41.2069 524.123
-0.703624 52.5204 525.799
86.7421 54.1196 564.599
13.4868 65.8963 520.576
60.8351 78.215 559.748
56.1025 94.5534 544.466
51.204 155.271 563.913
108.168 -97.7299 515.611
107.956 -94.3033 516.923
109.38 -93.8244 519.024
60.5555 -82.3913 491.44
106.727 -91.9871 515.578
91.3623 -83.2688 498.321
98.0177 -85.6788 506.815
100.803 -86.5624 510.67
106.83 -88.1687 514.993
92.8687 -82.7996 499.911
122.718 -92.7221 541.87
-31.2735 -61.7374 475.726
38.5831 -55.6988 439.106
67.6004 -47.708 482.517
98.9874 -56.6051 520.173
96.9 -55.161 517.78
61.8531 -44.8456 479.391
57.7762 -40.1138 475.072
82.6848 -46.1158 503.845
73.2761 -42.0888 494.818
69.2653 -39.2383 491.509
74.0859 -39.5364 497.293
103.232 -44.8723 535.54
100.758 -43.4514 534.511
87.2944 -38.9635 515.147
96.6468 -38.5076 529.39
73.8854 -26.5763 504.91
85.9244 -28.4549 520.029
83.7453 -27.0145 518.233
54.0542 -16.7642 484.258
65.3076 -16.1653 500.246
156.369 -62.5277 896.111
55.0471 -12.0566 487.503
101.769 -12.7291 548.691
239.668 -17.3048 816.765
77.4616 19.6576 534.344
287.631 -7.10069 807.467
227.189 0.589942 793.824
68.8997 25.0318 525.392
66.8692 26.3495 523.335
143.944 17.0669 773.836
107.049 23.9821 579.356
156.537 20.8359 769.541
78.4076 42.3864 547.775
232.012 32.5877 757.541
100.543 46.3879 579.76
52.8824 103.886 545.675
68.927 144.038 587.124
33.969 161.485 562.864
121.035 -107.887 545.079
115.603 -101.803 526.032
111.114 -96.3276 520.251
56.4152 -81.6651 491.272
100.473 -87.364 504.717
96.2397 -85.1892 503.634
95.0546 -51.9231 516.662
93.4259 -38.1999 524.627
93.1808 -33.6239 528.032
86.1553 -30.9595 518.362
57.0063 -20.8713 485.366
62.4389 -19.8173 493.151
71.8328 -20.1034 505.803
69.5821 -18.8842 503.151
62.9363 -14.7552 497.748
160.999 -58.1619 885.085
87.0459 -16.7546 533.136
59.6036 -4.26715 497.921
148.659 -28.6943 845.303
67.9534 0.654571 511.409
94.7735 -3.36987 548.912
85.3985 5.60185 536.179
87.8876 19.8155 548.25
305.517 -8.41341 812.074
90.1711 20.5529 550.804
140.976 13.9539 775.369
82.2959 25.563 545.116
119.79 -89.5298 534.314
57.3268 -16.8869 489.811
86.2942 -22.414 517.97
64.0779 -6.26746 503.618
146.632 -32.4247 847.879
238.692 -21.1124 828.517
0.599183 31.6105 510.899
164.085 11.9428 783.944
78.4013 25.6587 534.764
62.5433 31.493 522.975
61.2253 32.6768 518.887
288.621 8.678 779.649
186.781 29.1765 770.81
85.7952 -82.6515 492.798
-19.3737 -52.6487 470.185
-15.3351 -48.9905 468.42
-24.6233 -49.3001 480.751
-7.64775 -41.4529 466.643
60.8449 -0.916168 499.666
271 -43.0675 849.844
70.005 11.8931 520.999
66.5048 14.1983 514.917
77.1334 14.4727 532.153
301.716 -18.5666 824.592
237.896 29.0402 753.041
119.146 58.7532 606.852
51.0701 96.4176 536.092
48.3606 -46.0915 458.485
144.003 -53.5251 882.679
186.96 -27.2658 842.117
200.74 -18.1764 837.422
1.71029 23.3967 502.009
75.7676 45.3912 545.179
116.979 91.1278 630.514
53.2933 123.638 556.06
21.24 -54.1424 435.269
159.091 19.1542 770.26
29.1707 -56.1762 435.647
69.5057 -28.0499 498.096
56.9284 10.9791 501.265
189.879 -12.1775 809.678
56.5153 76.1756 535.272
44.177 -17.573 470.104
65.7867 41.8975 527.914
-62.8168 -77.8015 518.72
-64.9733 -64.4319 522.164
1.73965 -52.112 455.494
3.64477 -50.0383 455.2
79.2569 -53.3968 495.316
88.654 -49.9567 508.739
93.7805 -18.2504 534.736
65.0266 -15.881 499.466
83.9698 -8.79674 526.229
70.1634 1.25722 514.449
74.9232 4.66592 522.384
61.0677 4.46219 504.801
92.7194 18.94 553.564
93.6891 22.1577 557.397
5.39226 22.7125 502.925
9.86562 22.4222 498.049
65.6757 27.1529 523.565
3.58198 31.8637 510.044
4.21264 29.8927 457.976
65.7653 38.4263 528.886
76.7195 41.6053 544.624
17.5084 56.1184 511.338
18.817 57.274 512.543
-24.882 64.2061 556.403
49.71 91.0429 535.498
-38.53 101.712 599.648
-39.1833 104.821 603.721
-10.7715 115.737 576.059
-3.6548 117.551 570.933
-24.4537 133.67 601.594
15.5918 125.459 555.751
-6.5877 136.556 583.589
16.2434 132.709 559.874
115.669 -103.708 524.094
106.121 -96.4663 513.933
-69.9318 -87.9012 516.591
39.1694 -54.5151 444.995
101.652 -58.4118 522.858
105.403 -52.54 533.274
86.1404 -47.0572 505.397
96.7839 -40.3285 526.279
93.1213 -37.7887 523.27
18.1557 -28.5471 456.958
79.4091 -31.5792 507.307
19.1447 -26.7927 456.293
83.055 -25.9556 518.487
62.1114 -19.4904 494.516
71.9677 -20.2203 504.876
73.2315 -18.3 507.953
53.9451 -16.789 484.948
68.3001 0.575983 512.392
65.241 1.93686 508.99
94.3514 -88.5346 501.092
89.5739 -85.3474 496.501
106.139 -86.1543 514.823
99.0178 -81.5427 506.851
-15.8417 -46.3917 473.788
106.336 -50.3048 532.648
97.6954 -38.3116 528.905
59.051 -30.8305 483.939
85.3594 -25.3007 519.494
83.5227 -23.8678 518.566
54.2475 -21.9062 482.412
57.0948 -16.373 489.711
12.3635 18.468 493.071
79.1616 16.6891 533.471
73.5401 16.7316 527.508
59.9563 8.41323 505.183
82.1053 8.1452 533.246
85.7989 5.85348 536.394
88.755 4.34456 540.397
84.8061 3.45972 534.909
90.9729 -0.587279 540.562
74.7297 -0.469831 519.528
55.398 -126.407 572.675
27.3737 150.03 561.663
9.85117 146.275 569.808
1.52827 140.87 580.28
20.778 134.704 556.744
-19.7587 137.884 606.516
21.6374 125.336 554.789
-26.0065 127.954 602.086
-47.9769 117.221 620.723
-25.4382 108.497 587.275
-54.9336 113.587 627.964
-64.9491 115.038 638.551
96.1533 79.2117 590.447
-29.5975 68.3023 563.68
19.579 58.9987 513.554
6.03971 57.2548 523.598
-1.13857 52.571 527.109
1.68961 31.4904 511.484
84.7003 27.2637 546.899
93.4373 24.1079 556.574
15.9655 14.6657 486.826
74 -21.4597 506.607
70.8313 -28.0427 498.064
60.9554 -33.812 484.39
22.7768 -31.5883 452.536
61.4861 -35.3951 483.138
11.1687 -33.6264 458.798
19.6551 -33.24 452.614
9.6816 -34.3843 460.249
12.0865 -34.468 458.305
14.3069 -36.0531 455.546
69.5456 -38.9773 490.882
101.069 -42.9169 531.931
74.4861 -47.1789 492.523
-17.4875 -47.2695 475.786
73.3957 -49.8865 489.824
95.2064 -54.1407 516.29
99.4153 -59.331 519.983
87.8042 -58.2254 504.998
-32.23 -56.2558 482.029
-17.8343 -55.6417 469.033
91.3288 -60.6329 506.828
-16.1386 -57.1003 463.679
-56.4508 -67.5275 506.095
89.2825 -76.0211 493.905
43.3135 -79.6233 485.416
103.71 -94.5335 510.31
20.0625 132.827 555.307
18.7936 130.852 557.122
18.2366 126.081 553.622
0.974466 125.635 571.892
2.65769 119.154 563.703
-11.6093 118.984 579.519
-17.6495 114.093 581.571
-125.165 120.896 635.866
-40.6009 106.944 602.86
-41.7805 100.67 602.792
-26.9319 76.0295 568.071
-26.6277 65.5591 558.604
-2.61457 59.4908 532.485
8.59798 49.0267 517.848
3.70326 49.0547 519.211
60.782 45.0304 526.45
15.9311 34.2924 500.674
18.42 32.0632 494.051
19.5545 29.9879 494.002
66.5814 24.7567 522.502
3.31155 21.8571 502.079
7.88573 21.4059 499.63
5.97743 19.9044 500.555
77.3089 21.7337 534.805
75.8378 20.4194 531.125
10.8247 17.6861 494.856
64.1185 -5.26276 503.33
61.8975 -12.8157 496.727
76.897 -13.9886 514.296
90.2809 -15.9723 531.382
60.214 -16.9009 492.396
78.9852 -20.3467 514.391
75.1921 -20.1834 509.43
80.9248 -21.5137 516.065
54.8825 -30.3397 478.117
95.5987 -36.5499 527.97
57.2442 -37.9754 476.724
62.6927 -40.861 481.761
97.8194 -44.5387 525.817
69.2724 -47.5724 486.221
97.0016 -55.3474 517.496
4.61802 -52.0989 453.081
0.907023 -53.0038 454.339
2.72966 -53.219 452.491
0.712798 -54.3712 452.942
-68.458 -69.1101 523.043
17.8874 -58.0412 437.949
-30.1031 -65.441 474.718
-35.5828 -68.6688 476.609
-71.5423 -76.3291 524.428
-68.6455 -78.3207 518.575
-63.7047 -78.8029 509.653
92.4606 -77.9441 498.436
-15.6606 -90.4401 538.279
111.654 -91.9055 520.029
-23.3125 -93.5988 532.305
-21.8047 128.2 597.966
-41.664 104.387 605.644
21.7643 62.4336 513.483
18.8674 60.3188 513.87
-20.2394 62.9056 549.803
-2.41693 51.9277 527.935
67.4024 17.9868 520.346
103.658 16.5694 567.037
59.2839 9.6341 505.864
67.1138 3.65111 512.289
77.668 3.019 525.047
72.3464 -0.365946 517.058
58.3981 -9.95062 493.869
73.3824 -10.1232 513.738
74.3825 -22.7606 507.016
79.9423 -32.8522 507.453
20.6409 -32.4533 452.595
99.9682 -38.5208 532.06
97.6325 -46.0603 524.302
73.501 -44.228 493.157
81.0431 -54.6985 498.332
107.469 -89.86 517.409
23.8845 128.036 549.468
62.8433 51.2678 532.434
67.1086 45.7445 534.146
76.78 39.8733 543.638
92.9766 25.3201 557.842
92.2654 24.7383 556.876
90.3785 24.7623 554.272
88.8847 23.3504 550.947
143.77 2.19995 802.524
88.3811 13.0086 544.696
67.0013 14.6048 520.058
84.7525 6.59049 536.445
101.624 2.99189 558.013
77.4161 5.71777 527.086
88.0034 2.97304 538.626
94.2065 -4.69793 543.706
84.7963 -11.2923 527.026
67.7811 -9.57122 505.945
92.5081 -15.4838 536.274
90.4763 -15.6205 532.646
4.49601 52.5615 521.929
92.5723 -18.9516 533.624
70.6504 47.9959 540.067
101.572 -21.1804 545.27
101.995 -22.2934 545.559
65.705 -15.0757 500.339
100.345 -22.8635 542.623
76.073 15.4644 529.59
66.5057 -15.5534 501.031
7.34955 13.9982 501.25
102.969 -24.6563 545.318
74.4053 6.07357 522.075
87.1805 -24.5096 524.097
69.5043 5.56279 516.178
83.3763 -25.4693 517.745
82.4039 -27.4382 515.069
91.4252 -29.6594 526.715
81.4814 -27.4645 513.813
67.101 -8.00824 506.219
78.7892 -27.7311 510.238
61.7278 -7.98657 500.149
84.6025 -29.4292 517.128
59.8964 -10.6005 495.448
83.9625 -29.8609 516.162
84.862 -30.9748 516.774
61.5646 -26.4069 488.663
-23.7681 -42.2446 485.081
71.9085 -29.4263 500.799
73.7984 -30.0626 503.038
88.9645 -33.9256 520.592
75.4917 -30.8951 504.647
74.785 -31.1306 503.482
66.01 -28.8057 492.251
71.7357 -31.0887 499.58
75.6705 -32.2085 503.988
96.2919 -37.4373 528.713
82.8996 -34.4358 512.351
74.6075 -32.7353 502.214
88.0673 -37.6939 517.398
15.4993 153.064 573.341
80.5799 -36.2723 508.12
12.1415 145.891 574.041
90.2751 -40.3038 519.298
-20.8005 129.875 597.667
84.3646 -39.6141 511.554
96.5493 -43.8273 526.29
99.1068 -44.6365 528.106
-34.8969 119.561 606.036
95.8493 -43.8656 524.946
-62.6972 113.159 635.461
68.397 -39.0086 490.291
103.347 -48.5295 532.291
67.4534 -39.866 488.148
67.8811 -42.1659 488.304
84.0587 -49.3221 505.173
75.1405 -47.1431 494.447
97.9069 -55.7381 520.321
102.136 -58.7601 526.486
78.1812 40.167 545.333
73.1552 -50.1894 490.504
74.6634 -50.8359 490.839
73.5965 36.6482 538.587
78.5354 -52.2802 495.034
62.9225 34.6018 523.544
76.4824 -52.3735 494.371
81.1348 35.034 546.158
77.9805 -52.8757 494.455
65.068 32.8644 524.345
107.801 -62.9956 534.116
83.5206 33.5112 548.276
92.2185 -58.8211 509.511
-1.00767 28.9766 510.7
89.742 -58.1366 507.631
78.5585 39.9007 546.428
73.0424 22.2701 528.778
97.5173 28.1582 564.846
70.6705 26.8724 529.223
62.337 49.9716 530.493
71.0007 20.9964 527.42
-36.3322 105.981 600.969
-67.2193 -66.5114 527.318
193.731 -29.6628 842.449
72.2738 -48.5483 489.65
169.678 2.26815 791.755
49.0015 101.731 537.699
313.198 -62.4143 881.515
65.5503 38.7147 529.124
284.713 -9.1321 811.082
66.1101 47.4125 534.541
88.8515 -87.1117 496.909
60.3745 -4.2234 499.578
236.233 13.2442 786.045
272.472 19.8415 759.27
188.762 26.3475 768.953
230.816 -5.37572 806.7
227.437 -0.176162 794.421
269.775 19.4219 761.911
94.1637 3.81162 546.685
59.481 17.9377 509.065
257.926 33.3685 752.725
92.3903 121.699 607.316
61.8194 20.026 514.444
4.19048 33.733 510.298
131.434 99.4516 653.467
98.9883 52.006 579.869
100.033 59.5629 584.422
12.8547 65.4137 522.357
80.6775 -19.1539 517.704
-203.233 17.7889 760.019
59.5414 83.6612 544.944
72.3057 46.2357 540.51
13.5675 -50.1517 445.051
33.1938 161.832 566.065
67.8657 9.87624 516.718
33.1142 -53.5662 441.289
34.2921 -48.6123 443.393
105.275 -72.7125 521.138
59.1981 99.9634 548.976
57.685 137.092 570.381
250.734 -95.6657 939.916
299.264 -91.9877 942.008
277.173 -55.7215 878.267
89.4148 -8.21239 535.615
16.8188 -43.0591 445.774
138.122 16.3068 774.87
242.333 -47.6682 871.742
61.7151 91.3056 548.257
309.194 -17.117 820.238
90.8178 -40.1382 518.753
1.88528 14.9547 502.047
219.329 29.7001 752.943
237.63 33.6286 748.34
233.115 32.4061 749.622
92.0496 -43.5638 520.048
237.096 28.8928 749.629
62.434 -8.31601 498.895
116.257 62.8179 608.745
-13.24 -49.8178 469.372
-12.9739 -59.5634 462.822
89.9875 7.66276 544.138
72.0144 88.1665 562.868
108.384 109.282 624.837
103.082 -86.4356 510.791
1.88121 62.7495 528.615
86.235 61.2826 566.788
51.8705 -14.2046 481.535
13.9558 68.2126 523.72
87.891 107.004 592.456
58.7371 116.032 559.794
257.149 21.3503 761.961
-250.314 81.2828 719.25
208.633 -104.948 947.259
58.0133 -32.2828 480.744
58.5358 35.8788 518.865
125.258 61.6892 623.546
82.113 -35.0204 509.138
76.6948 -22.7811 509.781
-42.1643 -14.4407 522.763
296.124 -8.03176 806.473
288.663 -131.061 997.95
52.3077 -38.0568 469.932
101.275 -67.4695 519.145
-6.95294 -43.6188 466.773
69.1635 -27.718 495.56
-20.6531 -50.1945 474.039
310.861 -47.5421 849.912
112.506 -77.8868 533.944
262.651 -80.0612 918.574
112.36 107.369 626.799
69.4892 -28.5461 497.983
87.5088 -56.0382 504.678
103.536 21.2041 569.884
73.3581 -18.2578 508.112
292.92 1.733 788.14
286.347 15.9563 770.889
-40.7939 91.8784 606.073
227.727 -72.7223 908.382
13.033 34.3645 493.593
265.849 17.2202 754.383
215.731 27.4382 760.042
273.04 26.8214 746.931
88.2024 51.1071 563.362
57.0934 105.802 556.149
-22.0561 -2.17049 508.934
263.453 -1.3785 795.029
13.7761 -18.3793 470.149
296.775 -36.9544 849.165
-186.608 11.3095 787.639
109.3 -20.5476 563.197
10.7523 81.9312 533.54
266.393 32.7948 752.107
-21.9885 89.1793 570.839
289.284 -6.65688 804.65
170.037 21.1261 770.212
53.7479 96.1217 544.12
79.3422 -10.6659 519.798
97.6714 103.978 604.508
49.9591 100.727 540.187
67.7418 96.347 562.054
283.422 -18.093 820.046
303.042 -124.659 981.213
92.3012 121.519 607.665
-14.9432 -51.0578 468.459
60.4799 14.4244 509.961
87.7589 -50.4687 508.014
234.417 12.8014 782.905
-4.46409 120.353 573.448
68.8457 -15.6226 503.67
9.45506 122.382 560.581
174.917 -80.3543 921.515
250.021 12.2536 778.502
87.633 14.6063 543.112
303.889 -95.0535 939.817
75.8526 21.079 532.701
84.6402 28.5653 547.793
-29.6914 -7.31969 511.072
20.4194 34.5906 473.543
-47.1516 -13.8291 529.937
173.662 6.01913 787.783
74.6859 34.6166 538.46
-34.1457 -4.09477 523.197
10.7691 -34.8257 457.81
75.6986 32.7182 539.176
248.617 14.2683 777.359
270.748 -84.9506 929.15
287.46 -1.80565 796.053
63.1791 36.5328 524.153
1.49423 18.8228 503.396
67.5577 26.1081 524.098
171.146 23.2795 773.417
8.4383 125.79 564.486
217.912 -49.7019 875.744
3.35775 126.454 570.432
14.0724 -29.8353 455.919
184.093 25.7145 764.353
293.845 -23.5407 824.261
6.46912 48.4267 518.433
63.0398 38.0233 526.381
19.1697 -27.9904 452.657
303.438 -23.9572 821.068
-28.2216 87.1319 576.237
197.105 25.4262 760.432
106.433 -88.7549 515.304
-5.54959 144.286 594.146
285.03 26.1774 764.163
76.7281 41.3777 543.917
67.3994 23.336 522.945
32.0573 152.375 560.434
97.4145 55.5757 579.535
72.7855 42.6466 540.888
101.592 18.8832 565.71
32.2295 156.947 564.113
76.6919 75.473 561.664
94.7397 20.2653 556.494
60.2559 52.0666 528.082
87.0471 23.1981 547.837
56.0396 100.25 547.84
78.8988 137.716 600.147
42.7501 -81.1487 496.275
80.9927 -46.3144 501.399
60.6948 -37.9838 480.977
68.075 -37.8208 490.453
82.9611 -31.4173 513.497
-25.9887 -46.9753 483.668
-50.1297 -74.806 493.985
53.8555 -21.3002 479.01
-44.8112 -65.2335 488.924
26.4875 -14.3365 458.777
65.386 -35.1125 489.023
205.567 -101.313 946.753
-55.2326 -57.923 503.124
245.608 -97.2447 941.534
110.297 -90.6269 519.492
274.948 -104.641 959.317
211.948 -80.4565 921.022
59.3645 -9.33679 495.137
77.2265 -4.72796 520.527
73.5036 -13.4076 511.888
219.959 12.5453 779.91
-16.2633 -8.82716 499.89
74.7203 -3.13446 518.289
65.2661 36.3809 527.7
95.4568 -45.7606 521.225
208.576 -54.9761 882.562
58.1971 -8.5475 494.724
224.364 -52.9237 874.043
-229.403 46.926 771.556
110.526 -92.2517 518.925
229.217 -45.1962 874.448
248.185 -43.0444 862.836
192.138 -4.47354 802.483
49.1367 99.2703 539.442
175.66 0.990973 793.552
88.9928 -38.3658 518.37
-37.8278 -66.0019 485.686
296.261 -13.4315 813.687
92.7794 -40.4111 521.396
117.498 -76.2401 537.295
102.49 24.8074 569.137
228.613 -49.1203 876.288
295.594 -17.1446 821.308
73.7345 -11.8466 512.461
161.595 17.3692 771.617
81.1808 38.0444 548.877
86.2022 56.857 565.158
153.894 18.9373 769.987
108.847 -89.2673 520.214
-243.559 74.4714 730.922
83.8972 36.1032 550.708
66.743 38.1612 529.259
102.244 40.3304 579.593
-38.9404 143.393 608.597
246.449 31.1712 748.431
272.456 37.0969 750.425
63.5323 90.4708 552.806
101.169 91.6357 602.856
55.3427 94.2953 546.817
95.2226 -6.37685 543.062
67.162 131.131 578.792
24.7666 -29.7019 449.21
78.9986 33.3216 542.841
87.5864 -1.74305 535.281
77.8202 -55.539 491.703
26.7898 160.558 565.856
44.264 160.275 565.294
65.118 92.2513 557.348
18.5617 64.3695 514.667
69.5878 15.5012 522.082
108.21 -62.3943 531.187
89.9825 -75.9887 496.157
77.9008 -48.8018 496.431
55.1187 97.7129 545.093
75.2948 -42.2711 495.858
116.936 104.216 632.903
105.264 -52.653 533.003
243.558 -130.455 996.03
76.3691 -27.6566 507.364
66.3975 -45.3165 483.652
-20.1617 113.129 580.698
17.6268 68.1539 519.507
77.2857 -10.7088 516.955
97.3873 117.162 611.806
267.545 -12.266 813.379
-68.1309 -84.0048 511.078
63.5612 42.4362 528.296
292.68 -71.5998 899.832
-8.35935 117.91 573.049
65.6261 97.4628 558.676
91.2777 -12.8865 535.372
59.6971 118.136 561.863
16.1818 -54.3493 437.956
320.364 -122.301 981.13
201.482 25.6335 759.516
77.8061 -1.21641 522.846
13.9395 25.3967 509.864
-28.4224 127.432 605.137
14.0004 -34.2504 454.445
83.7367 30.3796 547.776
4.9627 -39.6635 462.568
81.3584 18.1312 537.362
52.7874 -26.5235 475.911
217.102 -22.7345 830.548
90.3626 -80.8055 496.557
278.016 20.9458 755.397
-33.2992 111.282 599.002
69.8335 134.529 583.404
30.4764 156.033 565.2
37.1647 151.637 560.375
123.125 102.515 639.897
19.3863 72.7051 521.002
92.8042 8.23461 548.238
-29.7208 -56.8895 478.921
106.186 -2.87755 560.126
-22.4327 51.9464 539.918
20.6715 64.1688 516.852
95.1844 -6.421 542.73
84.1488 24.625 545.097
4.94207 121.219 566.421
104.416 -45.1241 535.969
-57.9364 -10.1974 553.686
29.6823 159.993 566.152
-33.1694 -4.08871 515.793
257.048 12.3237 772.926
