248.556 -200.874 912.649
64.9154 -126.008 833.682
208.164 -89.1144 797.249
291.207 -149.058 861.27
186.215 -106.577 812.287
66.6388 -119.213 826.991
379.504 -302.157 1144.16
125.477 -81.4057 783.187
-21.854 -90.3126 794.685
159.815 -94.453 798.755
-47.0514 -80.254 780.935
46.2356 -57.05 749.469
65.7315 -56.5803 752.825
51.7026 -51.3461 746.492
46.1552 -49.3766 744.149
113.521 -36.3621 723.127
112.799 -34.47 719.286
32.9123 -45.1288 739.625
350.143 -176.179 888.093
89.9809 -27.8893 713.267
92.0858 -26.2528 708.913
118.553 -31.9941 702.116
-54.0666 -14.4921 708.992
91.2729 -28.1979 713.342
99.3293 -70.9065 771.271
90.2874 -69.5186 770.549
98.0087 -29.0932 711.501
83.93 -24.6751 709.273
-40.7678 -12.1443 699.245
-80.9175 -428.99 1282.31
254.025 -199.506 920.054
158.292 -173.412 884.043
215.416 -90.5981 788.236
186.088 -102.263 807.574
-51.0169 -98.3309 804.34
84.9834 -380.8 1232.6
-24.3657 -90.1273 793.714
-49.6578 -77.5425 775.029
-26.9368 -73.5477 772.704
91.8356 -32.1301 718.747
86.5417 -25.9465 711.704
-10.9932 -14.811 703.084
-47.0852 -3.67955 691.201
-57.2779 -96.2247 799.239
-26.4972 -92.4249 795.49
-47.2981 -93.7566 795.774
-45.5184 -90.3317 793.682
-36.7909 -88.0744 788.907
-44.1 -87.2064 791.27
-35.6596 -72.086 770.055
47.0758 -53.6464 749.992
112.978 -39.0059 727.231
67.5041 -22.6635 708.282
-49.6808 -418.29 1277.9
427.68 -302.838 1123.31
488.478 -274.329 1120.01
-35.0712 -68.3443 770.928
-43.0208 -423.297 1277.78
-37.6406 -416.899 1278.39
48.1784 -394.421 1247.41
63.8903 -385.104 1243.11
58.6839 -379.339 1244.52
63.7842 -373.658 1230.45
451.565 -314.867 1109.03
186.581 -343.988 1203.6
438.617 -306.361 1121.3
489.316 -277.926 1100.5
526.817 -263.907 1104.59
61.1942 -124.306 833.907
103.945 -114.677 821.083
213.189 -92.1815 799.836
218.77 -357.481 1190.49
241.442 -333.095 1180.92
422.657 -298.915 1127.32
327.666 -305.655 1152.89
151.809 -77.5472 780.421
120.808 -79.2368 783.042
-34.9477 -87.2402 787.09
285.509 -340.269 1162.43
157.591 -137.866 845.818
86.0922 -93.7445 796.585
-29.9434 -95.2558 796.75
181.913 -127.556 828.629
81.7791 -130.75 841.5
15.8231 -99.1419 801.809
73.0229 -93.0898 794.623
-62.1062 -30.6926 725.569
111.203 -397.613 1235.71
152.252 -386.9 1221.82
15.8744 -381.399 1226.33
444.059 -376.559 1251.88
292.035 -185.767 887.124
39.2181 -48.3165 744.269
234.542 -152.462 857.547
-61.6759 -71.37 771.139
474.449 -285.803 1112.03
308.84 -72.8022 806.321
325.994 -324.52 1155.77
144.607 -26.3724 720.704
144.736 -88.9072 788.672
300.991 -36.2867 836.156
102.2 -118.08 825.352
82.9804 -27.3136 714.113
240.096 -23.0102 796.457
372.779 -85.6221 845.33
-138.099 -435.789 1314.12
336.984 -73.8122 827.859
115.629 -74.3927 775.742
227.99 -55.649 752.45
116.647 -22.7796 704.05
178.439 -37.1015 735.866
70.1505 -394.324 1234.97
31.8973 -44.244 741.305
-26.0128 -408.286 1273.31
116.257 -23.2747 704.561
-68.2112 -32.7415 731.976
167.285 -97.5881 800.195
210.978 -91.9098 802.87
201.581 -88.6219 798.18
250.84 -355.306 1188.99
148.023 -91.9111 793.622
118.67 -82.5307 781.463
336.998 -83.7951 820.665
253.493 -202.096 917.481
165.823 -79.0802 784.214
143.837 -66.6411 765.197
-131.118 -429.692 1316.47
226.168 -57.9583 754.769
124.304 -29.7066 704.817
281.894 -332.498 1165.05
318.769 -92.8208 798.093
-18.1014 -94.1985 798.696
240.986 -62.5669 758.28
424.167 -292.769 1134.2
308.75 -65.6264 811.423
-18.9582 -71.8278 772.488
-66.0789 -77.1239 778.157
169.008 -33.9646 729.955
138.337 -24.1673 717.568
106.363 -150.532 860.98
157.744 -91.6329 793.625
-53.0145 -90.9731 795.715
-50.1391 -77.4375 779.487
279.168 -317.844 1171.65
149.741 -69.0133 770.234
215.782 -137.465 844.271
279.927 -54.1133 797.932
232.752 -148.733 854.622
123.494 -81.4478 782.667
169.878 -98.0756 800.493
121.239 -152.593 860.423
162.315 -82.4523 777.015
358.858 -91.7298 832.414
194.87 -363.972 1195.8
124.468 -127.013 834.307
328.168 -326.346 1162.57
206.775 -139.428 844.357
133.408 -83.0786 784.432
-59.5442 -415.753 1280.86
155.556 -155.281 867.671
555.06 -257.045 1094.64
204.851 -131.195 833.809
-44.8206 -97.0087 800.155
-54.583 -88.1829 792.03
295.634 -333.522 1157.08
19.5755 -67.1485 766.44
99.1711 -31.2188 717.126
340.04 -324.278 1146.1
382.328 -330.983 1140.68
361.677 -318.898 1141.93
483.546 -282.515 1111.81
-46.0087 -74.1409 780.747
-58.7619 -19.122 718.568
207.985 -115.989 820.606
206.229 -111.435 816.033
196.467 -129.399 835.148
99.9792 -29.9453 713.229
-28.2028 -87.1443 789.722
200.499 -92.5264 793.243
115.228 -77.416 780.567
-60.9779 -81.1116 780.649
182.114 -81.2659 785.386
38.4624 -46.6403 740.575
111.439 -21.5978 702.594
283.722 -54.6234 801.485
-71.8284 -427.268 1281.98
94.4614 -27.9522 710.124
186.474 -409.115 1258.29
122.304 -25.6386 707.514
287.79 -28.5747 829.233
497.029 -267.329 1114.17
407.668 -382.023 1193.37
454.43 -283.781 1123.53
65.1045 -19.55 703.001
328.155 -336.309 1152.15
381.887 -68.3535 873.312
261.936 -172.556 884.926
41.359 -121.843 827.988
-56.689 -79.6348 780.028
-6.34054 -407.467 1261.74
129.507 -126.514 834.492
424.363 -327.7 1133.03
125.948 -360.682 1223.32
-149.724 -431.465 1309.65
579.075 -261.193 1093.11
227.061 -56.1076 755.837
296.981 -142.094 851.226
192.08 -106.553 809.726
473.17 -291.272 1113.48
290.534 -351.779 1181.64
209.715 -385.306 1234.94
37.3736 -72.149 776.598
89.2599 -26.5415 709.036
69.8126 6.71067 690.033
119.557 -368.729 1222.64
313.116 -39.071 839.02
48.8552 -113.887 818.613
-42.8422 0.462794 696.4
-70.6742 -48.4903 744.483
-62.5283 -77.0008 778.467
294.4 -59.7193 805.695
-39.2478 -91.108 793.458
61.4149 -391.297 1240.22
86.497 -136.465 846.79
242.135 -331.54 1180.26
19.8168 -61.1276 758.524
-40.014 -77.7694 778.561
107.479 -380.038 1223.11
-29.2243 -72.9947 772.571
112.972 -30.2413 701.416
169.461 -166.73 878.318
368.292 -93.8506 834.446
465.715 -284.067 1114.03
139.209 -111.525 815.266
-61.9676 -32.4374 722.004
253.467 -342.679 1180.04
114.019 -379.648 1208.12
297.877 -340.855 1161.68
419.016 -305.409 1147.15
106.454 -150.539 861.502
483.704 -283.445 1113.44
426.706 -316.674 1132.81
-101.243 -424.036 1294.21
290.059 -57.0354 805.063
189.491 -172.798 887.617
288.463 -51.7948 806.721
325.057 -77.6316 815.815
-23.4847 -71.732 770.553
102.145 -21.5743 687.981
-52.7423 -15.725 713.13
507.563 -406.11 1244.58
90.2206 -66.1081 764.65
246.157 -155.996 861.129
432.345 -317.242 1110.22
466.159 -373.766 1212.34
125.321 -41.6166 727.715
214.116 -89.8335 795.785
-38.2438 -75.3788 776.146
200.779 -93.9461 789.127
205.189 -155.517 865.273
390.075 -303.671 1129.94
360.747 -303.609 1141.27
326.409 -137.043 840.17
23.3125 -88.1041 790.086
135.381 -153.224 866.838
145.145 -407.884 1258.55
135.69 -356.642 1216.61
46.9182 -75.9056 779.001
147.616 -374 1201.64
171.169 -412.74 1259.1
56.3286 -81.8626 779.846
125.128 -383.692 1221.54
210.576 -352.426 1192.05
539.447 -258.377 1105.04
270.037 -331.366 1157.69
277.366 -59.2296 795.148
18.2122 -77.8397 777.664
75.9669 0.127491 693.299
187.562 -155.142 867.743
-326.43 -445.618 1320.8
147.573 -117.419 819.777
387.359 -102.348 847.784
112.925 -125.961 832.081
22.9836 -74.9624 774.713
348.018 -193.695 921.024
177.228 -100.329 805.96
328.465 -73.8139 819.449
206.18 -92.4697 795.235
237.124 -432.353 1282.8
316.411 -316.115 1154.78
208.648 -113.857 819.161
-63.4586 -18.764 721.171
-45.6623 -18.5253 704.583
-62.6881 -38.2596 730.896
167.76 -124.781 827.466
154.441 -126.107 832.264
207.274 -120.058 817.085
357.33 -323.187 1148.15
123.125 -147.538 860.845
-23.4357 -79.5379 771.969
300.841 -62.9186 807.387
269.003 -60.4042 784.025
270.447 -340.915 1172.98
224.248 -348.587 1188.99
100.642 -69.6502 769.922
208.01 -95.5455 792.373
103.235 -70.665 772.24
214.206 -91.2567 791.883
-28.128 -77.9551 781.758
125.611 -112.327 825.215
579.359 -382.322 1227.78
183.998 -105.061 816.7
305.8 -145.446 849.209
30.3381 -393.38 1253.52
293.192 -62.2043 802.298
39.4225 -89.7282 791.903
89.2451 -139.916 847.978
81.5 -129.316 840.035
134.936 -63.4548 762.964
-42.2865 -17.4776 708.992
480.732 -276.554 1121.51
-53.2669 -80.7024 783.212
-1.20344 -47.3946 719.241
51.1518 9.60124 680.431
53.012 15.2806 682.954
520.451 -290.161 1114.96
467.034 -285.635 1119.58
201.162 -117.639 834.209
269.656 -22.9044 819.567
99.6417 -125.947 830.325
67.7496 -59.1425 752.362
189.109 -104.074 805.386
-32.1163 -75.8189 774.806
208.008 -93.3922 791.638
120.748 -80.298 782.012
94.0383 -70.6195 770.222
48.6888 -54.5036 751.325
55.6995 -53.9095 750.226
272.883 -47.0096 663.128
301.147 -34.8497 833.232
446.326 -285.796 1129.41
133.588 -82.222 784.095
92.2941 -70.5311 769.604
352.809 -84.4099 830.66
317.937 -66.8009 819.251
302.842 -64.713 806.106
283.549 -61.9457 793.526
291.94 -56.5654 805.207
92.9791 -31.3478 715.193
329.41 -50.9522 842.364
87.8934 -25.1858 706.415
125.082 -26.8307 710.393
57.8572 -19.0219 705.011
-22.113 -6.05775 692.115
276.901 -22.133 823.759
-10.5948 37.2537 658.005
16.162 42.8017 678.042
-23.5954 -99.2743 786.803
-19.6553 -95.7201 795.95
194.753 -111.045 816.932
346.351 -84.9697 823.775
356.837 -83.683 836.383
348.569 -79.9161 831.238
72.8383 -21.037 705.229
314.779 -37.4892 837.948
-9.53816 98.7401 714.634
476.976 -272.521 1121.99
495.471 -272.502 1117.97
511.332 -268.156 1112.31
38.2811 -53.0798 739.753
225.406 -143.937 847.306
93.2151 -130.855 844.278
16.1312 -100.193 802.47
77.7662 -105.161 809.953
151.383 -107.017 820.485
-41.799 -8.01725 703.551
269.166 -22.7729 818.496
335.17 -193.251 910.791
-31.967 -71.3032 770.752
20.2704 -386.258 1235.89
312.02 -55.6823 817.48
281.753 -56.0981 798.893
87.2718 -66.108 765.99
-52.0753 -81.0274 783.841
129.987 -83.0037 785.613
144.566 -86.656 787.883
359.675 -83.3823 838.496
384.83 -98.8795 847.065
142.712 -139.8 848.645
152.626 50.0698 797.904
183.713 37.1038 805.343
23.6932 -74.1971 776.24
-31.2365 -81.0381 784.374
313.188 -40.7385 835.901
153.329 -72.7508 776.947
-23.7682 -96.9326 797.929
88.566 -131.783 840.359
179.213 -149.224 857.339
426.126 -284.941 1131.46
370.296 -309.661 1139.7
14.5873 84.165 714.754
-20.1346 85.6009 721.519
189.061 26.3571 803.059
294.852 -30.4211 829.999
82.0816 -25.7593 711.662
122.699 -39.4615 725.656
506.953 -273.632 1113.42
376.124 -297.387 1152.32
83.7737 -390.251 1229.87
55.089 11.0609 681.616
61.1407 8.6867 682.763
-47.8471 -5.49451 706.886
-77.9303 -81.0373 787.871
228.037 -146.74 849.995
359.433 -161.367 857.055
377.443 -310.099 1140.26
36.0471 -115.721 822.903
1.80505 -398.537 1271.44
346.005 -141.544 840.892
319.672 -167.387 869.059
324.279 -169.216 869.999
160.008 25.466 779.219
-47.1361 -84.9289 787.099
-48.3384 -92.1534 795.711
226.078 18.7722 817.163
-23.304 -418.916 1262.51
-155.461 -445.119 1314.54
79.1613 -389.355 1240.03
53.1299 -400.262 1243.1
-115.3 -91.5777 805.111
-63.9945 -98.6023 806.498
-50.2148 -99.8121 800.471
171.81 -362.409 1205.44
-112.167 -435.072 1304.48
-41.9392 -83.8703 785.88
206.887 21.3441 811.633
-36.6769 -6.52998 691.643
91.2139 -26.7038 710.298
179.203 -89.1863 801.222
76.7502 -117.268 828.028
96.4314 -96.1384 802.033
161.284 -150.002 855.951
584.37 -251.82 1096.99
448.357 -293.999 1129.71
-71.6123 -35.4949 739.027
271.297 -162.267 879.447
298.874 -156.607 858.202
399.413 -297.49 1138.36
100.65 -388.482 1225.61
279.266 -163.447 868.187
543.158 -266.661 1105.1
463.524 -292.208 1117.69
150.954 -353.385 1213.39
120.49 -377.263 1224.28
-20.4354 -409.827 1263.53
281.717 -25.4502 824.589
115.359 -28.1163 702.269
-13.3258 -405.313 1268.67
106.348 -57.8792 752.577
284.711 -323.248 1166.62
411.603 -305.757 1125.28
400.278 -310.618 1132.79
174.775 -352.299 1199.32
164.019 -356.166 1206.42
100.797 -374.059 1229.5
152.547 -369.114 1213.66
72.3751 -60.0165 756.595
196.1 -129.586 837.49
442.92 -299.371 1118.67
337.212 -320.106 1150.65
321.311 -330.292 1149.97
142.543 -372.944 1219.2
39.4754 -390.1 1248.65
34.7041 -397.601 1252.21
407.547 -313.745 1132.58
454.87 -277.717 1124.91
566.529 -265.258 1092.65
301.994 -134.709 840.751
274.695 -326.425 1170.44
304.37 -319.414 1161.07
543.665 -273.936 1098.65
174.777 -100.916 802.813
211.405 -90.1529 797.594
113.417 -75.4866 776.413
54.1063 -51.0473 747.468
34.8198 -45.9818 741.14
298.675 -33.4052 833.792
-46.4996 -21.5168 711.148
-68.4205 -418.554 1285.95
150.356 -359.122 1207.58
268.375 -365.287 1201.72
372.221 -302.223 1144
390.081 -297.987 1139.57
368.504 -160.302 868.213
-17.4244 -86.6368 791.283
111.675 -25.4645 702.703
242.756 -363.653 1194.01
531.406 -280.519 1099.66
208.968 -178.697 889.246
224.402 -120.285 817.991
213.559 -143.347 846.072
108.081 -119.818 823.448
189.916 -130.782 843.69
-12.972 35.6616 652.751
343.821 -144.566 849.015
258.947 -372.969 1207.55
345.815 -162.701 867.062
497.915 -442.155 1275.46
-54.0864 -97.6265 802.843
105.279 -101.486 804.259
305.606 -67.8811 808.538
-62.2097 -31.0615 732.473
21.3694 -83.7158 784.884
208.654 -120.142 835.371
196.201 -357.139 1201.45
-70.8088 -41.289 738.983
330.376 -327.523 1149.8
374.157 -92.9173 843.784
598.98 -266.191 1094.42
96.0721 -29.4818 714.811
436.049 -283.208 1131.7
77.2343 5.8117 694.345
153.972 -155.467 865.339
36.855 -45.2453 740.623
44.6361 -125.276 831.801
39.722 -82.7935 786.828
440.621 -324.937 1129.54
73.204 -62.8275 759.466
367.75 -149.557 865.951
121.656 -82.2584 785.257
402.44 -323.922 1130.55
-43.4268 -81.5195 783.375
151.407 -92.5433 795.077
257.128 -318.02 1180.72
10.4885 -402.499 1256.63
274.639 -26.8464 822.05
157.402 -75.8372 778.083
172.784 -89.1168 803.072
379.69 -95.8611 843.602
-9.98716 -402.414 1275.44
142.589 -372.876 1218.11
38.7356 -48.6171 742.534
156.93 -372.633 1210.33
31.7985 -395.15 1275.03
285.114 -84.6954 771.866
85.8361 -382.586 1239.41
-27.6262 -89.8179 792.761
168.81 -96.0814 800.163
234.67 -66.5866 757.387
289.056 -313.333 1160.72
161.661 -77.5374 780.027
198.737 -93.7125 792.468
-122.702 -430.685 1304.04
436.112 -411.04 1219.9
509.864 -288.54 1106.79
448.485 -303.045 1108.7
45.936 -9.51339 682.124
384.801 -312.55 1134.25
-91.0707 -83.7409 785.921
101.791 -4.20017 705.249
41.0716 -112.151 820.128
434.921 -313.51 1125.56
313.519 -310.806 1163.52
309.072 -164.94 860.545
210.182 -88.0117 796.435
226.889 -112.755 812.014
233.283 -329.384 1184.19
600.886 -249.747 1088.22
512.222 -271.364 1110.54
127.585 -374.942 1222.53
454.156 -308.573 1119.5
170.879 -383.609 1221.39
209.831 -116.313 818.802
73.2359 -21.4423 685.911
561.65 -262.713 1099.82
-61.5874 -73.1963 775.427
237.442 -343.436 1181.61
141.671 -46.8341 732.091
-43.9534 -415.252 1273.2
41.2027 -46.2777 741.638
204.356 -260.402 1114.43
-3.78446 -403.346 1267.79
-35.1753 -87.5698 789.651
428.568 -280.914 1124.96
7.36973 -399.68 1261.92
-2.08756 -114.976 810.655
139.742 -365.057 1219.74
349.745 -88.4462 824.83
-115.51 -86.5608 801.969
101.887 -71.1152 772.039
-49.7478 -89.3748 790.804
109.247 -112.549 817.79
161.276 -166.861 879.198
-46.6754 -1.22021 697.519
-74.7024 -433.295 1282.98
-4.51452 -401.645 1259.55
304.74 -37.5742 833.604
355.757 -325.687 1141.31
607.811 -338.484 1187.79
313.778 -163.908 870.073
197.288 -256.934 1148.82
542.764 -258.379 1092.43
313.758 -64.1389 815.778
104.94 -73.0802 775.915
140.676 -161.392 871.247
91.2075 -369.102 1229.43
506.332 -398.341 1236.76
48.1575 -10.9462 687.603
-57.6001 -100.779 801.764
520.304 -273.752 1101.19
44.3567 16.2511 677.832
227.429 -143.715 852.288
196.028 -129.176 833.678
-80.4048 -424.103 1290.13
269.427 -54.244 789.439
216.869 -89.2587 788.865
210.426 -113.435 816.235
-83.3554 -431.692 1282.43
606.012 -255.337 1085.12
49.5333 13.2392 681.725
494.902 -276.39 1143.22
343.2 -148.596 851.66
480.418 -285.992 1106.32
501.71 -271.423 1117.93
43.6705 -49.3972 745.496
496.478 -275.626 1097.78
35.4717 -48.8569 745.309
-81.1964 -46.7481 752.553
253.083 -335.325 1168.33
-37.8321 -67.29 770.116
-47.5767 -8.36756 703.932
116.439 -25.0578 703.684
203.112 -144.653 855.12
148.351 -72.2611 770.948
314.966 -74.422 809.503
108.184 -146.213 856.735
109.014 -365.387 1228.63
99.5618 -11.1403 705.464
89.997 -29.271 714.248
283.186 -85.6133 783.428
149.106 -67.2602 769.294
286.037 -63.6799 795.702
145.304 -72.6477 778.239
235.359 -144.878 854.784
289.148 -59.8684 800.935
166.247 -74.9383 771.227
453.965 -380.04 1216.46
255.034 -343.889 1179.91
-109.33 -431.758 1278.19
-0.223818 -405.233 1259.11
36.6374 -49.7942 744.787
242.703 -196.195 909.691
92.5077 -67.5326 768.399
59.4468 -17.475 702.174
64.6093 -16.1307 697.862
45.0507 -94.2708 797.454
-20.6021 -92.3905 795.322
538.455 -262.702 1105.68
141.008 -64.0103 762.773
180.491 -150.422 860.062
-7.69704 41.6908 643.354
-49.8624 -88.9282 792.642
-11.5125 41.0025 647.541
60.2386 -139.42 833.942
125.167 -39.519 722.862
-115.834 -432.248 1312.07
-49.0367 -93.7888 797.536
-42.0372 -80.7852 782.133
-64.1789 -421.761 1284.77
345.421 -77.2141 832.634
60.3637 -19.7178 705.729
202.471 -110.634 815.576
463.773 -273.856 1120.17
374.004 -88.3405 845.166
356.002 -88.4042 832.664
71.141 -58.488 756.081
-60.1506 -76.4114 777.768
523.07 -265.515 1108.87
46.5937 -52.0403 746.788
488.519 -276.001 1109.91
139.633 -363.205 1213.99
69.2612 -382.163 1237.22
210.203 -343.645 1190.65
565.938 -254.511 1101.65
414.392 -350.491 1182.72
170.079 -346.538 1202.25
299.823 -402.499 1251.01
44.4611 -384.017 1251.85
440.731 -293.463 1133.92
18.6138 -394.602 1250.65
143.29 -68.6289 768.897
195.859 -90.4707 796.591
50.1924 -55.2613 752.102
-33.5747 -70.3619 768.242
-29.7078 -10.3916 706.246
-50.9396 -97.9479 806.338
-66.3732 -73.0979 769.036
-64.3119 -25.626 725.84
-39.4274 -70.0596 770.108
291.78 -65.2502 798.041
143.75 -154.039 866.905
-48.5811 -40.4651 728.6
-61.7233 -71.3895 773.71
-38.071 -84.5909 787.277
32.2639 -87.2318 790.405
312.997 -157.58 859.003
239.126 -351.746 1184.49
620.278 -265.655 1106.98
-43.1006 -3.11331 696.027
428.332 -298.871 1130.84
268.434 -72.7725 775.237
357.615 -316.36 1150.42
347.657 -318.456 1147.77
-48.0436 -79.0973 780.78
309.877 -333.899 1156.08
71.6462 9.95108 688.844
210.005 -361.732 1198.84
605.398 -461.429 1320.72
22.8639 -402.356 1256.68
189.991 -448.407 1303.35
-43.5314 -420.855 1270
301.049 -69.2202 802.045
35.9707 -47.9696 743.279
-59.5709 -77.801 779.713
31.8297 -86.8826 789.773
-56.3421 -95.8392 802.559
80.8543 -137.241 845.46
-60.7715 -96.2696 802.519
80.2806 1.42261 694.115
88.844 -64.5487 763.116
162.834 -122.01 829.457
119.122 -138.69 847.916
187.269 -351.493 1201.34
409.216 -292.133 1148.92
182.932 -364.174 1198.03
16.0295 -392.49 1261.41
53.2814 -385.124 1239.87
-147.231 -437.48 1311.31
330.545 -313.438 1150.82
76.9709 -94.9839 800.349
123.136 -27.9112 706.651
298.608 -58.6385 809.326
23.6747 -69.221 768.212
286.301 -57.8915 799.533
325.5 -74.3937 817.667
321.683 -73.85 814.948
365.182 -95.0703 831.329
89.6873 -69.9489 770.652
116.96 -76.3658 778.158
-29.925 -69.6305 769.123
-35.7721 -68.4216 768.237
147.32 -88.5446 789.929
34.2682 -83.7403 786.722
-44.6999 -87.3141 790.564
68.197 -388.877 1237.38
330.263 -170.594 868.321
246.499 -195.633 904.792
-36.5461 -413.969 1286.35
23.8614 -122.724 813.142
-60.2689 -78.427 779.078
371.929 -315.443 1137.64
263.691 -20.3647 819.992
137.955 -21.8267 719.7
70.8197 -120.516 827.298
329.661 -71.6111 823.136
-46.036 -18.7982 708.531
106.319 -27.758 705.058
322.231 -70.9936 818.283
338.745 -82.1133 819.739
10.6796 -387.704 1261.1
181.961 -78.8318 782.706
-24.6638 -70.0594 779.197
148.887 -92.2911 797.925
51.0187 -52.8763 750.982
-49.1664 -80.9285 783.481
113.494 -102.683 805.737
323.866 -138.08 840.671
-31.6341 -103.53 808.097
115.873 -150.135 860.496
181.828 -170.393 884.265
