495.586 -272.91 1118.14 0.352338 -0.604125 0.714766
356.132 -315.332 1145.52 0.14543 0.249641 0.957356
555.762 -256.503 1098.49 0.315858 -0.744183 0.588579
598.398 -262.686 1094.82 0.321439 -0.658944 0.680051
370.797 -310.187 1141.71 0.27251 -0.255429 0.927629
-43.0909 -417.778 1273.63 -0.238422 0.967772 0.0810757
474.261 -285.473 1111.69 0.366592 -0.537385 0.759491
324.913 -324.589 1152.29 0.263943 -0.0563604 0.96289
330.799 -327.8 1151.26 0.26274 -0.0588996 0.963067
186.877 -353.471 1198.73 0.0715548 0.657419 0.75012
283.865 -323.644 1163.84 0.251766 0.274864 0.927935
443.16 -393.343 1237.04 0.0661686 0.767449 0.637686
543.467 -268.31 1104.98 0.315858 -0.744183 0.588579
-76.6933 -428.137 1280.65 -0.232232 0.96988 0.0734886
83.322 -384.884 1231.14 0.0649756 0.71209 0.699076
424.888 -300.649 1132.78 0.334358 -0.30037 0.893299
-44.9132 -417.838 1276.61 -0.235378 0.968775 0.0779216
528.213 -269.243 1105.18 0.315858 -0.744183 0.588579
268.17 -366.108 1200.6 0.198472 0.452006 0.869655
544.521 -257.023 1102.05 0.315858 -0.744183 0.588579
493.933 -274.475 1141.47 0.358657 -0.609681 0.706863
286.115 -339.18 1164.85 0.251766 0.274864 0.927935
278.438 -318.188 1169.26 0.251766 0.274864 0.927935
53.2601 -385.39 1239.63 0.0483086 0.75373 0.655407
506.85 -273.285 1113.32 0.333301 -0.631664 0.699937
471.596 -288.52 1110.67 0.366592 -0.537385 0.759491
561.976 -264.675 1099.6 0.321439 -0.658944 0.680051
252.51 -344.723 1175.8 0.198472 0.452006 0.869655
329.144 -336.139 1155.44 0.243186 0.167939 0.955331
15.9432 -381.847 1226.17 -0.0471345 0.857528 0.512273
31.5477 -393.516 1275.62 -0.0567662 0.862482 0.502894
414.878 -302.361 1134.62 0.31636 -0.312076 0.895838
16.9913 -397.897 1259.66 -0.0816659 0.878323 0.47104
39.6978 -392.319 1247.67 -0.0359413 0.851893 0.522481
512.777 -273.369 1113.02 0.333301 -0.631664 0.699937
-79.744 -425.815 1290.9 -0.232232 0.96988 0.0734886
424.441 -292.984 1134.84 0.334358 -0.30037 0.893299
329.296 -307.055 1157.93 0.260398 -0.0909062 0.961212
237.58 -343.146 1182.17 0.184207 0.490255 0.851891
108.276 -370.143 1222.78 0.0740268 0.650183 0.756163
-9.32412 -405.62 1274.63 -0.211078 0.948513 0.236157
289.123 -354.332 1176.37 0.252988 0.275718 0.927349
209.246 -389.945 1230.15 0.085997 0.650364 0.754739
362.229 -305.042 1146.51 0.259209 -0.192108 0.946523
144.948 -411.114 1255.38 0.0621094 0.688389 0.722678
170.923 -382.859 1222.15 0.0797186 0.671558 0.736651
466.686 -285.088 1118.92 0.36724 -0.537151 0.759344
375.342 -296.442 1149.07 0.276733 -0.258792 0.925443
492.803 -285.295 1107.22 0.360295 -0.542912 0.758574
-84.0309 -429.942 1281.64 -0.232232 0.96988 0.0734886
340.822 -324.794 1148.79 0.151571 0.277077 0.948817
445.042 -291.644 1123.37 0.359169 -0.475849 0.802848
-107.957 -435.314 1279.79 -0.232232 0.96988 0.0734886
61.6113 -388.84 1242.41 0.0483086 0.75373 0.655407
437.822 -392.399 1234.19 0.0661686 0.767449 0.637686
171.906 -361.389 1206.43 0.0788272 0.669711 0.738426
567.757 -265.473 1100.4 0.321439 -0.658944 0.680051
256.452 -319.342 1177.92 0.243362 0.300026 0.922366
241.151 -333.68 1179.8 0.196448 0.45426 0.86894
2.70552 -402.903 1270.28 -0.196773 0.945317 0.260106
325.058 -326.546 1152.55 0.263943 -0.0563604 0.96289
424.527 -315.087 1127.84 0.292974 0.0726255 0.953358
125.23 -365.441 1217.51 0.0606418 0.68272 0.728159
63.6734 -375.162 1229.38 -0.00316918 0.819361 0.573269
18.8563 -395.965 1250.21 -0.0672383 0.868439 0.491215
34.2136 -394.406 1253.36 -0.0378503 0.854593 0.517917
356.207 -322.408 1144.44 0.14543 0.249641 0.957356
463.326 -292.042 1117.24 0.359852 -0.513972 0.778678
-121.39 -434.083 1305.57 -0.232232 0.96988 0.0734886
498.655 -282.977 1099.97 0.329648 -0.616592 0.714945
498.572 -272.79 1116.51 0.329648 -0.616592 0.714945
195.876 -359.038 1199.13 0.0934775 0.656389 0.748609
58.2197 -385.146 1239.34 0.0483086 0.75373 0.655407
413.986 -360.509 1171.36 0.0895696 0.753029 0.651863
115.641 -369.349 1220.83 0.0573261 0.692056 0.719564
30.5828 -394.974 1252.94 -0.0471345 0.857528 0.512273
390.808 -298.521 1142.44 0.290412 -0.288756 0.912294
296.556 -332 1160.45 0.246951 0.214547 0.944979
512.744 -273.249 1110.8 0.333301 -0.631664 0.699937
85.0753 -380.33 1233.3 0.0649756 0.71209 0.699076
185.836 -347.743 1198.64 0.0715548 0.657419 0.75012
139.527 -363.856 1213.15 0.0623846 0.683867 0.726934
480.183 -275.373 1120.52 0.353431 -0.54325 0.761555
507.098 -403.071 1247.21 -0.145938 0.717695 0.680894
451.721 -314.979 1109.36 0.374018 -0.490954 0.786813
68.4367 -385.623 1239.7 0.0561115 0.745849 0.663747
-138.026 -435.979 1314.21 -0.232232 0.96988 0.0734886
501.774 -271.649 1118.03 0.329648 -0.616592 0.714945
407.92 -314.091 1133.85 0.266439 0.0750816 0.960923
382.32 -330.091 1142.21 0.198314 0.136372 0.970605
312.835 -310.842 1161.31 0.236902 0.200725 0.950572
519.92 -272.528 1100.96 0.317849 -0.656153 0.684423
92.0455 -368.992 1231.93 0.0649114 0.701715 0.709494
436.07 -320.151 1118.3 0.301163 0.0567426 0.951883
7.6275 -400.882 1261.63 -0.194059 0.94207 0.273578
303.62 -319.488 1158.54 0.246951 0.214547 0.944979
-36.2953 -414.704 1286.47 -0.238422 0.967772 0.0810757
377.495 -310.162 1140.5 0.276733 -0.258792 0.925443
440.092 -307.393 1124.55 0.357153 -0.432752 0.827748
281.716 -332.82 1164.39 0.251766 0.274864 0.927935
254.599 -332.432 1174.48 0.203157 0.449878 0.869676
451.971 -305.548 1116.1 0.374018 -0.490954 0.786813
127.383 -376.279 1220.9 0.0621094 0.688389 0.722678
428.676 -299.14 1131.65 0.334358 -0.30037 0.893299
148.744 -366.36 1211.63 0.0634288 0.672906 0.737004
432.305 -283.542 1133.55 0.324138 -0.427541 0.843886
482.881 -281.083 1110.61 0.353762 -0.542814 0.761713
164.001 -356.466 1206.09 0.0788272 0.669711 0.738426
452.071 -307.076 1115.08 0.374018 -0.490954 0.786813
578.778 -259.405 1093.31 0.321439 -0.658944 0.680051
-66.8402 -422.683 1287.78 -0.232232 0.96988 0.0734886
379.355 -301.981 1143.5 0.276733 -0.258792 0.925443
337.13 -320.05 1150.37 0.258617 -0.0910623 0.961678
-38.2168 -415.219 1278.06 -0.238422 0.967772 0.0810757
542.067 -265.42 1099.27 0.315858 -0.744183 0.588579
101.165 -385.118 1229.77 0.0662949 0.701419 0.709659
239.118 -351.763 1184.46 0.178562 0.491686 0.852268
505.806 -275.976 1104.15 0.333301 -0.631664 0.699937
175.076 -349.647 1202.66 0.0820099 0.652847 0.753038
605.388 -251.578 1085.55 0.321439 -0.658944 0.680051
183.415 -361.65 1201.4 0.0820099 0.652847 0.753038
433.919 -312.728 1123.39 0.343921 -0.306332 0.887626
219.195 -355.267 1193.24 0.11728 0.639397 0.759879
454.846 -284.097 1124.52 0.360004 -0.50773 0.782692
150.71 -356.936 1209.37 0.0622344 0.670339 0.739441
356.605 -326.275 1144.11 0.145514 0.248952 0.957522
-24.8125 -413.064 1263.82 -0.212341 0.9494 0.231413
-116.71 -429.978 1311.05 -0.232232 0.96988 0.0734886
400.437 -298.525 1141.53 0.304043 -0.313583 0.899569
-130.332 -431.728 1317.39 -0.232232 0.96988 0.0734886
-63.8078 -422.659 1285.21 -0.232232 0.96988 0.0734886
9.94592 -399.969 1257.25 -0.17743 0.938157 0.297289
601.614 -254.133 1087.72 0.321439 -0.658944 0.680051
254.101 -345.883 1175.78 0.198472 0.452006 0.869655
209.891 -362.523 1197.78 0.0986731 0.641022 0.761153
298.207 -340.31 1162.88 0.247858 0.259347 0.933438
53.7282 -392.366 1249.52 0.047433 0.75182 0.657661
466.763 -279.116 1125.87 0.36724 -0.537151 0.759344
-72.1117 -426.528 1281.65 -0.232232 0.96988 0.0734886
567.137 -264.789 1095.98 0.321439 -0.658944 0.680051
456.479 -280.302 1128.67 0.360004 -0.50773 0.782692
466.384 -374.813 1211.38 -0.0665 0.725141 0.685381
-0.512266 -403.834 1259.48 -0.196773 0.945317 0.260106
401.491 -311.701 1137.11 0.25232 0.0733164 0.964862
-113.215 -432.356 1303.25 -0.232232 0.96988 0.0734886
515.144 -271.999 1112.29 0.333301 -0.631664 0.699937
186.593 -406.007 1261.43 0.0726349 0.665197 0.743127
111.326 -396.774 1236.78 0.0590222 0.721091 0.690322
-57.237 -421.321 1283.36 -0.232232 0.96988 0.0734886
-156.868 -441.474 1312.89 -0.232232 0.96988 0.0734886
69.203 -382.954 1236.66 0.0544168 0.732477 0.678613
372.354 -302.365 1144.49 0.276733 -0.258792 0.925443
250.256 -357.087 1186.64 0.196385 0.478656 0.855758
210.451 -342.355 1192.25 0.161404 0.516609 0.840871
120.347 -378.174 1223.16 0.0591631 0.688093 0.723207
524.191 -269.086 1109.54 0.317849 -0.656153 0.684423
48.0669 -392.042 1248.64 0.0425534 0.758859 0.649863
-146.581 -439.165 1312.07 -0.232232 0.96988 0.0734886
272.862 -326.255 1168.25 0.252988 0.275718 0.927349
21.8508 -396.661 1258.53 -0.0672383 0.868439 0.491215
233.393 -329.11 1184.69 0.178562 0.491686 0.852268
435.403 -320.862 1118.22 0.301163 0.0567426 0.951883
-80.9291 -428.96 1282.3 -0.232232 0.96988 0.0734886
150.663 -357.107 1210.37 0.0622344 0.670339 0.739441
407.235 -290.332 1141.8 0.308629 -0.315432 0.897358
45.2708 -392.093 1248.29 -0.0359413 0.851893 0.522481
139.048 -369.325 1214.21 0.0623846 0.683867 0.726934
362.025 -319.139 1143.08 0.181529 0.20006 0.962821
435.646 -282.951 1130.89 0.330331 -0.435126 0.837584
322.535 -330.011 1154.45 0.243186 0.167939 0.955331
403.165 -324.905 1133.23 0.25232 0.0733164 0.964862
497.529 -278.708 1109.94 0.329648 -0.616592 0.714945
342.684 -311.183 1151.61 0.259423 -0.0909917 0.961468
535.493 -264.344 1105.46 0.315858 -0.744183 0.588579
587.955 -259.749 1092.73 0.321439 -0.658944 0.680051
387.43 -317.416 1139.19 0.25232 0.0733164 0.964862
-33.865 -415.809 1268.63 -0.212255 0.94934 0.231735
462.388 -299.343 1109.28 0.366857 -0.53729 0.759431
311.459 -332.555 1157.21 0.247858 0.259347 0.933438
317.22 -323.635 1154.94 0.246951 0.214547 0.944979
198.646 -348.074 1195.31 0.0715548 0.657419 0.75012
293.643 -321.675 1160.82 0.251956 0.274997 0.927844
454.747 -384.363 1223.97 0.0661686 0.767449 0.637686
552.833 -266.72 1102.52 0.321434 -0.65894 0.680057
-94.7889 -430.937 1291.9 -0.232232 0.96988 0.0734886
99.4577 -377.378 1225.73 0.0649756 0.71209 0.699076
429.617 -306.88 1128.65 0.334358 -0.30037 0.893299
-26.9134 -412.649 1275.39 -0.211635 0.948907 0.234066
513.657 -276.634 1102.99 0.315858 -0.744183 0.588579
278.791 -359.891 1189.12 0.198512 0.451988 0.869655
478.6 -283.159 1141.76 0.358657 -0.609681 0.706863
270.803 -341.773 1172.87 0.252172 0.275148 0.927741
265.25 -331.7 1171.71 0.25217 0.275146 0.927742
34.6154 -383.868 1232.75 -0.0471345 0.857528 0.512273
491.005 -280.23 1113.45 0.333301 -0.631664 0.699937
454.788 -296.411 1115.43 0.36691 -0.537271 0.759419
265.686 -352.226 1182.62 0.198464 0.452082 0.869617
307.655 -337.642 1160.25 0.243186 0.167939 0.955331
7.65624 -391.763 1243.47 -0.0471345 0.857528 0.512273
17.7985 -401.437 1272.06 -0.196773 0.945317 0.260106
392.463 -305.923 1136.9 0.273354 -0.256101 0.927195
25.7301 -390.095 1246.63 -0.0816659 0.878323 0.47104
37.1501 -387.975 1240.28 -0.0471345 0.857528 0.512273
-97.5275 -430.818 1300.75 -0.232232 0.96988 0.0734886
434.302 -291.732 1128.12 0.359169 -0.475849 0.802848
350.867 -304.749 1151.35 0.276646 -0.258723 0.925489
223.694 -343.609 1185.72 0.183795 0.49036 0.851919
110.042 -381.344 1232.24 0.0740268 0.650183 0.756163
-17.2692 -408.441 1269.45 -0.211523 0.948828 0.234487
279.493 -348.565 1172.89 0.252236 0.275192 0.92771
202.702 -373.419 1215.88 0.0854108 0.65073 0.75449
349.676 -312.543 1148.43 0.259209 -0.192108 0.946523
165.445 -412.166 1254.62 0.0621094 0.688389 0.722678
189.959 -387.46 1224.99 0.079583 0.671277 0.736922
473.004 -279.57 1118.79 0.35358 -0.543053 0.761626
365.515 -310.93 1145.06 0.276612 -0.258696 0.925506
477.913 -292.798 1108.92 0.360285 -0.542912 0.758578
-96.3723 -431.048 1280.83 -0.232232 0.96988 0.0734886
345.196 -318.63 1148.42 0.259209 -0.192108 0.946523
438.018 -299.88 1127.85 0.334358 -0.30037 0.893299
-110.776 -433.04 1291.58 -0.232232 0.96988 0.0734886
46.1715 -384.979 1262.63 -0.0567662 0.862482 0.502894
446.309 -388.104 1229.31 0.0661686 0.767449 0.637686
180.933 -374.417 1215.72 0.079299 0.670689 0.737487
573.281 -262.466 1096.88 0.321439 -0.658944 0.680052
267.724 -318.421 1174.65 0.243362 0.300026 0.922366
245.376 -346.132 1181.78 0.197893 0.452661 0.869446
-16.492 -410.034 1278.27 -0.238236 0.967834 0.0808827
327.239 -316.822 1155.47 0.259516 -0.0909836 0.961443
419.552 -308.576 1130.8 0.31636 -0.312076 0.895838
132.311 -365.391 1214.54 0.0617412 0.683445 0.727387
49.242 -381.291 1230 -0.0471345 0.857528 0.512273
17.3652 -388.277 1238.57 -0.0471345 0.857528 0.512273
32.5368 -388.737 1267.54 -0.0567662 0.862482 0.502894
369.331 -326.134 1143.77 0.145461 0.249386 0.957417
447.034 -299.967 1124.45 0.334358 -0.30037 0.893299
-102.74 -431.887 1293.61 -0.232232 0.96988 0.0734886
485.751 -286.664 1106.61 0.366798 -0.537311 0.759445
499.302 -278.817 1135 0.358657 -0.609681 0.706863
199.392 -365.434 1208.43 0.0845363 0.651276 0.754118
46.438 -384.88 1235.82 -0.0471345 0.857528 0.512273
112.838 -375.382 1226.5 0.057447 0.691811 0.71979
405.088 -303.457 1136.33 0.290412 -0.288756 0.912294
287.854 -345.534 1175.57 0.198523 0.452017 0.869638
74.3711 -376.904 1231.93 -0.00316918 0.819361 0.573269
178.467 -364.494 1211.32 0.0715548 0.657419 0.75012
160.224 -369.187 1214.38 0.0791444 0.670369 0.737795
490.5 -280.775 1137.78 0.358657 -0.609681 0.706863
443.376 -316.883 1112.74 0.374018 -0.490954 0.786813
89.6593 -393.912 1235.64 0.0590222 0.721091 0.690322
-123.279 -434.444 1297.09 -0.232232 0.96988 0.0734886
487.308 -275.458 1118.24 0.329648 -0.616592 0.714945
395.119 -322.091 1138.02 0.266439 0.0750816 0.960923
376.564 -320.135 1141.99 0.198314 0.136372 0.970605
320.894 -309.094 1158.93 0.236902 0.200725 0.950572
83.1706 -373.353 1231.52 0.0653557 0.70162 0.709547
414.592 -321.31 1124.99 0.301163 0.0567426 0.951883
-8.69484 -406.514 1262.84 -0.211829 0.949043 0.233337
307.531 -326.029 1157.84 0.246951 0.214547 0.944979
-46.7035 -418.267 1284.89 -0.238082 0.967885 0.0807235
385.047 -308.106 1138.93 0.274344 -0.25689 0.926684
441.11 -311.319 1117.33 0.374018 -0.490954 0.786813
276.605 -336.92 1169.9 0.252136 0.275122 0.927758
262.08 -324.294 1178.05 0.243362 0.300026 0.922366
469.551 -297.012 1112.81 0.374018 -0.490954 0.786813
149.185 -379.214 1221.9 0.0612435 0.688182 0.722949
417.919 -294.699 1136.62 0.308281 -0.315292 0.897527
148.924 -373.241 1216.29 0.061245 0.688117 0.723011
444.632 -282.261 1131.63 0.360004 -0.50773 0.782692
478.234 -280.774 1115.33 0.353594 -0.543036 0.761632
162.043 -363.418 1209.58 0.0790479 0.670169 0.737987
445.413 -306.357 1118.41 0.374018 -0.490954 0.786813
-88.4496 -429.359 1289.57 -0.232232 0.96988 0.0734886
333.207 -313.551 1154.13 0.2595 -0.090985 0.961448
106.158 -392.015 1232.25 0.0590222 0.721091 0.690322
229.279 -352.845 1189.65 0.11728 0.639397 0.759879
188.684 -363.124 1207.43 0.084008 0.651605 0.753893
189.701 -359.957 1200.71 0.0934775 0.656389 0.748609
208.7 -352.872 1192.84 0.11728 0.639397 0.759879
454.824 -290.264 1119.99 0.366935 -0.537262 0.759414
155.532 -362.37 1212.64 0.0625253 0.670965 0.738848
348.762 -325.452 1146.77 0.14546 0.249396 0.957415
-8.19405 -404.134 1253.22 -0.211847 0.949055 0.23327
-105.37 -432.043 1301.35 -0.232232 0.96988 0.0734886
409.204 -296.638 1139.15 0.305117 -0.314016 0.899054
-122.748 -434.079 1313.98 -0.232232 0.96988 0.0734886
8.79303 -395.72 1250.45 -0.0471345 0.857528 0.512273
262.827 -343.418 1175.71 0.252203 0.27517 0.927726
230.171 -359.567 1192.64 0.196385 0.478656 0.855758
293.664 -341.479 1172 0.198534 0.452009 0.869639
71.85 -390.692 1244.71 0.0481059 0.753288 0.655929
-53.0828 -420.746 1275.24 -0.212071 0.949211 0.23243
442.394 -289.556 1129.67 0.334358 -0.30037 0.893299
460.563 -379.618 1217.65 0.0661686 0.767449 0.637686
4.20829 -400.103 1254.87 -0.196773 0.945317 0.260106
394.232 -314.625 1137.27 0.25232 0.0733164 0.964862
-129.999 -435.338 1307.69 -0.232232 0.96988 0.0734886
198.316 -394.346 1249.85 0.0726349 0.665197 0.743127
128.005 -405.561 1244.53 0.0590222 0.721091 0.690322
-140.264 -437.166 1305.05 -0.232232 0.96988 0.0734886
79.2129 -391.1 1233.6 0.0590222 0.721091 0.690322
258.805 -362.527 1191.83 0.198385 0.452137 0.869606
220.234 -346.42 1192.87 0.161404 0.516609 0.840871
124.288 -390.593 1235.18 0.0604915 0.68839 0.722814
511.753 -276.354 1130.81 0.358657 -0.609681 0.706863
39.4317 -387.072 1265.46 -0.0567662 0.862482 0.502894
290.343 -331.856 1164.56 0.25206 0.275069 0.927795
26.3939 -390.45 1269.78 -0.0567662 0.862482 0.502894
245.202 -323.881 1182.36 0.243362 0.300026 0.922366
429.077 -318.142 1120.22 0.301163 0.0567426 0.951883
-62.1979 -422.585 1278.02 -0.232251 0.969874 0.073515
157.304 -357.083 1207.9 0.062487 0.670882 0.738926
419.488 -286.565 1136.94 0.324138 -0.427541 0.843886
45.8517 -388.423 1242.1 -0.0359769 0.851944 0.522396
133.199 -372.989 1217.36 0.061055 0.688201 0.722947
369.169 -319.776 1141.87 0.181529 0.20006 0.96282
413.755 -308.901 1133.91 0.334358 -0.30037 0.893299
384.894 -323.74 1140.79 0.198314 0.136372 0.970605
-14.8657 -407.789 1261.79 -0.211858 0.949063 0.233228
456.264 -306.004 1107.68 0.366879 -0.537282 0.759426
304.072 -332.21 1159.07 0.247858 0.259347 0.933438
319.955 -315.603 1160.54 0.236902 0.200725 0.950572
215.852 -339.052 1189.2 0.179213 0.491522 0.852226
310.889 -319.406 1159.81 0.259586 -0.0909774 0.961425
-101.759 -431.512 1285.97 -0.232232 0.96988 0.0734887
94.7291 -383.775 1232.52 0.0649756 0.71209 0.699076
-31.5051 -414.08 1280.9 -0.238162 0.967858 0.0808062
268.622 -361.61 1189.7 0.19843 0.452088 0.869622
484.55 -281.967 1139.77 0.358657 -0.609681 0.706863
274.823 -350.772 1181.11 0.198462 0.452074 0.869622
259.118 -337.67 1174.79 0.198349 0.452251 0.869556
25.2627 -382.557 1229.64 -0.0471345 0.857528 0.512273
257.783 -355.114 1183.81 0.196385 0.478656 0.855758
318.307 -336.954 1157.48 0.243186 0.167939 0.955331
-0.386843 -395.803 1249.63 -0.0471345 0.857528 0.512273
10.3946 -402.855 1270.98 -0.196773 0.945317 0.260106
380.786 -316.22 1139.6 0.145458 0.249409 0.957412
25.4416 -385.737 1238.45 -0.0816659 0.878323 0.47104
18.3832 -391.918 1244.94 -0.0471345 0.857528 0.512273
335.891 -306.931 1155.18 0.276634 -0.258713 0.925495
228.509 -336.454 1185.04 0.179064 0.491559 0.852236
117.266 -385.081 1234.74 0.0740268 0.650183 0.756163
-3.44016 -405.634 1270.22 -0.196773 0.945317 0.260106
259.318 -350.15 1178.72 0.25222 0.275181 0.927718
205.949 -381.869 1222.8 0.0853451 0.650771 0.754462
155.195 -411.663 1254.98 0.0620778 0.688389 0.722681
193.574 -395.659 1232.2 0.0795627 0.671235 0.736962
331.223 -321.144 1151.73 0.259209 -0.192108 0.946523
-117.068 -433.576 1294.35 -0.232232 0.96988 0.0734886
31.3905 -380.888 1253.94 -0.0567662 0.862482 0.502894
193.523 -377.514 1219.99 0.0849198 0.651037 0.754281
251.567 -350.654 1182.74 0.196385 0.478656 0.855758
401.011 -319.282 1136.87 0.198314 0.136372 0.970605
56.5579 -380.049 1228.6 -0.0471345 0.857528 0.512273
16.638 -384.768 1232.54 -0.0471345 0.857528 0.512273
375.877 -328.077 1143.24 0.198314 0.136372 0.970605
468.179 -295.024 1136.81 0.358657 -0.609681 0.706863
190.238 -369.343 1212.75 0.084334 0.651402 0.754032
106.218 -375.542 1226.99 0.0575417 0.691676 0.719912
282.424 -340.784 1173.59 0.198491 0.452061 0.869622
169.42 -366.156 1213.63 0.0715548 0.657419 0.75012
165.632 -375.527 1218.81 0.0792557 0.670599 0.737574
447.684 -311.927 1113.82 0.374018 -0.490954 0.786813
97.9086 -392.964 1233.95 0.0590222 0.721091 0.690322
-131.797 -435.698 1301.08 -0.232232 0.96988 0.0734886
299.911 -313.433 1165.08 0.236902 0.200725 0.950572
414.838 -315.702 1131.22 0.334358 -0.30037 0.893299
250.781 -332.548 1183.71 0.243362 0.300026 0.922366
136.737 -384.894 1228.55 0.0609097 0.688287 0.722877
399.678 -305.793 1139.06 0.307087 -0.314811 0.898105
132.998 -380.258 1224.36 0.0609314 0.688227 0.722932
425.973 -286.337 1136.83 0.307794 -0.315095 0.897763
243.945 -357.908 1190.31 0.198242 0.452301 0.869554
204.578 -354.39 1200.77 0.161404 0.516609 0.840871
176.84 -358.306 1203.29 0.0790353 0.670143 0.738012
207.428 -366.577 1208.74 0.0846951 0.651177 0.754185
451.646 -295.759 1124.13 0.334358 -0.30037 0.893299
172.665 -375.595 1218.06 0.0792577 0.670604 0.73757
338.989 -330.77 1151.25 0.243186 0.167939 0.955331
268.983 -346.736 1179.1 0.198426 0.452126 0.869603
218.289 -368.967 1209.75 0.0848728 0.651066 0.754261
280.145 -355.552 1182.92 0.198469 0.452065 0.869625
448.535 -286.706 1126.91 0.360004 -0.50773 0.782692
192.454 -400.176 1255.64 0.0726349 0.665197 0.743127
119.665 -401.167 1240.66 0.0590222 0.721091 0.690322
238.797 -363.831 1203.01 0.0848743 0.651065 0.754262
232.503 -346.966 1186 0.197946 0.452619 0.869456
139.738 -401.167 1245.04 0.0614474 0.688339 0.722782
300.57 -325.615 1162.01 0.25959 -0.0909771 0.961424
250.827 -321.612 1180.14 0.243362 0.300026 0.922366
413.08 -288.077 1138.64 0.324138 -0.427541 0.843886
141.196 -376.058 1219.67 0.0610544 0.6882 0.722948
271.619 -356.427 1184.95 0.198435 0.452099 0.869615
270.786 -334.842 1170.95 0.252155 0.275136 0.927749
40.9091 -381.28 1229.14 -0.0471345 0.857528 0.512273
263.339 -358.051 1187.36 0.1984 0.452135 0.869604
303.322 -346.072 1165.48 0.252156 0.275137 0.927749
13.7503 -400.652 1265.25 -0.196773 0.945317 0.260106
125.038 -383.734 1228.44 0.0608164 0.68828 0.722891
199.878 -387.876 1228.53 0.085207 0.650857 0.754403
173.491 -409.621 1251.42 0.0620636 0.688386 0.722684
179.602 -402.889 1244.48 0.0620626 0.688386 0.722685
182.195 -380.423 1220.81 0.079355 0.670805 0.737376
62.5049 -382.974 1234.07 -0.0471345 0.857528 0.512273
196.461 -371.453 1214.23 0.0847232 0.651159 0.754197
187.712 -373.763 1218.5 0.0715548 0.657419 0.75012
172.59 -389.512 1231.33 0.0616924 0.688307 0.722791
289.419 -315.603 1168.15 0.236902 0.200725 0.950572
408.893 -320.206 1131.94 0.334358 -0.30037 0.893299
154.651 -387.344 1229.79 0.0612586 0.68825 0.722882
136.354 -390.87 1234.54 0.0610257 0.688278 0.722876
225.911 -360.522 1201.52 0.0848081 0.651106 0.754234
201.994 -359.885 1204.64 0.161404 0.516609 0.840871
218.168 -360.724 1197.99 0.11728 0.639397 0.759879
156.905 -376.107 1218.57 0.061184 0.688201 0.722936
212.108 -375.498 1216.18 0.0849557 0.651014 0.754296
181.18 -395.81 1234.18 0.0794794 0.671063 0.737128
130.543 -387.336 1231.51 0.0609323 0.688271 0.722891
253.516 -364.715 1202.1 0.0848608 0.651073 0.754256
159.663 -402.098 1244.69 0.0617359 0.688342 0.722754
294.17 -335.67 1168.61 0.198504 0.452043 0.869628
394.187 -292.228 1143.79 0.324138 -0.427541 0.843886
156.877 -382.964 1225.31 0.0612243 0.688233 0.722902
251.32 -359.01 1197.42 0.0848582 0.651075 0.754255
295.739 -350.73 1169.14 0.252215 0.275178 0.92772
20.8823 -399.443 1266.44 -0.196773 0.945317 0.260106
134.963 -397.758 1241.56 0.0611666 0.6883 0.722843
178.359 -385.629 1226.7 0.0615132 0.688276 0.722836
165.18 -396.333 1238.32 0.0615935 0.68831 0.722797
169.619 -402.646 1244.42 0.0617848 0.688341 0.722751
213.557 -363.661 1205.58 0.0847526 0.651141 0.75421
198.491 -381.742 1224.45 0.0715548 0.657419 0.75012
153.77 -393.705 1236.37 0.0613938 0.688289 0.722834
145.507 -389.052 1232.22 0.0611969 0.688268 0.722871
150.892 -401.601 1244.49 0.0615201 0.688318 0.722796
222.099 -364.751 1205.63 0.0848272 0.651094 0.754242
238.549 -361.285 1195.32 0.11728 0.639397 0.759879
163.259 -389.406 1231.47 0.0614279 0.68828 0.72284
232.81 -370.126 1209.12 0.0848724 0.651066 0.754261
173.127 -396.522 1235.76 0.0794706 0.671044 0.737146
145.096 -394.798 1238.01 0.0612999 0.68829 0.722841
246.156 -364.281 1202.55 0.0848536 0.651078 0.754253
162.535 -407.348 1249.43 0.0617341 0.68834 0.722756
384.74 -294.303 1146.37 0.324138 -0.427541 0.843886
146.817 -383.818 1227.05 0.0611949 0.688254 0.722884
235.685 -353.416 1194.33 0.0848428 0.651085 0.754248
312.409 -343.47 1162.17 0.252137 0.275123 0.927758
129.629 -394.138 1238.41 0.0610926 0.688292 0.722857
163.781 -382.318 1224.41 0.0613371 0.688256 0.72287
181.893 -388.511 1231.99 0.0715548 0.657419 0.75012
156.709 -397.993 1240.43 0.0614861 0.688305 0.722811
147.896 -406.626 1249.65 0.0615658 0.688326 0.722784
230.448 -364.289 1204.32 0.0848496 0.65108 0.754251
245.769 -352.457 1186.61 0.198238 0.452316 0.869547
220.997 -380.272 1219.36 0.0850084 0.650981 0.754319
186.221 -390.861 1247.91 0.0726349 0.665197 0.743127
155.214 -407.005 1249.52 0.0616359 0.68833 0.722774
367.504 -299.246 1147.86 0.276466 -0.258579 0.925583
246.086 -336.358 1186.19 0.243362 0.300026 0.922366
117.772 -394.557 1233.91 0.0590222 0.721091 0.690322
168.177 -386.006 1227.77 0.0614209 0.688275 0.722845
187.616 -393.073 1231.01 0.0794765 0.671057 0.737134
225.72 -372.297 1211.82 0.084899 0.651049 0.754272
215.093 -385.33 1224.5 0.0851041 0.650922 0.75436
189.338 -395.519 1251.77 0.0726349 0.665197 0.743127
116.907 -379.553 1229.87 0.0576387 0.691592 0.719985
218.914 -373.901 1214 0.0849231 0.651034 0.754283
203.28 -396.521 1235.7 0.085293 0.650804 0.75444
359.251 -310.239 1146.27 0.259209 -0.192108 0.946523
192.822 -350.217 1197.65 0.0715548 0.657419 0.75012
260.877 -365.154 1201.65 0.0848588 0.651075 0.754255
54.9376 -383.24 1233.81 -0.0471345 0.857528 0.512273
25.2612 -400.302 1273.06 -0.196773 0.945317 0.260106
-72.9004 -425.885 1289.22 -0.232237 0.969879 0.0734949
-22.4224 -411.736 1280.42 -0.238197 0.967846 0.0808424
136.571 -407.274 1251.07 0.0614674 0.688323 0.722795
183.434 -370.707 1210.92 0.0934775 0.656389 0.748609
169.368 -354.396 1202.83 0.082868 0.652314 0.753405
183.498 -400.78 1257.05 0.0726349 0.665197 0.743127
204.734 -344.623 1194.74 0.161404 0.516609 0.840871
400.429 -290.908 1142.06 0.324138 -0.427541 0.843886
422.341 -319.674 1121.03 0.374018 -0.490954 0.786813
175.087 -371.043 1213.84 0.0792273 0.670541 0.73763
194.402 -363.709 1203.41 0.0934775 0.656389 0.748609
104.662 -397.54 1238.15 0.0590222 0.721091 0.690322
212.192 -370.275 1211.58 0.0848761 0.651064 0.754263
213.599 -380.426 1220.33 0.0850091 0.650981 0.754319
243.298 -368.732 1206.73 0.084869 0.651068 0.75426
229.192 -377.058 1215.58 0.0849371 0.651026 0.754289
82.9399 -395.596 1237.98 0.0590222 0.721091 0.690322
248.712 -371.34 1208.37 0.0848705 0.651067 0.75426
63.8916 -398.401 1242.54 0.0590222 0.721091 0.690322
238.951 -374.205 1211.97 0.084895 0.651052 0.754271
373.686 -315.157 1141.88 0.198314 0.136372 0.970605
480.157 -286.289 1109.46 0.366784 -0.537316 0.759448
180.937 -351.92 1200.28 0.0715548 0.657419 0.75012
273.36 -317.961 1173.01 0.243362 0.300026 0.922366
53.4798 -389.102 1244.38 0.0480599 0.753188 0.656048
333.987 -333.51 1153.03 0.243186 0.167939 0.955331
7.76299 -388.549 1238.06 -0.0471345 0.857528 0.512273
24.8071 -395.795 1252.67 -0.0360492 0.852046 0.522224
-88.3435 -429.537 1295.73 -0.232232 0.96988 0.0734891
428.932 -291.776 1130.5 0.359169 -0.475849 0.802848
235.522 -336.03 1183.6 0.178999 0.491576 0.85224
356.699 -305.037 1149.44 0.276576 -0.258667 0.925525
387.6 -303.308 1140.35 0.276059 -0.258255 0.925795
-90.4187 -429.588 1281.31 -0.232232 0.96988 0.073489
-109.657 -432.963 1285.78 -0.232232 0.96988 0.0734887
122.859 -371.024 1221.17 0.0614437 0.68325 0.727595
14.4084 -398.006 1253.72 -0.17743 0.938157 0.297289
77.1254 -381.827 1234.81 0.0544168 0.732477 0.678613
145.143 -360.137 1211.55 0.0625151 0.670943 0.738869
406.267 -308.539 1134.35 0.290412 -0.288756 0.912294
306.373 -312.138 1163.19 0.236902 0.200725 0.950572
536.044 -268.938 1101.03 0.317875 -0.656173 0.684392
141.021 -381.768 1225.39 0.0611195 0.688247 0.722897
-23.3808 -411.171 1270.42 -0.238208 0.967843 0.0808536
224.642 -357.517 1192.76 0.196385 0.478656 0.855758
363.074 -326.022 1144.64 0.145462 0.249382 0.957418
13.6494 -394.011 1247.98 -0.0471345 0.857528 0.512273
450.386 -281.043 1129.78 0.360004 -0.50773 0.782692
-111.946 -432.906 1297.4 -0.232232 0.96988 0.0734886
125.644 -397.71 1242.23 0.0610761 0.688311 0.72284
221.612 -336.584 1186.99 0.179131 0.491543 0.852231
266.025 -338.274 1173.25 0.252199 0.275166 0.927728
30.9575 -388.487 1240.38 -0.0471345 0.857528 0.512273
316.894 -331.391 1155.44 0.247858 0.259347 0.933438
-32.5607 -415.501 1274.63 -0.211974 0.949144 0.232793
279.429 -326.707 1166.2 0.252084 0.275086 0.927783
40.5253 -384.348 1234.3 -0.0471345 0.857528 0.512273
-3.68554 -398.305 1253.51 -0.0471345 0.857528 0.512273
200.62 -377.361 1220.42 0.0715548 0.657419 0.75012
184.141 -386.692 1225.68 0.0794583 0.671019 0.73717
479.466 -287.592 1137.5 0.358657 -0.609681 0.706863
154.523 -371.792 1214.72 0.0612232 0.688191 0.722942
-118.193 -433.628 1300.15 -0.232232 0.96988 0.0734886
389.714 -311.344 1138.39 0.25232 0.0733164 0.964862
438.377 -315.775 1117.14 0.301163 0.0567426 0.951883
268.323 -324.224 1176.38 0.243362 0.300026 0.922366
226.665 -347.749 1188.51 0.182608 0.490662 0.852001
213.434 -356.798 1195.42 0.11728 0.639397 0.759879
77.5737 -390.347 1243.78 0.0481431 0.753369 0.655833
-50.0569 -418.84 1280.12 -0.237939 0.967932 0.0805746
133.982 -402.116 1246.1 0.0613091 0.688316 0.722816
214.888 -348.299 1195.05 0.161404 0.516609 0.840871
256.742 -354.941 1193.3 0.0848591 0.651074 0.754255
188.837 -381.967 1221.04 0.0794286 0.670958 0.737229
87.2987 -390.063 1231.82 0.0590222 0.721091 0.690322
245.274 -359.377 1198.42 0.0848597 0.651074 0.754256
290.176 -326.223 1164.76 0.259589 -0.0909772 0.961424
201.584 -392.159 1232.16 0.085322 0.650786 0.754452
176.399 -399.319 1240.53 0.0617243 0.68833 0.722766
145.79 -398.873 1242.1 0.0614003 0.688309 0.722815
159.985 -393.686 1235.96 0.0614669 0.688295 0.722822
168.159 -393.251 1233.3 0.0794749 0.671053 0.737137
394.721 -300.664 1139.31 0.324138 -0.427541 0.843886
345.258 -329.958 1148.32 0.145462 0.249375 0.95742
432.92 -302.802 1122.18 0.359169 -0.475849 0.802848
-115.921 -433.614 1288.54 -0.232232 0.96988 0.0734886
501.371 -275.722 1112.56 0.333301 -0.631664 0.699937
350.734 -317.033 1147.22 0.259209 -0.192108 0.946523
550.761 -258.222 1101.42 0.315858 -0.744183 0.588579
592.475 -259.778 1092.29 0.321439 -0.658944 0.680051
366.342 -314.599 1142.16 0.273302 -0.25606 0.927221
-38.5507 -416.468 1271.21 -0.212063 0.949206 0.23246
470.479 -285.289 1115.32 0.366858 -0.537289 0.759431
321.702 -319.938 1153.74 0.263728 -0.0568142 0.962922
335.811 -326.296 1150.03 0.151571 0.277077 0.948817
185.26 -356.666 1201.1 0.0828602 0.652319 0.753402
274.944 -330.96 1168.54 0.252154 0.275135 0.92775
444.713 -390.974 1232.97 0.0661686 0.767449 0.637686
548.198 -267.614 1103.86 0.321419 -0.658929 0.680075
-67.1289 -424.045 1282.06 -0.232236 0.969879 0.0734946
91.4719 -380.231 1229.32 0.0649756 0.71209 0.699076
424.671 -307.836 1130.21 0.334358 -0.30037 0.893299
-40.563 -416.439 1281.53 -0.238095 0.96788 0.0807373
524.303 -271.373 1103.58 0.317855 -0.656158 0.684416
272.764 -364.631 1191.72 0.198452 0.452062 0.86963
540.56 -261.986 1104.79 0.315858 -0.744183 0.588579
502.843 -275.415 1136.14 0.358657 -0.609681 0.706863
286.54 -342.843 1168.58 0.252115 0.275108 0.927768
284.173 -316.688 1169.69 0.236902 0.200725 0.950572
42.1366 -387.445 1239.7 -0.0471345 0.857528 0.512273
506.739 -269.963 1116.68 0.333301 -0.631664 0.699937
467.242 -289.96 1113.5 0.366854 -0.537291 0.759432
253.541 -338.608 1175.08 0.198374 0.452247 0.869552
323.643 -336.604 1156.13 0.243186 0.167939 0.955331
11.7851 -386.539 1234.98 -0.0471345 0.857528 0.512273
32.0423 -391.127 1271.58 -0.0567662 0.862482 0.502894
420.006 -301.615 1134.03 0.334358 -0.30037 0.893299
28.6364 -397.054 1260.11 -0.0816659 0.878323 0.47104
39.8058 -395.4 1253.07 -0.0360089 0.851989 0.52232
518.685 -272.646 1108.6 0.333301 -0.631664 0.699937
-83.8128 -428.641 1293.24 -0.232232 0.96988 0.0734892
430.614 -288.48 1134.39 0.334358 -0.30037 0.893299
328.088 -311.876 1156.04 0.259654 -0.0909714 0.961407
233.84 -351.442 1187.25 0.196385 0.478656 0.855758
100.142 -369.765 1227.16 0.065296 0.701633 0.70954
-8.89614 -406.576 1268.61 -0.211563 0.948855 0.234338
283.936 -351.855 1173.26 0.252341 0.275266 0.92766
207.571 -386.111 1226.24 0.0852995 0.6508 0.754443
367.266 -303.684 1145.41 0.259209 -0.192108 0.946523
142.319 -406.408 1249.93 0.0615508 0.688331 0.722781
176.6 -381.292 1221.86 0.0794139 0.670927 0.737259
460.613 -287.468 1119.16 0.366946 -0.537257 0.759411
380.017 -295.341 1147.66 0.324138 -0.427541 0.843886
503.301 -281.072 1105.26 0.360294 -0.542912 0.758574
-84.0811 -428.626 1287.49 -0.232233 0.96988 0.0734893
338.348 -315.854 1151.95 0.276632 -0.258711 0.925496
442.219 -296.381 1127.45 0.334358 -0.30037 0.893299
-102.491 -431.818 1280.42 -0.232232 0.96988 0.0734887
66.7409 -389.606 1243.7 0.0481529 0.75339 0.655808
166.99 -362.274 1208.15 0.0790129 0.670096 0.738057
262.088 -318.882 1176.28 0.243362 0.300026 0.922366
249.567 -325.567 1181.76 0.243362 0.300026 0.922366
1.08177 -403.297 1264.9 -0.196773 0.945317 0.260106
327.178 -331.29 1154.3 0.243186 0.167939 0.955331
419.681 -315.394 1129.53 0.334358 -0.30037 0.893299
129.272 -368.581 1218.11 0.0615458 0.683316 0.727524
69.0222 -376.033 1230.65 -0.00316918 0.819361 0.573269
22.0546 -389.198 1239.96 -0.0672383 0.868439 0.491215
33.0314 -386.348 1263.49 -0.0567662 0.862482 0.502894
353.495 -319.738 1145.92 0.259209 -0.192108 0.946523
462.433 -295.072 1112.38 0.366877 -0.537282 0.759427
-126.627 -434.752 1303.33 -0.232232 0.96988 0.0734886
509.807 -278.825 1101.58 0.317851 -0.656154 0.684421
497.999 -269.037 1120.45 0.329648 -0.616592 0.714945
203.582 -349.357 1197.87 0.161404 0.516609 0.840871
63.341 -385.214 1239.67 0.0561115 0.745849 0.663747
120.394 -367.852 1218.68 0.0613208 0.683168 0.727682
28.0867 -391.785 1250.19 -0.0816659 0.878323 0.47104
385.279 -300.447 1143.59 0.290412 -0.288756 0.912294
295.136 -326.806 1160.78 0.246951 0.214547 0.944979
509.956 -275.903 1108.91 0.333301 -0.631664 0.699937
79.7199 -377.775 1233.2 -0.00316918 0.819361 0.573269
144.262 -368.146 1215.15 0.0620684 0.683819 0.727007
493.184 -282.946 1134.54 0.358657 -0.609681 0.706863
453.182 -309.304 1106.84 0.36688 -0.537281 0.759426
73.6027 -391.074 1234.05 0.0590222 0.721091 0.690322
-133.965 -435.859 1310.94 -0.232232 0.96988 0.0734886
490.939 -273.438 1119.19 0.329648 -0.616592 0.714945
404.376 -316.712 1135.04 0.266439 0.0750816 0.960923
392.841 -327.469 1138.1 0.25232 0.0733164 0.964862
311.738 -315.08 1160.1 0.259633 -0.0909733 0.961413
531.513 -270.199 1101.08 0.315858 -0.744183 0.588579
96.6761 -376.296 1231.62 0.0654815 0.701593 0.709562
435.253 -316.67 1121.51 0.343921 -0.306332 0.887626
9.013 -401.878 1266.3 -0.196773 0.945317 0.260106
298.482 -320.745 1159.13 0.251933 0.27498 0.927855
-26.2918 -412.783 1282.34 -0.238217 0.96784 0.0808636
375.133 -306.458 1143.19 0.276354 -0.25849 0.925641
443.564 -303.68 1124.5 0.334358 -0.30037 0.893299
281.818 -337.077 1168.06 0.252087 0.275089 0.927781
256.444 -324.754 1179.68 0.243362 0.300026 0.922366
457.957 -303.467 1114.32 0.374018 -0.490954 0.786813
126.214 -379.968 1224.71 0.0608875 0.688267 0.722898
430.019 -299.939 1125.17 0.359169 -0.475849 0.802848
152.77 -375.118 1217.99 0.0612116 0.688185 0.722948
440.256 -284.908 1129.8 0.324138 -0.427541 0.843886
484.918 -278 1114.04 0.353606 -0.543021 0.761637
164.751 -366.556 1211.83 0.0790835 0.670243 0.737916
451.539 -300.998 1118.94 0.374018 -0.490954 0.786813
583.773 -260.411 1093.88 0.321439 -0.658944 0.680051
-75.3975 -426.471 1284.7 -0.232233 0.96988 0.0734906
382.174 -305.018 1141.12 0.275481 -0.257795 0.926095
341.159 -319.337 1149.38 0.259209 -0.192108 0.946523
553.516 -262.545 1095.6 0.315858 -0.744183 0.588579
103.832 -378.643 1230.13 0.0575574 0.69166 0.719926
241.465 -355.018 1187.07 0.179043 0.491565 0.852237
495.784 -281.328 1105.39 0.366776 -0.537319 0.75945
179.159 -360.93 1205.92 0.0828904 0.6523 0.753415
183.48 -365.791 1206.6 0.0934775 0.656389 0.748609
429.416 -313.86 1126.24 0.292974 0.0726255 0.953358
223.067 -351.138 1191.52 0.181972 0.490824 0.852044
457.757 -285.823 1121.9 0.366967 -0.53725 0.759406
153.914 -365.384 1215.22 0.0625754 0.671072 0.738746
361.89 -314.946 1144.59 0.259209 -0.192108 0.946523
-20.0618 -409.429 1263.05 -0.211891 0.949086 0.233107
-106.781 -431.807 1305.8 -0.232232 0.96988 0.0734886
397.348 -309.866 1138.51 0.305761 -0.314276 0.898744
-133.732 -435.721 1315.66 -0.232232 0.96988 0.0734886
-52.1676 -419.621 1283.36 -0.237908 0.967942 0.0805434
11.786 -400.012 1261.33 -0.196773 0.945317 0.260106
258.816 -344.267 1177.04 0.252202 0.275168 0.927727
