-64.2885 -21.7976 718.287
495.586 -272.91 1118.14
200.557 -91.5438 794.075
356.132 -315.332 1145.52
89.6896 -70.2287 770.422
555.762 -256.503 1098.49
111.274 -23.0231 701.731
598.398 -262.686 1094.82
125.312 -41.9031 727.522
370.797 -310.187 1141.71
-57.212 -95.0486 800.201
228.085 -145.181 851.343
157.452 -76.3504 777.629
124.425 -26.7637 706.683
-31.2407 -81.6393 783.853
19.5655 -66.9201 766.621
-49.6468 -75.4163 776.905
-43.0909 -417.778 1273.63
141.205 -43.7656 734.316
474.261 -285.473 1111.69
324.913 -324.589 1152.29
-61.0553 -29.1026 725.174
206.2 -92.2795 795.407
330.799 -327.8 1151.26
186.877 -353.471 1198.73
60.9906 10.4944 685.585
283.865 -323.644 1163.84
125.213 -38.4803 723.541
151.384 -109.858 817.87
-47.8295 -9.5263 702.785
301.975 -134.86 840.497
37.3725 -73.2544 775.689
264.542 -19.3712 818.922
443.16 -393.343 1237.04
-50.0503 -97.7687 802.237
123.489 -81.0487 783.028
87.2821 -66.6711 765.511
543.467 -268.31 1104.98
99.8944 -30.5761 712.686
89.2457 -139.932 847.962
86.5149 -137.501 845.84
-18.9752 -72.2178 772.165
125.046 -27.7041 709.839
-23.4864 -71.5107 770.733
321.596 -73.9425 815.056
61.2561 -125.484 832.842
-76.6933 -428.137 1280.65
112.76 -34.8224 719.067
142.709 -140.229 848.25
83.322 -384.884 1231.14
348.294 -80.1922 831.562
424.888 -300.649 1132.78
-19.6232 -94.9237 796.76
73.039 -92.4672 795.166
-44.9132 -417.838 1276.61
528.213 -269.243 1105.18
195.795 -92.5751 794.956
268.17 -366.108 1200.6
-36.0807 -3.61239 695.084
208.144 -91.0878 793.712
73.2136 -62.4037 759.786
544.521 -257.023 1102.05
200.942 -90.7105 792.087
493.933 -274.475 1141.47
115.768 -25.0006 704.213
33.0364 -46.3147 738.818
121.663 -82.6684 784.887
36.2974 -118.007 820.647
286.115 -339.18 1164.85
120.747 -80.223 782.08
278.438 -318.188 1169.26
65.7322 -56.6144 752.797
53.2601 -385.39 1239.63
343.638 -149.648 849.479
125.557 -115.216 822.656
208.954 -179.447 888.584
313.68 -38.71 839.3
291.627 -56.9033 805.594
330.098 -169.553 869.399
506.85 -273.285 1113.32
81.526 -130.488 838.973
-26.538 -93.4358 794.462
324.084 -138.75 839.442
103.952 -114.915 820.874
471.596 -288.52 1110.67
205.915 20.2307 813.11
561.976 -264.675 1099.6
-59.2683 -21.1077 716.716
252.51 -344.723 1175.8
329.144 -336.139 1155.44
90.2202 -66.0278 764.716
76.1588 -2.09919 689.824
-24.4112 -91.2545 792.567
15.9432 -381.847 1226.17
291.101 -153.492 857.162
31.5477 -393.516 1275.62
98.8004 -19.895 700.03
414.878 -302.361 1134.62
106.356 -56.7956 753.334
18.2072 -76.8837 778.479
116.162 -25.3409 703.302
202.495 -110.06 816.106
16.9913 -397.897 1259.66
39.6978 -392.319 1247.67
77.4231 3.94342 691.323
512.777 -273.369 1113.02
-35.0774 -70.083 769.559
-79.744 -425.815 1290.9
23.7003 -74.6861 775.84
313.003 -157.114 859.373
208.007 -91.7726 794.857
134.934 -63.6851 762.792
383.952 -98.5046 848.601
-60.156 -76.5503 777.654
-35.1713 -87.5044 789.718
424.441 -292.984 1134.84
-46.1377 -20.0421 712.49
-35.6559 -71.0675 770.857
329.296 -307.055 1157.93
57.7211 -18.7164 705.546
90.2915 -70.0181 770.138
49.6119 12.2928 680.247
237.58 -343.146 1182.17
116.961 -76.1757 778.319
-29.9496 -95.4814 796.522
108.276 -370.143 1222.78
170.881 22.7967 770.38
-49.1668 -81.1272 783.311
-9.32412 -405.62 1274.63
234.55 -151.733 858.185
133.428 -82.3408 785.085
-45.5435 -90.6864 793.371
-60.9154 -79.9098 781.63
289.123 -354.332 1176.37
108.182 -146.672 856.315
298.895 -155.666 859.074
183.824 -108.556 813.206
44.9841 -93.1077 798.558
209.246 -389.945 1230.15
-27.6512 -90.6752 791.889
329.671 -50.668 842.045
285.989 -58.2471 799.907
206.907 -137.461 846.085
143.746 -155.224 865.892
67.641 -57.2442 754.034
275.24 -26.134 821.268
148.929 -93.578 796.867
208.04 -115.236 821.31
362.229 -305.042 1146.51
322.309 -70.9108 818.187
207.598 -115.15 821.566
144.948 -411.114 1255.38
138.867 -30.1159 713.069
174.885 -97.961 805.025
168.829 -94.9938 800.991
225.543 -142.415 848.664
170.923 -382.859 1222.15
161.28 -166.651 879.388
-10.5938 37.291 658.048
466.686 -285.088 1118.92
-18.149 -95.3789 797.495
368.06 -159.299 869.531
296.905 -145.277 848.276
-28.2287 -87.4199 789.492
-60.7544 -96.0914 802.665
375.342 -296.442 1149.07
161.3 -148.037 857.633
492.803 -285.295 1107.22
71.5404 11.2254 690.834
-84.0309 -429.942 1281.64
280.975 -26.3359 825.562
-60.2498 -78.0122 779.415
-39.425 -70.2727 769.944
167.748 -122.532 829.509
345.562 -85.7723 824.726
309.109 -72.528 805.985
38.4649 -46.3816 740.788
357.839 -157.767 861.789
72.3771 -59.927 756.663
196.134 -129.094 837.931
148.363 -71.259 771.846
89.9991 -29.2489 714.265
232.749 -148.811 854.555
340.822 -324.794 1148.79
47.9056 -10.3596 688.693
281.849 -55.988 798.776
445.042 -291.644 1123.37
165.899 -79.9144 783.457
352.584 -84.4955 830.969
168.907 -33.4057 730.372
-107.957 -435.314 1279.79
34.2655 -83.364 787.061
50.1598 -55.8831 751.651
382.906 -68.5171 871.557
304.598 -37.7343 833.78
61.6113 -388.84 1242.41
-35.7735 -68.8001 767.939
294.553 -59.5532 805.508
437.822 -392.399 1234.19
171.906 -361.389 1206.43
151.819 -78.1809 779.855
-47.0636 -79.5959 781.514
-61.6682 -71.1062 771.365
157.72 -90.9712 794.177
208.498 -125.244 830.421
66.6387 -119.141 827.056
567.757 -265.473 1100.4
256.452 -319.342 1177.92
246.576 -193.608 906.521
-66.0772 -77.0381 778.227
-64.8112 -27.451 724.105
182.01 -83.0882 783.846
241.151 -333.68 1179.8
145.277 -74.7993 776.31
99.0902 -31.9198 716.58
2.70552 -402.903 1270.28
325.058 -326.546 1152.55
424.527 -315.087 1127.84
15.8723 -100.244 800.717
326.623 -137.609 839.107
318.317 -66.4037 818.777
-23.7596 -96.7195 798.146
125.23 -365.441 1217.51
289.161 -59.8539 800.92
293.286 -62.0956 802.188
325.494 -74.4 817.674
-31.6159 -103.282 808.314
-38.2405 -75.0488 776.41
63.6734 -375.162 1229.38
269.676 -22.8809 819.542
91.2156 -28.7486 712.88
154.46 -125.668 832.671
18.8563 -395.965 1250.21
-61.913 -29.9864 726.24
92.2804 -70.0355 770.023
34.2136 -394.406 1253.36
178.496 -38.0739 735.136
187.489 -156.806 866.192
356.207 -322.408 1144.44
463.326 -292.042 1117.24
36.6317 -50.1695 744.497
109.232 -112.131 818.152
59.9408 -134.746 838.259
-48.7164 -9.47981 702.941
-121.39 -434.083 1305.57
498.655 -282.977 1099.97
498.572 -272.79 1116.51
195.876 -359.038 1199.13
58.2197 -385.146 1239.34
225.047 -55.4978 757.125
413.986 -360.509 1171.36
235.265 -147.468 852.542
177.252 -99.7507 806.481
115.641 -369.349 1220.83
308.7 -65.6771 811.485
210.573 -94.4319 800.286
-50.1404 -77.6675 779.295
93.0596 -30.5187 715.844
46.5946 -51.856 746.943
83.0061 -26.9796 714.302
30.5828 -394.974 1252.94
189.627 26.5558 801.805
-59.5847 -78.1006 779.469
-17.4472 -87.4573 790.502
67.2698 -21.7362 709.582
-115.165 -90.5053 805.963
390.808 -298.521 1142.44
296.556 -332 1160.45
23.6544 -68.7885 768.552
512.744 -273.249 1110.8
85.0753 -380.33 1233.3
157.577 -138.354 845.362
-56.3933 -96.556 801.97
116.529 -25.3334 702.494
271.096 -166.532 875.584
210.54 -112.402 817.166
212.91 -93.9683 798.048
345.522 -140.277 843.403
186.147 -101.539 808.296
185.836 -347.743 1198.64
261.853 -174.109 883.538
-21.9449 -91.8648 793.155
144.699 -87.6581 789.76
139.527 -363.856 1213.15
480.183 -275.373 1120.52
283.73 -54.6142 801.475
91.8892 -31.5769 719.177
507.098 -403.071 1247.21
70.8183 -119.825 827.922
121.257 -151.223 861.663
72.6069 -15.6924 694.222
200.985 -122.799 829.207
38.3227 -48.8182 743.269
451.721 -314.979 1109.36
35.4527 -50.1079 744.341
292.056 -181.895 890.332
143.29 -68.626 768.9
-68.1996 -32.6195 732.084
99.5521 -123.531 832.524
129.508 -126.465 834.537
-40.0026 -77.2823 778.974
68.4367 -385.623 1239.7
288.027 -28.2912 828.923
91.3312 -25.7445 710.902
-54.0888 -14.5824 708.91
64.9072 -125.851 833.824
290.329 -56.7383 804.729
-138.026 -435.979 1314.21
106.374 -151.313 860.272
501.774 -271.649 1118.03
211.188 -91.9856 795.804
276.119 -23.0602 824.777
407.92 -314.091 1133.85
382.32 -330.091 1142.21
-23.1574 -74.9528 776.343
312.835 -310.842 1161.31
115.226 -78.0602 780.021
-63.9755 -98.4188 806.647
88.8292 -64.8711 762.885
519.92 -272.528 1100.96
116.422 -25.4213 703.462
92.0455 -368.992 1231.93
16.1737 -101.146 801.526
-20.6448 -93.0087 794.792
-11.4041 -18.8582 699.758
-62.5282 -76.9995 778.468
436.07 -320.151 1118.3
328.088 -74.2095 819.91
7.6275 -400.882 1261.63
303.62 -319.488 1158.54
86.0922 -93.7315 796.596
177.426 34.1826 818.894
-46.9415 -2.52233 695.983
59.7886 -18.2554 700.779
41.2064 -113.382 818.913
-36.2953 -414.704 1286.47
236.335 -52.6373 765.467
44.8165 -127.685 829.503
377.495 -310.162 1140.5
440.092 -307.393 1124.55
-49.8784 -89.3068 792.324
281.716 -332.82 1164.39
-47.2487 -93.1468 796.298
111.901 -23.515 703.884
-26.9316 -72.9154 773.243
35.9652 -48.5291 742.817
254.599 -332.432 1174.48
125.476 -81.3072 783.277
213.761 -140.338 848.715
240.045 -23.0707 796.524
451.971 -305.548 1116.1
-23.0746 -91.733 793.273
127.383 -376.279 1220.9
113.419 -74.8979 776.912
325.468 -77.2001 815.312
213.951 -91.3688 794.188
428.676 -299.14 1131.65
53.0141 15.2556 682.915
148.744 -366.36 1211.63
432.305 -283.542 1133.55
205.143 -156.537 864.274
-90.8589 -81.8841 787.371
-45.6956 -17.4112 709.793
196.571 -127.869 836.543
-52.0683 -81.5859 783.36
217.161 -87.6336 790.406
122.677 -39.9628 725.328
23.5587 -117.779 818.107
253.513 -201.423 918.028
159.815 -94.4358 798.769
482.881 -281.083 1110.61
179.223 -148.806 857.728
88.0571 -22.9421 707.465
36.8492 -45.8434 740.13
164.001 -356.466 1206.09
309.123 -161.046 863.636
294.189 -31.1965 830.844
-39.2544 -91.3778 793.213
38.7385 -48.3197 742.779
452.071 -307.076 1115.08
268.933 -23.0449 818.79
41.1987 -46.6924 741.296
-115.673 -87.8563 800.94
-38.0692 -84.9461 786.933
578.778 -259.405 1093.31
95.9945 -30.1541 714.287
172.768 -93.5174 799.645
-66.8402 -422.683 1287.78
379.355 -301.981 1143.5
337.13 -320.05 1150.37
-44.707 -87.6446 790.234
291.815 -65.2117 798
302.493 -34.5453 834.253
283.303 -62.2241 793.814
46.2438 -55.4411 750.823
32.2654 -87.4118 790.24
51.7055 -51.2916 746.531
94.0283 -70.2426 770.54
-38.2168 -415.219 1278.06
542.067 -265.42 1099.27
102.192 -20.5836 688.358
-61.7518 -72.3613 772.877
101.165 -385.118 1229.77
284.795 -85.0464 772.269
44.2797 17.0767 679.042
182.047 -123.84 832.039
239.118 -351.763 1184.46
301.2 -34.7885 833.165
505.806 -275.976 1104.15
175.076 -349.647 1202.66
605.388 -251.578 1085.55
301.036 -69.2341 802.062
360.273 -83.3744 837.57
115.874 -150.078 860.547
348.014 -193.363 921.292
-24.7785 -74.6915 775.289
50.9406 -54.3662 749.902
97.9828 -29.2857 711.335
183.415 -361.65 1201.4
433.919 -312.728 1123.39
219.195 -355.267 1193.24
-44.8062 -96.8309 800.309
454.846 -284.097 1124.52
-53.0469 -91.5507 795.243
80.8585 -137.471 845.249
150.71 -356.936 1209.37
143.851 -66.0798 765.638
356.605 -326.275 1144.11
-24.8125 -413.064 1263.82
162.823 -122.601 828.892
-116.71 -429.978 1311.05
89.4859 -24.8113 710.086
77.767 -104.6 810.455
400.437 -298.525 1141.53
-130.332 -431.728 1317.39
169.912 -95.6336 802.219
55.6783 -54.3136 749.933
357.535 -83.6738 835.302
-63.8078 -422.659 1285.21
9.94592 -399.969 1257.25
601.614 -254.133 1087.72
189.857 -132.789 841.811
254.101 -345.883 1175.78
269.009 -60.397 784.017
209.891 -362.523 1197.78
298.207 -340.31 1162.88
214.285 -90.5176 792.652
189.327 -101.509 807.993
53.7282 -392.366 1249.52
119.112 -139.339 847.329
373.997 -88.338 845.178
466.763 -279.116 1125.87
106.469 -151.625 860.517
225.861 -53.4733 758.36
-72.1117 -426.528 1281.65
21.3519 -82.7403 785.937
567.137 -264.789 1095.98
208.21 -91.99 795.993
51.1499 9.6239 680.466
198.861 -91.5909 794.265
456.479 -280.302 1128.67
337.497 -83.2716 820.054
-36.7207 -87.1623 789.819
-45.9545 -76.9196 778.415
466.384 -374.813 1211.38
89.9198 -28.4759 712.775
83.9525 -24.4975 709.351
23.2953 -87.7186 790.462
118.784 -26.3597 705.688
153.973 -155.184 865.582
-70.6548 -48.0071 744.923
-0.512266 -403.834 1259.48
76.7459 -118.92 826.543
298.599 -58.6489 809.338
401.491 -311.701 1137.11
-113.215 -432.356 1303.25
515.144 -271.999 1112.29
155.553 -156.277 866.816
186.593 -406.007 1261.43
329.511 -71.7634 823.322
111.326 -396.774 1236.78
100.643 -69.7201 769.864
151.402 -92.3988 795.196
-57.237 -421.321 1283.36
-156.868 -441.474 1312.89
300.856 -62.9028 807.367
92.2629 -24.8043 709.825
113.442 -101.161 807.049
69.203 -382.954 1236.66
278.32 -58.147 793.983
69.8914 5.76149 688.551
46.156 -49.229 744.273
232.959 -61.7746 761.556
153.355 -74.4456 775.434
372.354 -302.365 1144.49
319.662 -166.141 870.065
269.1 -54.6324 789.836
250.256 -357.087 1186.64
242.691 -196.486 909.446
356.447 -88.3983 831.975
148.01 -91.5314 793.932
210.451 -342.355 1192.25
120.347 -378.174 1223.16
524.191 -269.086 1109.54
48.0669 -392.042 1248.64
47.0729 -54.223 749.507
-43.1178 -3.19756 695.928
-146.581 -439.165 1312.07
386.537 -101.997 849.222
46.9241 -75.6637 779.203
54.0732 -51.6782 747.011
65.2833 -17.6246 695.236
272.862 -326.255 1168.25
113.459 -36.9167 722.783
246.182 -154.813 862.211
-44.9928 -15.4561 707.621
141.01 -63.89 762.865
71.1298 -59.0012 755.694
-47.1445 -84.5747 787.414
73.097 -22.0623 703.676
21.8508 -396.661 1258.53
-29.2195 -72.5979 772.9
233.393 -329.11 1184.69
41.5836 -123.934 825.934
122.256 -26.8127 706.77
102.182 -117.619 825.768
-30.4431 -15.3886 701.198
-32.1021 -74.6451 775.78
435.403 -320.862 1118.22
224.789 -118.329 819.842
81.8063 -131.979 840.386
108.065 -118.191 824.914
-46.5292 -0.958753 694.41
-56.6964 -79.0771 780.504
-80.9291 -428.96 1282.3
48.7733 -112.88 819.578
150.663 -357.107 1210.37
-33.572 -69.5954 768.846
344.306 -145.729 846.602
144.574 -85.9836 788.49
302.421 -65.1492 806.646
86.5049 -26.3 711.483
318.905 -92.6722 797.931
-48.0438 -79.08 780.795
180.484 -150.717 859.788
-28.1745 -79.116 780.784
369.384 -152.349 861.966
407.235 -290.332 1141.8
45.2708 -392.093 1248.29
299.181 -32.818 833.15
-41.9453 -83.514 786.201
139.048 -369.325 1214.21
201.214 -92.1099 795.018
-78.0125 -82.7682 786.489
34.9426 -47.1555 740.341
-40.3968 -10.4117 701.032
-51.0745 -99.4728 805.016
350.753 -178.727 885.176
-1.30295 -40.8672 724.918
203.094 -145.245 854.576
39.7185 -83.1597 786.514
-21.8894 -4.68381 693.782
112.956 -39.1883 727.12
362.025 -319.139 1143.08
65.2935 -19.9624 702.274
435.646 -282.951 1130.89
161.873 -78.3113 780.795
348.95 -88.3036 826.39
322.535 -330.011 1154.45
-48.356 -92.3361 795.552
403.165 -324.905 1133.23
335.18 -194.016 910.174
179.069 -92.6524 798.631
