1.34938 0.684195 3.30811
0.854557 0.421828 4.2936
-0.505294 0.99371 2.46686
1.19776 0.719318 3.1862
1.13546 0.74039 3.17826
1.66833 0.644168 3.36505
0.298743 0.242003 5.14931
1.07977 0.755015 3.33104
1.08198 0.783435 3.06786
0.518464 0.119969 5.05814
1.12827 0.774659 3.08623
0.466389 0.0673601 5.1767
1.51517 0.700858 3.19923
1.22512 0.788556 3.01695
1.25011 0.786034 2.99358
1.29533 0.771777 2.99288
1.25075 0.800732 2.92766
-1.77501 0.758517 3.3841
1.3599 0.786989 2.93965
1.4532 0.777475 2.94526
1.17055 0.837235 2.8594
1.63068 0.750431 2.97673
1.10861 0.866816 2.7963
0.746772 0.938048 2.65493
0.809714 0.931135 2.66506
-1.39675 0.845892 2.71709
1.17982 0.881293 2.75375
1.20808 0.878453 2.75872
-0.507567 -0.392135 3.27938
-0.48821 -0.386383 3.28158
0.559315 0.960102 2.56707
-0.139514 -0.342564 3.18191
-0.750616 -0.205029 3.00342
-0.696022 -0.16917 2.94598
0.151782 -0.166775 2.7879
-0.444196 -0.0441308 2.74703
-0.109205 0.0460688 2.49091
0.601747 0.672368 4.23917
1.38897 0.751549 2.89088
-2.05987 0.318255 4.33433
-2.15142 0.356943 4.08635
-1.80649 0.339006 4.28391
-1.50814 0.407326 4.02242
0.0961167 0.123738 2.33627
-1.99631 0.560313 3.39873
-1.40239 0.477893 3.85575
-1.53286 0.57839 3.4783
-1.86678 0.647241 3.14657
-1.39477 0.571071 3.5701
-1.85805 0.659043 3.1311
1.35028 0.714493 3.14878
-1.20171 0.546248 3.69035
-1.25182 0.617766 3.45043
1.65042 0.602054 3.51777
-1.18592 0.65577 3.39464
-1.33297 0.686241 3.19639
-1.28642 0.686623 3.24187
-1.58402 0.745603 2.92424
-1.31888 0.714207 3.11586
-1.34836 0.804145 2.81528
-1.49182 0.829011 2.67177
-0.0531393 1.18179 4.13649
-1.13867 0.78322 2.91268
-1.17979 0.802135 2.84612
-0.927503 1.05614 2.26303
1.17486 0.644776 3.62963
-0.267998 0.964042 2.58127
-0.74919 0.819433 2.98554
-0.719844 0.828634 2.9126
-1.17627 0.899674 2.58924
0.564244 0.549095 4.40071
-0.98857 0.910662 2.59476
-0.641021 0.868022 2.80827
1.10074 0.493836 4.02767
-1.17259 0.872692 2.72017
1.31043 0.638105 3.52898
1.59605 0.525477 3.85754
-1.21842 0.976165 2.43512
1.598 0.616592 3.33441
1.60639 0.535016 3.80401
1.29957 0.596162 3.65141
0.86063 0.520001 4.1409
-0.813572 0.932098 2.55538
1.42983 0.645186 3.606
-1.13128 0.986896 2.38498
1.3858 0.59782 3.67268
1.40893 0.619635 3.53831
-0.423603 0.867596 2.8526
1.36245 0.64289 3.49572
-0.0862686 0.899204 2.79256
1.48004 0.634204 3.64746
1.40866 0.652982 3.42259
-0.832491 0.99848 2.37049
-2.0817 0.631157 7.57319
-0.653548 0.943019 2.56069
1.35404 0.675721 3.36774
1.33038 0.634759 3.41469
1.54272 0.643728 3.41795
-1.56987 0.731282 2.95471
-0.945456 1.05394 2.27442
-0.443977 0.899838 2.74369
0.762335 0.597611 3.94174
-0.493393 1.0013 2.44451
1.56812 0.672707 3.31311
1.6481 0.652952 3.31724
1.60107 0.67002 3.31165
1.48322 0.697098 3.22134
1.02606 0.784439 3.06759
1.15065 0.760521 3.1075
1.38158 0.716865 3.17548
1.48153 0.70438 3.20313
1.03371 0.791004 3.05589
1.39937 0.72487 3.1798
1.34254 0.73624 3.13993
-0.620394 1.03756 2.26497
1.49698 0.713054 3.18528
1.19347 0.752465 3.10283
1.27231 0.757885 3.0908
-0.84529 1.09766 2.15348
1.43735 0.738788 3.09469
0.929883 0.831316 2.91313
1.52092 0.727983 3.11997
1.50291 0.546324 3.58101
1.45305 0.743653 3.07624
0.966564 0.840392 2.92169
1.46852 0.747175 3.07227
1.16016 0.811258 2.94503
1.66668 0.719475 3.09827
0.87043 0.868056 2.8302
1.49709 0.61705 3.39262
1.19564 0.80826 2.9234
-1.39512 0.73029 3.03693
1.64222 0.723293 3.0631
1.20655 0.554016 3.74458
0.933696 0.864763 2.85228
1.33026 0.507969 3.81321
-0.376919 1.06299 2.28387
1.24694 0.808158 2.89981
-0.299006 0.995099 2.47897
1.44585 0.771257 2.94678
1.30229 0.721485 3.13785
1.578 0.751884 2.99828
0.171445 1.01059 2.45675
0.973263 0.90497 2.7627
0.547965 0.970758 2.58239
1.30024 0.837765 2.81989
0.797307 0.933851 2.65729
1.33617 0.83968 2.78497
1.23119 0.874341 2.74474
0.716454 0.962666 2.52974
1.56638 0.809628 2.80133
0.336423 0.143279 5.44331
1.50331 0.820732 2.77497
1.14583 0.894271 2.66676
1.24964 0.893479 2.67744
1.27129 0.898857 2.67245
-0.660982 -0.26673 3.06966
-0.0603639 0.0604109 2.44547
-0.458186 0.138409 2.8777
-0.792516 -0.879224 3.2549
-1.35801 0.485538 3.85102
-1.65374 0.558393 3.48426
0.2315 0.161508 2.22419
1.35383 0.574389 3.72277
1.31731 0.460961 3.9676
1.76819 0.491292 3.8748
-1.50252 0.560096 3.54843
1.50041 0.647309 3.70347
-1.51861 0.783921 2.85523
1.15235 0.608962 3.61648
0.624231 0.650706 3.88406
-1.14617 0.749118 3.00868
1.23124 0.840285 2.8116
-1.48239 0.813265 2.78257
1.31593 0.840528 2.77251
1.34883 0.871455 2.70724
-1.19515 0.788035 2.90153
-1.39098 0.827608 2.78188
1.56537 0.357366 4.37429
-1.01822 0.783201 2.96294
0.878137 0.954759 2.55273
-0.887123 0.790308 3.01427
-0.881286 0.835437 2.87417
-0.588279 0.80566 3.02864
0.877445 0.38658 2.70316
1.47892 0.465496 4.04397
-0.815624 0.859683 2.82129
-0.750551 0.859261 2.83093
1.75399 0.471975 4.04733
0.873728 0.568485 4.02282
1.37417 0.535766 3.79927
0.982871 0.892626 2.77865
-1.22846 0.968887 2.47049
-0.547588 0.868127 2.83204
-1.13783 0.950979 2.47461
0.789426 0.422314 4.37304
-0.709593 0.897506 2.70491
-0.5039 0.875976 2.78695
1.36164 0.594895 3.63637
-1.0539 0.986879 2.46127
1.76931 0.500021 3.5839
1.80127 0.525594 3.75082
-0.719234 0.934103 2.58863
-0.528303 0.91484 2.66595
1.2611 0.636536 3.47999
-0.545069 0.937775 2.61829
1.5909 0.598265 3.58854
1.54789 0.607867 3.53446
1.33458 0.653826 3.44861
1.34897 0.650768 3.44668
-0.5556 0.946321 2.55386
1.26561 0.795243 2.94328
1.62496 0.609736 3.54931
-0.123824 0.904233 2.78326
1.38384 0.653874 3.41096
1.32575 0.815889 2.84437
-0.0539788 0.893913 2.7818
-1.10675 0.779796 2.94516
1.00734 0.550326 3.91381
-0.103449 0.910451 2.7557
-0.430696 0.952467 2.56499
-0.410014 0.953954 2.56839
-0.183312 0.928508 2.68809
1.3158 0.684617 3.33871
1.61518 0.638568 3.43551
1.51911 0.660512 3.3829
1.2784 0.753057 3.05592
1.5402 0.653019 3.36516
-0.697782 1.01134 2.40027
-0.578358 0.993043 2.40543
1.59654 0.65864 3.37976
1.36045 0.701046 3.27325
0.699551 1.0629 2.2874
-0.605323 1.00511 2.38593
1.69761 0.641525 3.3754
-0.79486 1.27002 1.89168
1.30246 0.719603 3.20617
-0.947115 1.07431 2.22508
1.21684 0.737957 3.166
0.396822 0.597212 4.35883
-0.609441 1.0346 2.31709
1.24656 0.683278 3.32411
1.37536 0.671209 3.49791
1.61481 0.668058 3.3072
-0.374021 1.12914 2.2013
1.77597 0.651797 3.40761
-0.486643 1.00831 2.41317
1.40856 0.708034 3.18965
1.17454 0.652753 3.47553
1.28972 0.741635 3.14364
1.04651 0.555655 3.85399
1.62231 0.686954 3.20582
-0.568532 1.04518 2.30712
1.32212 0.751988 3.10425
1.71923 0.681687 3.24453
-0.8402 1.08189 2.15664
1.44476 0.773293 2.94445
-0.648818 1.0489 2.21886
1.50677 0.713584 3.12959
-0.797315 1.08177 2.162
-0.473428 1.04013 2.30959
1.20794 0.595565 3.62557
-0.909139 1.11896 2.13426
1.29319 0.462148 3.98901
0.867273 0.853883 2.88758
0.99635 0.826313 2.9182
0.831332 0.864311 2.84824
1.5889 0.724977 3.10254
1.51093 0.542708 3.59322
1.07267 0.891501 2.73971
1.54759 0.731559 3.07687
1.37713 0.644608 3.3468
-0.189156 1.09557 2.11134
-0.264916 1.03257 2.36178
-0.646852 1.08226 2.16639
1.27731 0.582069 3.61967
-0.486881 1.05846 2.23399
0.980924 0.849237 2.89056
-0.407887 1.0511 2.2671
1.52095 0.742603 3.02415
1.03411 0.845713 2.89532
1.40775 0.668166 3.31521
0.837434 0.875781 2.80363
0.699067 0.899484 2.73989
0.868435 0.870772 2.80515
-0.352051 1.05532 2.26959
1.44487 0.626006 3.39139
1.43008 0.767845 2.97398
-0.214369 1.05418 2.32519
1.47698 0.777813 2.9488
1.31485 0.800528 2.85341
1.45468 0.780797 2.92343
-0.630044 1.01722 2.37566
1.35022 0.788307 2.91385
1.68951 0.739111 2.99534
1.09808 0.866962 2.80993
0.308163 1.00475 2.49989
1.14885 0.866586 2.81474
1.22719 1.0175 2.39208
1.66119 0.769921 2.96703
0.0224366 0.943871 2.67124
-0.971419 0.865825 2.79784
0.326332 1.00403 2.47224
0.263121 1.01422 2.44291
1.37119 0.825412 2.80787
1.21935 0.875319 2.76031
-0.036663 1.02952 2.40032
0.528508 0.998496 2.51347
1.2082 0.650553 3.43433
1.5096 0.820422 2.82249
1.57875 0.807532 2.84008
0.810115 0.949564 2.55371
0.485284 1.01844 2.45961
1.25992 0.882708 2.71648
1.55375 0.841451 2.76917
-0.375583 0.894784 2.74936
1.16154 0.913214 2.60676
1.43706 0.733329 3.02422
1.63079 0.453142 4.15044
0.510496 0.598528 4.18863
0.797058 1.16711 1.97976
-0.317722 -0.466148 3.50639
-0.571276 -0.324321 3.1618
-0.591672 -0.308104 3.12152
-0.333648 -0.348976 3.17235
-0.608611 -0.223393 2.95762
1.23533 0.768848 3.04109
-0.619431 -0.120963 2.85799
-2.41276 0.374264 4.1799
0.615204 0.499785 4.31462
-1.93777 0.307991 4.39385
0.852476 0.652946 3.79822
-2.04701 0.343413 4.21562
1.33447 0.844432 2.76517
-1.92656 0.325884 4.33112
1.31019 0.822384 2.83217
-2.17342 0.408776 4.03573
1.19867 0.593897 3.608
-0.451286 0.156087 2.87007
-1.20381 0.587279 3.56607
-1.37034 0.632833 3.3013
-1.31976 0.700438 3.07672
-1.16624 0.687461 3.27328
-1.46286 0.752775 2.95573
-1.58419 0.787388 2.84243
-1.35372 0.748349 2.98142
-1.14648 0.744581 3.08861
-0.966914 0.730851 3.26338
-0.915445 0.726782 3.22494
1.45179 0.797507 2.8292
0.699488 0.274623 2.44178
-0.832878 0.737528 3.27726
0.965064 0.577264 3.79573
-1.33257 0.835713 2.75619
0.699262 0.313612 2.4345
0.896236 0.518044 4.0884
1.26609 0.708982 3.19974
0.819858 0.347612 2.62801
0.935776 0.832604 2.95546
0.971126 0.882882 2.80408
1.53183 0.437088 4.272
-0.637511 0.788047 3.10272
-0.622902 0.79326 3.12811
-0.533269 0.781268 3.14339
-0.983262 0.84951 2.80517
-0.718394 0.781976 3.10174
1.11277 0.835779 2.85342
-0.387729 0.808099 3.04791
-0.926949 0.885859 2.7163
-0.59062 0.860341 2.84645
-0.848777 0.789742 3.01446
0.443836 0.468587 2.20022
1.43292 0.811585 2.83943
-0.738515 0.886459 2.75365
1.84483 0.482087 3.99469
-0.524072 0.869737 2.81895
-0.825552 0.913165 2.57618
-0.648284 0.905095 2.72577
-0.497062 0.888848 2.75636
-0.43613 0.893415 2.78143
-0.224804 0.863191 2.86557
1.19193 0.767291 3.0555
-0.76891 0.950873 2.50495
0.640144 1.00728 2.49811
-1.63553 0.58728 3.39984
1.51533 0.604164 3.57196
-0.153699 0.879174 2.83177
-0.641972 0.952075 2.55124
-0.508013 0.933491 2.61649
-0.650715 0.959062 2.53836
1.08992 -0.0884079 2.66734
-1.06243 1.01727 2.31441
1.14551 0.720339 3.23539
1.59985 0.617406 3.48568
-0.455919 0.951629 2.584
0.539959 1.15965 2.0089
-0.503197 0.966219 2.53469
-0.734433 1.00258 2.41925
-0.390708 0.953828 2.57105
1.40048 0.672257 3.35197
1.40633 0.683506 3.24754
-0.688979 1.00719 2.41597
1.51376 0.743382 2.99077
-0.950667 1.0468 2.25996
1.23361 0.713106 3.25382
-0.444369 0.979616 2.48117
1.31723 0.743515 3.03613
1.75987 0.62861 3.39725
1.48394 0.689385 3.27256
-0.0650059 0.94858 2.64603
0.000282117 0.945891 2.65765
1.10399 0.764788 3.09531
1.70348 0.662728 3.31181
-0.562004 1.02774 2.34833
1.42456 0.625123 3.39379
1.23459 0.752652 3.12457
1.46983 0.650217 3.31395
-0.326784 1.0109 2.4549
-0.189137 0.988052 2.49717
0.0598257 0.958837 2.63715
1.66884 0.680142 3.23353
1.50989 0.708365 3.17671
-0.682606 1.05328 2.24089
1.68192 0.675297 3.21811
-0.274765 1.00833 2.44484
0.00909198 0.968696 2.57938
-0.731271 0.955088 2.53957
1.04737 0.976445 2.44379
-1.22612 0.98174 2.41385
-0.43295 1.02743 2.35553
1.86482 0.486045 3.96218
1.10384 0.815306 2.97313
0.474489 0.127853 5.03048
1.66866 0.692482 3.1801
1.72213 0.682556 3.18018
-0.230305 1.0249 2.42936
-0.238815 1.02402 2.40051
1.26226 0.756422 3.03224
1.16778 0.535523 3.83185
-0.585787 1.06337 2.20107
1.42266 0.697131 3.16344
-0.386876 1.04408 2.31299
-1.16756 0.981745 2.43513
-0.222853 1.03173 2.38777
1.21436 0.801099 2.96454
-0.555421 1.07763 2.215
-0.255208 1.04444 2.32268
-0.330415 1.05679 2.24731
1.51917 0.760426 2.98045
1.47157 0.609406 3.43264
-0.0531166 1.04092 2.40266
-1.40455 0.613743 3.37416
1.48448 0.782564 2.93193
-0.806459 1.07794 2.21219
1.17138 0.846735 2.84064
-0.0459559 1.04114 2.35068
-0.567767 0.836136 2.9225
1.04731 0.869765 2.78095
1.42064 0.792527 2.87742
1.22467 0.846958 2.84764
1.20291 0.846648 2.8079
-1.62144 0.33643 4.18534
0.378663 0.490356 2.22872
-0.675568 1.03156 2.2975
1.53273 0.804244 2.85423
1.45103 0.506043 3.78258
1.05063 0.423879 2.94208
1.26929 0.663335 3.40731
1.25136 0.861329 2.76523
1.36274 0.837154 2.7865
1.56148 0.807729 2.8316
0.865917 0.937645 2.59078
1.2417 0.624036 3.51358
1.09271 0.901757 2.67272
0.797956 0.956793 2.55922
1.16229 0.899204 2.65405
1.58031 0.829297 2.78678
-0.897815 0.883338 2.74909
1.59222 0.824746 2.77292
1.36034 0.795363 2.89832
1.46037 0.861548 2.72186
0.645755 0.396485 2.48972
1.57703 0.843677 2.72497
1.2429 0.599386 3.57555
1.17203 0.661754 3.41718
1.37128 0.716836 3.12904
-0.277057 -0.472615 3.49275
-1.1174 0.954629 2.49296
1.32218 0.664913 3.33291
1.42036 0.710631 3.09217
-1.65906 0.4037 4.06214
-1.43921 0.554525 3.56579
0.821034 0.28343 4.92521
1.01473 0.138973 2.79354
-1.25728 0.688784 3.27293
0.763421 0.197845 5.21906
-1.28157 0.734249 3.07633
-0.972583 0.705533 3.24291
-0.787603 0.72 3.26151
0.281857 0.237385 5.17411
-0.982246 0.751123 3.09359
0.156733 1.00822 2.47983
1.26106 0.744537 3.07128
1.52638 0.466043 4.10582
1.04007 0.633693 3.59107
0.722254 0.413709 2.52423
-0.445401 0.809041 3.03842
-1.23401 0.694457 3.21061
1.32441 0.778171 2.94275
1.82508 0.461008 3.98802
-0.698771 -0.335906 3.16453
1.55486 0.510832 3.87128
1.15224 0.753955 3.10812
0.949711 0.466972 2.81382
1.57159 0.511365 3.83698
1.67665 0.534182 3.79094
-0.227203 0.850485 2.89513
0.514144 0.565803 2.3178
1.60086 0.581571 3.56801
-0.429225 0.830128 2.96213
-0.50716 -0.316301 3.11842
1.79277 0.558347 3.58353
1.78216 0.573337 3.62167
-1.65195 0.50427 3.61587
1.41065 0.642496 3.47276
-0.240321 0.919068 2.70578
0.210946 0.145869 2.24744
0.474468 0.999277 2.49348
-0.255058 0.922357 2.68095
1.34552 0.67025 3.39087
1.67753 0.619954 3.48923
1.38269 0.679268 3.3468
-0.0923666 0.932373 2.6831
-1.69171 0.63363 3.26026
1.57778 0.668882 3.33052
-0.691515 1.03098 2.28086
0.73028 0.12752 2.41967
0.94124 0.817428 2.97649
-0.405815 1.0412 2.3392
0.0380844 0.984002 2.54791
1.67806 0.712062 3.14144
1.29462 0.540886 3.75815
-0.393665 1.04669 2.28057
-0.986262 0.964638 2.57234
-1.07691 0.978974 2.46325
1.07547 0.849886 2.86975
1.1147 0.541926 3.81916
1.40215 0.781302 2.95036
1.61213 0.764015 3.0139
-0.0816377 1.04608 2.35194
1.26758 0.782837 3.01677
0.982349 0.880867 2.77485
1.01599 0.87631 2.78672
1.12056 0.866117 2.7933
1.26647 0.838543 2.80434
0.698685 0.946978 2.61148
1.15828 0.872921 2.76937
1.29342 0.878039 2.65795
0.415299 0.759725 2.30409
1.40602 0.711407 3.14158
0.919134 0.919879 2.69833
1.30355 0.848193 2.78017
1.12714 0.895612 2.73107
0.981752 0.926875 2.60966
-0.760388 0.925953 2.6268
1.3708 0.563682 3.64839
-1.51556 0.753671 2.93702
-0.942598 0.671637 3.42753
-1.36507 0.735405 3.02005
1.47688 0.854163 2.73394
1.5851 0.840529 2.76114
1.22979 0.682653 3.31189
-1.17276 0.800743 2.88812
1.48485 0.707515 3.08824
-1.03147 0.914516 2.6016
0.608318 0.457449 4.42461
-0.636034 -0.14597 2.85673
1.17677 0.94417 2.49612
-0.425281 0.160995 2.87684
0.33539 0.185785 2.14228
0.94297 0.35314 4.65661
-1.24374 0.656266 3.35686
-1.44664 0.719809 3.0435
-0.951721 0.682136 3.40055
0.860875 0.362013 2.67454
0.770117 0.387199 2.58043
-0.522559 0.804341 3.15376
1.65943 0.687737 3.23865
-0.114076 1.24656 1.61081
-0.533887 0.962524 2.54007
0.75373 0.396787 2.55026
-0.469166 0.569817 5.47429
0.510321 0.414895 2.25479
1.06216 0.431254 2.99447
-0.459606 0.863997 2.82064
-0.423306 0.871692 2.80044
-1.05256 1.03495 2.3026
1.63992 0.648334 3.38991
-0.301106 0.995986 2.46943
1.25179 0.876516 2.73636
1.02273 0.989984 2.41357
-0.371667 0.961521 2.57518
1.2761 0.773167 3.03002
1.46557 0.83735 2.75524
-0.551307 1.02013 2.37085
1.44636 0.833451 2.78154
-0.0915045 1.01337 2.441
-0.316462 1.05751 2.2765
1.04149 0.849797 2.83202
1.6744 0.777646 2.89528
-1.65833 0.540165 3.501
0.41285 1.10514 2.23141
1.42377 0.859151 2.71033
1.14096 1.00487 2.37655
1.0316 0.93574 2.58348
1.3138 0.892588 2.66031
-0.472324 0.938289 2.6158
-1.22542 0.630439 3.34181
0.825993 0.444362 4.20514
-1.18599 0.646166 3.36071
0.783781 0.424774 4.34519
-1.0836 0.660122 3.36756
0.456017 0.0628051 2.26453
-1.58953 0.675569 6.75756
-1.68875 0.532395 3.59663
1.52208 0.755123 2.93216
1.53654 0.762807 2.92033
-0.645609 -0.242337 3.00666
-0.73343 0.730252 3.21396
0.230178 0.395747 2.37724
0.841469 0.305862 2.64977
0.654772 0.51899 2.49005
-0.587962 0.793685 3.05993
0.432045 0.520456 2.20591
-1.24431 0.896007 2.61181
-1.29466 0.976897 2.44457
1.73633 0.583408 3.52872
-0.657896 0.830563 2.93041
-0.828705 1.07882 2.17324
1.78799 0.432928 4.14653
0.96793 0.749248 3.47707
1.79171 0.61061 3.5226
0.853542 1.09994 2.17155
0.693727 0.564622 4.03434
-0.507488 1.00418 2.41705
-0.749743 1.00435 2.39148
-1.70848 0.739164 2.97348
1.85987 0.451711 4.06407
0.722639 0.531897 2.56325
0.329987 0.329806 5.10097
1.06071 0.203887 5.11505
1.38271 0.66009 3.37273
1.46853 0.657226 3.42972
1.62 0.515654 3.85331
1.18766 0.731638 3.21578
-0.166968 0.966661 2.586
-0.158223 1.1789 2.03747
0.684795 0.417814 2.49459
-1.08721 1.0146 2.33475
1.23322 0.752365 3.25874
1.06219 0.339515 3.00516
0.803261 0.690892 3.68997
0.906387 0.909975 2.65977
1.17277 0.659948 3.4841
0.125192 0.65393 4.49891
-0.785799 0.940075 2.57381
1.57657 0.561042 3.57311
-2.14273 0.262338 4.36796
1.04579 0.834498 2.89231
1.37511 0.920571 2.60373
-0.831499 0.944104 2.59755
1.50836 0.582545 3.46888
1.50176 0.629504 3.34351
0.946272 1.02061 2.27457
1.08424 0.612058 3.60982
1.26711 0.687242 3.26896
1.17543 0.852484 2.81497
1.4165 0.88212 2.69254
0.861025 0.886483 2.80277
1.19895 0.778556 3.00181
0.787898 1.09368 2.16318
1.63701 0.654957 3.33345
1.15531 0.658075 3.39513
1.79591 0.639209 3.47527
0.721508 1.04777 2.3106
1.12818 0.834425 2.87394
1.49098 0.74639 3.08509
0.544961 1.13901 2.22971
1.16832 0.837803 2.88743
0.882306 0.155323 5.43826
-1.46379 0.433845 3.82836
-0.929391 1.03049 2.32036
1.2031 1.00474 2.32058
1.39027 0.621774 3.58024
0.877596 0.38333 4.35496
1.18614 0.518304 3.887
1.45651 0.839088 2.70967
0.662393 0.226016 4.78309
-0.393883 1.19034 1.94566
1.25082 0.887524 2.64532
1.14997 0.51957 3.85022
0.0341089 1.20765 1.82734
-0.836134 1.0555 2.16006
0.813962 0.903409 2.72526
-0.958853 1.02469 2.30636
-0.461544 0.927619 2.66976
0.133108 1.28337 1.5617
0.823268 1.10371 1.93017
1.63976 0.637646 3.2588
-1.58083 0.804088 3.16084
1.17945 0.827062 2.88862
0.7191 0.919665 2.68635
1.24861 0.832361 2.84243
1.45423 0.643404 3.36243
0.349728 0.677247 4.1593
0.8462 1.03033 2.39321
-1.10618 0.79746 3.41251
-0.927428 0.743813 3.07366
-1.36816 0.799727 2.75133
0.729111 0.441589 2.53812
1.35426 0.802617 2.86953
1.35146 0.734956 3.07465
0.324267 1.14756 2.01943
1.05731 0.211617 5.18383
1.00151 0.203977 2.84862
-0.712845 1.14868 1.94923
-0.480027 -0.409884 3.34801
-0.688395 0.934463 2.80422
1.79937 0.479263 3.78132
0.30647 1.18833 1.8747
-1.11176 0.990996 2.38288
1.25648 0.816815 2.85707
-0.344857 1.02677 2.35952
0.898244 1.01496 2.39563
0.798617 0.314642 2.62413
1.12625 0.50304 3.93612
1.45867 0.683132 3.20161
1.69373 0.431785 3.93119
1.46005 0.412717 4.15611
1.66975 0.459812 4.11512
-0.348983 1.04732 2.19828
1.1271 0.642117 3.53799
1.54056 0.895418 2.64401
-0.00964725 1.24529 1.63732
-1.4681 0.605748 3.39381
0.834581 0.668705 3.82868
0.871429 0.561414 3.97394
1.18657 0.366752 4.42999
0.893469 -0.0676645 2.59379
-0.218485 1.02918 2.37788
-0.0470309 0.940112 2.64958
0.830024 0.922576 2.70444
-1.50092 0.549479 3.5748
1.20917 0.657756 3.47941
-0.857268 0.865868 3.14008
0.750929 1.09618 2.14819
1.66008 0.682217 3.29408
1.29475 0.913286 2.51374
0.766232 1.06037 2.25877
-0.407351 0.930247 2.64666
1.53375 0.64908 3.26991
-0.342396 0.959665 2.57058
1.10669 0.586095 3.68856
-1.51401 0.954824 2.46889
0.999684 0.839089 2.86392
-0.086636 1.08159 2.21861
0.657766 1.20552 1.85677
-0.927998 0.94025 2.52967
0.212222 0.0272556 2.44847
1.07365 0.805076 2.95738
-0.991018 0.84777 3.18288
1.16269 0.691785 3.31646
1.13747 0.501224 3.86548
1.03105 0.609158 3.63897
1.45084 0.725555 2.96663
1.19322 0.569656 3.65457
-0.175203 1.22713 1.73232
1.5326 0.677873 3.26281
1.24452 0.736383 3.18165
0.169571 1.22983 1.77044
0.0252204 1.19511 1.81862
0.256124 0.678301 4.59789
-1.06548 0.987037 2.43727
1.0187 0.832775 2.91699
1.29552 0.806864 2.90594
0.635995 0.129464 5.58082
0.426455 0.0257179 2.39742
0.357135 -0.170579 2.77013
1.49119 0.709597 3.11068
1.26199 0.262388 4.78565
0.736385 0.56458 4.03785
0.387358 0.0633991 2.33345
1.12546 0.897059 2.75086
1.16715 0.765782 3.07875
-2.1613 0.637229 3.98514
0.367212 1.0522 2.29371
1.20333 0.738168 3.14182
1.278 0.525934 3.72005
-0.795994 1.06491 2.08687
1.55138 0.62923 3.31447
1.33983 0.896607 2.62651
0.122799 1.19488 1.89884
1.00137 0.888792 2.74743
1.40459 0.796849 2.83142
1.11463 0.708217 3.46978
-0.702784 -0.327068 3.16084
-1.32202 0.636821 3.37356
-2.72755 0.676833 3.72674
1.42881 0.575861 3.54032
1.56387 0.678299 3.1528
1.09183 0.803102 2.93062
0.333445 1.02989 2.43295
1.40453 0.712229 3.1258
0.668374 1.07793 2.24529
1.12199 0.475797 3.93535
0.166853 0.0385617 2.44077
0.969161 0.872115 2.78886
1.39726 0.337654 4.33574
0.847034 0.434514 4.39101
1.26315 0.665656 3.33878
-0.687267 -0.322342 3.36122
1.37692 0.589915 3.55221
0.700769 0.483872 4.3414
1.03971 0.795758 3.05007
1.39903 0.86242 2.72814
0.431095 0.804361 2.32677
1.49156 0.68871 3.14356
0.313038 0.728739 4.25421
1.44177 0.506494 3.75985
-0.970018 0.889691 3.00621
1.78429 0.581192 3.58153
1.02341 0.13961 5.20853
0.412195 0.0363427 2.37981
1.64053 0.642157 3.3548
1.13656 0.666371 3.44153
1.24557 0.644742 3.42526
0.408737 0.144655 5.22204
1.27237 0.921927 2.6128
1.71766 0.76141 2.87649
1.25383 0.770005 3.01145
-0.521656 1.16937 2.00277
1.29415 0.748258 3.03272
0.942213 0.57965 3.81703
-0.999445 0.774895 3.19534
1.45869 0.828379 2.77015
1.45414 0.747191 3.01516
1.32066 0.268699 4.71296
1.28121 0.691796 3.2863
1.00282 0.632019 3.63854
1.38137 0.576149 3.69795
-0.0933799 1.12724 1.98168
0.934505 0.600848 3.79085
0.212335 1.08332 2.28092
1.55655 0.430569 4.28017
0.360507 1.05289 2.38932
1.33603 0.516325 3.7976
0.698657 0.210604 4.74065
-1.20617 0.858135 2.74218
1.06052 0.904662 2.65324
1.05638 0.968055 2.52974
1.21824 0.765399 3.04029
-0.0972004 1.25299 1.61718
1.37613 0.378178 4.28644
-1.15077 0.801285 2.8559
-0.205972 1.1252 1.95015
1.13373 0.637942 3.50582
1.20727 0.75709 3.08292
0.219348 1.0889 2.29848
1.68487 0.696654 3.02507
-0.186611 1.08624 2.08045
0.529615 1.00609 2.51299
1.23376 0.769225 3.0916
-0.11067 1.01617 2.48028
1.34212 0.56507 3.60162
1.43902 0.651078 3.31091
1.6487 0.707371 3.0211
0.337669 1.12243 2.09651
-0.902375 0.90966 5.87434
-0.279804 1.12711 1.94119
1.35414 0.692167 3.21899
0.970043 0.707749 3.41506
0.797238 0.938774 2.66461
-0.420879 1.01262 2.40732
-0.0716583 0.477096 4.81797
1.38832 0.786979 2.83838
1.28319 0.638293 3.41888
1.3273 0.798155 2.92234
-0.153605 1.21499 1.75255
-1.29055 0.976424 2.41082
-0.685028 0.829404 2.94572
1.09276 0.653613 3.53057
0.811804 0.414566 2.6348
0.785044 1.19347 1.88879
1.75276 0.700172 2.98517
1.12586 1.02706 2.2943
1.18619 0.822631 2.9106
-1.52735 0.655737 3.2314
0.962436 0.875929 2.79301
1.02485 0.84949 2.85624
-0.159792 1.09348 2.12661
-0.0221981 1.06661 2.22626
1.21829 0.42647 4.19174
1.15951 0.808951 2.93982
0.666888 0.918474 2.71473
1.22819 0.827316 2.9008
1.23637 0.515967 3.8519
1.37465 0.747732 3.04921
1.0558 0.696182 3.53876
0.491982 1.22967 1.76702
-1.69935 0.576002 3.38492
-0.19973 1.1163 1.97259
0.900495 0.569711 3.86475
1.0571 0.794674 3.04553
0.90392 0.876689 2.79735
1.47906 0.70253 3.09588
0.896294 0.580189 3.81994
0.743926 0.917426 2.70154
1.32273 0.683324 3.25824
1.64879 0.710516 3.16204
1.6141 0.7368 3.08657
1.23039 0.762152 3.04524
0.368983 0.0715199 5.44237
1.40392 0.60059 3.48231
1.27247 0.805489 2.86664
0.864999 0.897648 2.74022
1.13552 0.895521 2.73338
0.964772 0.831627 2.93157
0.664967 1.16623 2.09124
0.87372 0.295563 4.92457
1.24938 0.884663 2.70299
0.268798 0.0339478 5.59921
1.20768 0.725335 3.16688
-0.159573 1.03364 2.39932
0.542196 0.539564 4.12124
1.01411 0.623389 3.73981
0.468683 1.0307 2.49615
1.18282 0.727357 3.18709
0.0593715 0.990297 2.59744
-0.0210979 1.00244 2.52951
1.45117 0.570146 3.53422
0.753968 0.244628 5.21071
0.762007 0.607556 4.02834
0.279621 0.895293 4.29237
-0.11932 0.954174 2.72656
0.311701 0.520705 4.42036
1.29451 0.764261 3.00676
1.18271 0.710175 3.34859
0.727341 0.52705 4.27671
1.35074 0.733495 3.0779
1.03335 0.890793 2.75233
0.88856 1.0632 2.23224
-0.591076 0.743104 3.19503
1.34901 0.697699 3.21351
0.859569 1.03849 2.27667
0.937246 1.03159 2.33708
1.16056 0.774364 3.03013
1.19977 0.720327 3.20333
0.121015 1.21709 1.81156
1.45469 0.753718 3.01114
0.765792 0.462077 4.38983
0.845192 1.00708 2.40075
-0.670529 -0.184098 2.90428
1.09711 0.779849 3.101
0.690516 1.09858 2.02103
1.61408 0.79305 2.92087
0.896141 0.938861 2.58639
-1.05674 1.01539 2.34808
1.4047 0.631911 3.38644
1.0416 0.310935 2.88774
-0.821134 0.896822 2.71626
0.916892 0.925921 2.69734
0.951733 0.922727 2.70695
1.03815 0.651178 3.50738
1.41785 0.697835 3.26778
1.27307 0.436015 4.03755
-0.296172 0.960046 2.57456
1.05883 0.788325 3.10818
-0.685875 0.0740853 3.02517
-0.920525 1.10431 2.16049
1.22336 0.625384 3.53201
1.44699 0.399334 4.10564
0.826742 0.483691 4.09545
-1.12382 0.80199 2.8955
-0.219571 1.20692 1.73291
0.703673 0.970663 2.53161
0.0828157 1.08116 2.21388
1.10575 0.832296 3.2141
1.30236 0.609617 3.52338
1.23689 0.587725 3.65963
1.09182 0.889237 2.74128
1.10636 0.698138 3.37086
-1.31595 0.65214 3.35604
1.32661 0.575474 3.58364
0.971931 0.819269 3.02668
-1.38373 0.902637 2.57826
1.59668 0.751573 3.03825
0.584351 1.13177 2.05461
-1.28885 0.760888 2.99366
-0.0213858 1.0839 2.23302
1.3065 0.511329 3.89509
0.558798 1.12375 2.19242
1.25997 0.799011 2.94425
-0.877105 1.05348 2.18307
-0.0411235 1.23039 1.76236
1.16823 0.354937 4.59428
1.59659 0.659738 3.1677
0.712964 0.933884 2.72783
-0.294089 1.1275 1.9447
1.00847 1.0061 2.43081
0.461317 1.14638 2.06561
1.22792 0.276402 4.83134
0.44656 0.982001 2.42219
1.47193 0.173437 4.65904
0.265432 1.21244 1.78804
1.34091 0.8301 2.77446
0.238443 1.1725 1.97286
1.21177 0.693286 3.40157
0.626795 1.10504 2.14473
0.767655 0.594894 3.92855
-0.862219 0.84479 2.8514
1.30505 0.786202 3.00243
-1.70852 0.485032 3.78243
1.55647 0.735388 3.4267
1.14654 0.148897 5.14842
-1.42321 0.693913 3.1294
1.10246 0.33305 4.36158
-0.235367 0.99816 2.47357
1.32337 0.550554 3.68788
0.888067 0.835401 2.88648
0.653363 0.174401 5.6005
1.29919 0.951507 2.51136
-0.730364 0.762918 3.12129
0.880893 0.93689 2.56997
0.539057 0.0483709 6.09404
-0.0136115 0.276554 6.03877
0.141468 1.15586 1.95242
1.14229 0.521913 3.95826
1.2625 0.352078 4.43286
0.980863 0.531618 3.99487
-1.70584 0.762666 3.37684
0.856637 0.934141 2.64317
1.22088 1.01731 2.21293
-1.85821 0.751323 3.3367
0.221898 0.0639123 5.89175
1.18182 1.03609 2.11977
1.13717 1.07074 2.01275
1.15297 1.04572 2.12447
0.213865 0.130178 5.63564
1.32834 0.911861 2.58761
1.15337 1.03739 2.13589
0.569696 0.550282 3.97108
-1.11758 0.692007 3.20921
0.828595 0.936028 2.67738
1.41367 0.802454 2.85209
0.613488 -0.108728 2.6508
1.43898 0.778309 2.91563
1.15289 0.834289 2.87671
1.45248 0.759731 2.93882
0.859096 0.268252 4.95615
1.10481 1.06115 2.06261
1.08774 0.888988 2.7868
0.667435 -0.125754 2.66453
1.4349 0.762512 2.97307
1.31128 0.861882 2.71844
1.37317 0.793967 2.8676
1.50548 0.665439 3.23161
1.3644 0.701007 3.15593
0.401725 0.527714 4.02935
-1.33243 0.618164 3.32911
1.3872 0.887268 2.65005
0.675885 0.929054 2.68222
-1.7694 0.563063 3.38253
1.19837 0.926229 2.55378
1.38532 0.762548 2.93804
0.768388 0.466033 4.35127
-0.990544 0.766101 3.06582
0.929296 0.579155 3.82447
1.46785 0.692697 3.1798
1.28069 0.647678 2.78984
1.04454 0.950066 2.46855
1.25081 0.844426 2.78493
0.347634 0.207639 2.12058
1.32175 0.805061 2.87974
0.892692 0.86824 2.83043
1.47201 0.648722 3.31005
1.59883 0.452608 3.96348
0.697659 0.0261116 6.19065
-0.0471817 0.334398 5.43239
1.09754 0.869148 2.77269
-0.255382 0.893004 2.78538
1.49593 0.797059 2.85834
1.20032 0.892647 2.6686
1.40565 0.703967 3.16923
-1.28089 0.773181 2.95235
-1.41749 0.699573 3.09903
1.30375 0.652949 3.38877
1.26686 0.824273 2.84632
1.40099 0.680719 3.2301
1.15326 0.824632 2.95007
-0.761818 1.00829 2.34813
0.271989 0.613461 4.55731
1.44171 0.630191 3.36536
0.918903 1.08357 2.04206
1.13091 0.788219 3.04307
0.875137 0.984657 2.42569
1.40277 0.657067 3.29474
1.40543 0.87989 2.67583
1.36403 0.831626 2.83647
1.31854 0.730456 3.10681
0.0269446 1.0376 2.39221
1.40442 0.636433 3.3857
1.05209 0.861583 2.80809
1.28861 0.737484 3.10343
1.13886 0.870788 2.76137
1.54944 0.742889 3.03306
1.44233 0.588349 3.48141
1.42297 0.608597 3.46079
0.628378 1.12004 1.92754
-0.633465 0.84945 2.84773
1.22387 0.83298 2.858
1.40058 0.629803 3.41997
-0.511168 0.890749 2.74474
1.41198 0.609126 3.4474
-1.11275 0.642932 3.36042
1.37039 0.627332 3.42063
0.295561 1.00979 2.46493
0.831074 0.902805 2.74498
1.27383 0.53579 3.77784
-1.37945 0.514385 3.62234
0.32186 1.00398 2.50486
1.2772 0.831328 2.8285
1.22239 0.758807 3.06749
1.18089 0.794 2.98935
-0.0190119 0.979388 2.54524
1.076 0.874516 2.78699
1.52118 0.785666 2.93484
1.44047 0.580443 3.51665
1.42768 0.502246 3.80099
1.21678 0.742279 3.1444
1.30036 0.903431 2.61407
0.864241 1.05359 2.25513
1.2409 0.696354 3.41242
1.44421 0.605233 3.45446
-1.31146 0.590228 3.43095
1.07511 1.03605 2.14278
0.765612 1.11856 1.92018
0.681991 0.984057 2.60593
-0.121063 1.0985 2.05603
1.41643 0.723207 3.08042
1.13161 1.00124 2.43105
1.30419 0.641976 3.40649
0.707186 1.06349 2.32527
0.303655 1.07588 2.26888
1.35699 0.753949 3.10188
1.70519 0.779962 2.99512
1.17572 0.751027 3.05917
1.81984 0.535443 3.76206
1.2749 0.650297 3.43246
1.2443 0.729677 3.20929
0.967865 0.923694 2.62779
-1.23749 0.728401 3.0546
1.01571 0.90447 2.73517
1.35244 0.816672 2.89692
1.32006 0.545608 3.73022
1.33083 0.875172 2.71439
1.04157 0.827276 2.92794
-1.27931 0.821984 2.81223
1.138 0.732147 3.26378
0.045529 1.17449 2.14144
1.71121 0.739033 3.07905
-0.363004 1.00732 2.40896
1.27083 0.597623 3.58748
-1.58979 0.573849 3.47605
1.42273 0.716757 3.14172
0.604656 0.150101 5.54902
1.31236 0.834708 2.76356
1.46305 0.910704 2.61114
-0.0203602 -0.0556107 6.408
0.605185 0.565376 3.89139
0.650453 1.13141 1.85211
1.3562 0.710287 3.23511
1.30466 0.55265 3.68094
0.789691 1.10127 1.98493
0.216016 0.203221 5.49752
1.24 0.777648 3.01473
1.42863 0.414769 4.06622
1.81533 0.74012 3.1272
1.44575 0.507672 3.73445
0.90123 0.898239 2.7668
1.73863 0.702421 3.18169
0.238898 0.324489 4.86973
1.13169 1.0446 2.12987
1.08772 0.712625 3.3246
1.55165 0.837526 2.81138
0.90429 0.909154 2.70481
1.27317 0.88996 2.65898
1.18576 0.613255 3.57382
1.19932 0.601866 3.63475
1.36566 0.653949 3.43075
1.14268 0.632449 3.54625
-1.3014 0.40794 4.00394
0.792992 0.501818 4.40107
-1.19746 0.632708 3.37442
-0.567857 0.372293 6.09131
1.33794 0.528686 3.76504
1.50982 0.807031 2.76583
1.02129 0.719773 3.39257
-1.29084 0.855242 2.73675
-1.25061 0.836205 2.75576
0.849756 0.559177 3.97363
0.570041 1.11419 2.10389
1.89963 0.64472 3.35647
0.421234 1.14145 2.06623
-0.282347 1.02018 2.42997
0.00414659 1.24443 1.67649
0.756255 1.09016 2.21158
-1.69182 0.274386 4.26328
1.55796 0.606985 3.5629
1.38911 0.784151 2.93864
1.2677 0.780548 2.95976
-0.0296926 0.49253 5.16518
0.342002 0.32838 2.15734
1.09302 0.568675 3.80595
1.47154 0.733378 3.05218
0.881033 0.844281 2.89829
1.31144 0.90634 2.57983
0.686282 1.10595 2.26822
0.995399 0.655641 3.58082
-0.536526 0.974439 2.49584
1.14841 0.526262 3.93497
0.918192 0.697785 3.50222
-0.725471 0.873477 2.75589
1.31931 0.756711 3.00384
1.53998 0.588397 3.61014
1.01994 0.595903 3.82877
-1.62419 0.889297 2.71649
1.04446 0.521225 3.98859
-1.58197 0.724669 2.99788
0.992532 0.879526 2.79101
-1.39683 0.532819 3.59421
1.22517 0.325299 4.44488
-1.39696 0.867891 2.63652
1.32115 0.566626 3.6607
0.88124 0.646906 3.70897
-0.00211124 1.11044 2.0559
0.839089 0.687729 3.58916
1.03264 0.497427 4.13032
0.823114 0.678002 3.75915
-0.742745 0.743976 3.30061
0.923566 0.576873 3.92965
0.173668 1.07959 2.30611
0.872303 0.531259 4.20273
1.40172 0.909271 2.65553
2.03507 0.482549 3.97258
1.3578 0.773769 3.00137
0.182588 1.16015 2.02067
1.77979 0.456544 4.06559
-0.619159 0.8736 3.07686
0.808953 0.563239 4.03068
-1.65478 0.767736 2.87521
0.558049 0.131345 5.00595
0.793632 0.344474 2.58263
0.808013 0.559671 4.07089
1.38439 0.775151 2.96065
1.17686 1.03111 2.15099
1.31101 0.536939 3.75901
2.22594 0.462338 4.02054
-0.885717 1.07112 2.22913
0.788017 0.950955 2.5626
1.56428 0.687685 3.10479
-0.666673 0.909135 2.66574
-0.123758 0.978751 2.53636
1.36575 0.537569 3.7009
-0.646938 -0.320352 3.09922
0.697028 0.573167 4.20578
1.63962 0.677573 3.12049
0.960388 0.257888 4.91054
1.7602 0.645706 3.409
0.524267 0.547189 4.33552
0.789909 0.386681 2.59931
1.33508 0.701783 3.1685
-0.421959 0.920479 2.66959
1.41107 0.768244 3.04225
0.71131 0.16635 5.42199
-0.0619859 1.02635 2.40345
-1.08115 0.761491 3.02747
1.58768 0.764081 2.94784
1.25609 0.569273 3.68941
0.967103 0.998704 2.41434
0.00313985 1.02546 2.41774
0.589693 0.29149 4.8179
1.27441 0.993595 2.41129
-1.58746 0.712619 3.0456
-0.999327 0.782856 2.9664
1.20961 0.978184 2.44796
0.532541 0.535556 4.2224
1.38687 0.801525 2.91448
1.35705 0.853172 2.7251
1.32879 0.883589 2.6727
1.7536 0.57244 3.65542
0.979385 1.03287 2.24074
1.19855 1.03831 2.12682
1.21911 0.964445 2.47539
1.14915 1.00237 2.25046
1.25158 0.704354 3.2082
0.985453 0.940911 2.58238
1.24812 0.91295 2.59652
-1.22337 0.644401 3.28227
1.39984 0.757313 2.96156
1.39812 0.437183 3.95389
1.25209 0.726797 3.12551
1.12512 0.99134 2.27345
-1.28057 0.848843 2.76063
1.2193 0.916491 2.56817
1.3994 0.751665 3.01811
2.1138 0.498229 3.92392
1.51131 0.710501 3.07403
1.19239 0.792749 3.01966
1.55623 0.673902 3.15386
-1.09097 0.846747 3.10579
1.23733 0.892014 2.63501
1.64709 0.594785 3.56943
1.48322 0.664297 3.25857
1.22714 0.932448 2.84946
1.19756 0.721302 3.22083
-1.24798 0.69 3.15737
0.94286 0.904414 2.72056
1.49008 0.93728 2.52254
-0.968531 1.05673 2.25091
0.950205 0.146021 4.58631
1.307 0.788972 2.95467
-1.68567 0.728978 3.02038
1.2674 0.607261 3.55219
1.38374 0.742031 3.03237
1.43988 0.929265 2.5767
1.37979 0.733961 3.06319
-1.31177 0.906022 2.58791
-0.127381 1.04466 2.36754
0.882698 0.168278 5.20307
1.61412 0.632108 3.45842
1.38488 0.718733 3.10524
1.34242 0.76143 2.98878
0.79676 0.988842 2.43813
1.12381 0.958821 2.47206
0.224715 0.15001 2.23726
1.15671 0.849133 2.82791
-1.0828 1.03592 2.29744
1.33923 0.753257 2.99417
1.31403 0.771254 2.95619
1.71276 0.612879 3.36348
1.53176 0.569546 3.48752
0.756384 1.05944 2.24486
1.36601 0.734298 3.06305
1.74134 0.638363 3.36102
1.21765 0.814957 2.89802
1.22822 0.801 2.93316
-1.36741 0.767626 2.92819
-0.466626 1.02975 2.36439
1.20619 0.541125 3.81511
0.974984 0.993028 2.42045
1.43428 0.596939 3.46655
-1.21248 0.623573 3.3705
-0.401642 1.02187 2.35748
1.36834 0.865125 2.74463
1.37529 0.392908 4.29232
1.13884 0.864342 2.80467
1.12996 0.699257 3.28288
-1.17484 0.608129 3.43891
1.13395 0.849907 2.86412
1.09384 0.88208 2.78364
1.43556 0.833974 2.78908
1.09853 0.864486 2.78379
-0.672502 1.15519 1.96112
1.18832 0.777149 3.03852
-0.910988 0.738796 3.14063
1.27558 0.555966 3.72213
1.07049 0.856399 2.87165
1.06744 0.803144 3.0347
-1.19444 0.962177 2.47059
1.16432 0.738437 3.23376
0.915944 0.973726 2.47781
1.11209 0.501466 4.01046
0.928116 0.931269 2.65627
-0.0155148 -0.168138 2.78836
1.39812 0.531636 3.69129
1.10661 0.798773 3.0729
1.43887 0.806602 2.89337
-0.631788 -0.332748 3.15337
0.834259 1.01335 2.37659
0.758215 1.07583 2.15713
-1.51203 0.498055 3.62535
1.3259 0.567001 3.64133
0.521507 1.0944 2.24488
1.17986 0.699474 3.29278
0.599097 1.07109 2.28697
1.42471 0.655979 3.31029
0.70693 1.09711 1.96082
-1.36963 0.506217 3.63557
1.32072 0.704449 3.16667
1.189 0.844055 2.78394
1.23244 0.634171 3.49133
-1.20379 0.749921 3.04867
-0.025009 1.06474 2.24767
1.0553 0.791936 3.06406
1.45645 0.673981 3.21981
0.475875 0.537823 4.58478
1.56211 0.663764 3.20331
0.712799 1.07107 2.15316
0.95435 0.627494 3.59397
1.50618 0.765417 2.9889
0.941685 0.871064 2.85903
0.686909 0.986584 2.62756
0.840449 0.221748 5.30018
1.26242 0.352567 4.49864
1.40975 0.69764 3.20757
1.35942 0.58492 3.57245
1.05503 1.03423 2.16407
1.54914 0.744162 3.09493
1.37138 0.45819 4.03802
1.35936 0.452672 3.98825
-1.47244 0.452506 3.77653
0.971562 0.818078 2.9933
1.19955 0.587146 3.66684
1.56453 0.862654 2.71599
0.849677 0.581565 3.77763
1.32104 0.712814 3.22006
0.609242 1.0936 2.18758
1.57279 0.730942 3.13151
1.22968 0.525734 3.86387
1.49035 0.723276 3.17131
0.792034 0.929411 2.75799
-1.9315 0.37063 3.98518
0.527974 1.14335 1.92383
1.32357 0.705589 3.27146
1.12801 0.603823 3.71273
1.63242 0.716501 3.15705
1.1804 0.550981 3.8272
1.82996 0.732285 3.12878
0.834346 1.05332 2.21956
1.10018 0.614659 3.64344
1.6199 0.584819 3.63137
0.776743 0.90683 2.77819
1.18819 0.527956 3.84787
-1.38443 0.58504 3.39175
0.800074 0.32223 4.53193
0.553427 1.0235 2.38599
0.974767 0.735967 3.4464
1.80013 0.721495 3.17867
0.519144 1.0355 2.54222
1.39453 0.592111 3.56279
1.54662 0.556932 3.7081
0.985953 0.719439 3.4825
1.5793 0.699337 3.25305
0.522197 1.11704 2.00001
1.44108 0.679118 3.35788
0.479407 1.14331 1.85764
1.4084 0.533617 3.66916
0.418837 0.167018 5.38129
1.42093 0.675303 3.36126
0.731495 0.92241 2.74826
1.68052 0.664533 3.29538
0.384348 1.14581 2.03369
0.145339 1.07029 2.27683
1.30555 0.397796 4.26727
0.944436 0.992511 2.43151
1.29334 0.383451 4.27407
1.49345 0.672678 3.36628
1.02637 0.639833 3.69708
1.65022 0.676544 3.30374
-0.73153 0.910027 2.6531
1.20167 0.836349 2.8403
0.676272 0.94466 2.69559
0.677077 0.932047 2.73032
1.17822 1.01607 2.29573
0.99675 0.643311 3.69691
0.343314 0.17876 5.50491
-0.0733468 1.15739 2.02953
0.129437 -0.0943875 2.63742
0.370272 1.19904 1.84137
-1.61366 0.600671 3.34484
1.60981 0.557781 3.54764
0.49837 0.184922 5.07401
0.951988 0.595994 3.86667
0.520134 1.13669 2.1169
0.993117 0.640511 3.72136
1.51985 0.656981 3.39042
0.921573 0.696536 3.61659
1.07427 0.550898 3.90813
1.0093 0.679083 3.39805
1.07207 0.526016 3.99508
0.659524 0.594685 3.77223
0.285031 0.374701 2.33211
1.28021 0.304729 4.52787
1.20749 0.375009 4.38137
0.393203 1.04282 2.34862
0.972211 0.57326 3.8683
0.878811 0.667139 3.73869
0.980631 0.843516 2.96083
0.610009 0.590513 3.79281
1.17279 0.386441 4.37485
0.781344 0.908306 2.77719
0.799594 0.726143 3.59653
0.847257 1.08451 2.29132
1.09831 0.880428 2.74743
-0.428806 0.890111 2.99476
0.504981 1.01767 2.43281
0.885859 0.615045 3.80183
0.917854 0.89201 2.77329
0.649055 0.695748 3.83157
0.922424 0.536676 4.11173
2.17582 0.530414 3.80257
0.748685 0.701786 3.72
2.00381 0.50793 3.89067
1.4355 0.70846 3.13763
0.117208 0.978588 2.56637
1.47973 0.593452 3.47812
1.06913 0.386041 4.44064
-0.698131 1.15855 1.88104
1.60989 0.616742 3.31392
0.882185 0.55535 4.07532
2.14346 0.501318 3.93068
2.01571 0.464077 4.02677
1.53635 0.628976 3.29502
0.931459 0.457297 4.25779
1.2506 0.153945 4.98318
1.31125 0.633025 3.45339
1.40633 0.403661 4.12772
1.2943 0.763992 3.003
1.14547 0.231459 4.86514
0.276798 0.477038 4.33619
1.19296 0.822953 2.92625
1.60462 0.6494 3.21235
2.1031 0.436116 4.13819
0.000502836 1.13856 1.99885
0.832446 0.493171 4.07333
0.921792 0.176935 2.74419
0.575973 1.09792 2.18528
1.38616 0.526897 3.789
0.1406 1.14439 2.29375
1.14744 0.541893 3.89092
0.704521 1.10635 2.23862
-1.52986 0.826592 2.75248
-1.34435 0.811457 2.83597
0.0600487 1.15883 2.22346
-1.12091 1.04021 2.28442
-1.83248 0.27137 4.54957
-0.239423 0.960455 4.72668
1.79845 0.714807 2.98494
-0.25333 1.11443 1.95514
0.37184 1.17061 1.98666
0.680669 0.51212 4.31645
0.862229 0.946253 2.59846
0.464028 0.688547 3.99683
1.0523 0.995144 2.43582
1.08703 0.98954 2.42396
0.949742 0.224049 5.0305
1.19518 0.876442 2.72899
-0.845505 0.971342 2.48451
1.06794 0.81734 2.94432
0.71706 0.355449 4.56179
1.04202 0.45448 4.27017
1.42809 0.839826 2.72813
-1.51977 0.813991 2.78009
1.33395 0.861458 2.67981
0.439373 0.609909 4.28544
0.509695 1.20335 1.99521
1.35115 0.993561 2.4102
1.55051 0.717756 3.15943
0.787394 0.945508 2.64887
0.534754 1.13119 1.9079
1.26608 0.887027 2.64229
0.31661 0.662093 4.25266
1.58118 0.724702 3.1284
0.464425 0.4811 4.78474
0.196117 0.645902 4.42862
0.650493 1.15289 2.09403
1.2029 0.901513 2.69976
0.918576 1.03854 2.26934
1.3935 0.791987 2.92188
0.0292701 1.20057 1.80999
0.159284 0.492792 5.11325
-0.000549141 0.594528 4.89283
0.0694802 0.51016 5.09947
1.08609 0.618506 3.63242
0.0678713 0.268496 5.95668
0.153211 1.31347 1.79035
0.967959 0.871764 2.82736
0.386994 0.688752 4.07602
0.163926 1.33891 1.72455
0.124634 1.329 1.76485
1.51808 0.773056 2.8802
1.44026 0.834513 2.72966
1.45586 0.881453 2.69954
1.18835 1.01115 2.21195
1.41108 0.840758 2.79155
-0.0468045 1.05055 2.27296
1.12838 1.05717 2.06125
1.33558 0.827608 2.8839
1.56684 0.672336 3.1695
1.22904 0.975957 2.33961
-0.0585225 1.40546 1.584
1.38832 0.814306 2.90509
1.12806 0.95445 2.48501
1.48052 0.710889 3.10782
1.24521 0.987184 2.27912
1.28675 0.842222 2.77686
1.65849 0.63102 3.40913
1.38811 0.652284 3.33696
1.32713 0.823705 2.81355
1.05595 1.03293 2.17952
1.22189 0.956123 2.44815
-0.873084 1.51277 1.58599
-0.504688 0.976175 2.52081
1.17649 0.515485 3.88722
1.02353 0.163011 5.42276
-0.271691 -0.538504 3.81472
1.41468 0.705457 3.15766
1.26791 0.815986 2.87177
-1.69894 0.454811 3.70758
1.64632 0.775453 2.97904
1.07364 0.900484 2.63828
0.942867 0.999158 2.38656
1.5152 0.672975 3.34669
0.837113 1.06165 2.15973
0.264097 1.18408 1.88136
0.25843 1.04208 2.38722
1.21621 0.68482 3.36653
0.817519 1.03846 2.33054
0.797414 1.05203 2.26836
1.43455 0.712205 3.22395
1.35215 0.7575 3.00682
1.12675 0.724776 3.31694
1.58832 0.641543 3.44353
1.29098 0.930064 2.56328
1.29705 0.536876 3.78669
1.3964 0.395323 4.16382
1.12541 0.676219 3.40169
1.14802 0.577008 3.71021
1.20796 0.659693 3.39866
0.910165 1.02036 2.38641
1.36298 0.820699 2.80581
1.09362 0.698383 3.41976
1.47446 0.58772 3.56038
1.53727 0.582391 3.62702
0.793545 0.961204 2.69228
2.05988 0.540801 3.69771
2.15061 0.528538 3.81427
0.598342 0.466798 4.64763
0.547752 1.21711 1.95102
1.10466 0.492204 4.06355
1.1871 0.584391 3.67073
-0.371254 1.09299 2.08471
1.3767 0.792791 2.86197
1.45648 0.528544 3.71371
0.544635 1.14193 1.9299
1.4273 0.616855 3.43354
0.194746 -0.174049 2.75582
0.585142 1.10413 2.18101
1.44024 0.693428 3.19561
0.143085 -0.181963 2.76825
0.811081 0.890548 2.90389
1.30153 0.336725 4.59458
1.13032 0.59446 3.74193
0.77679 1.11947 1.89736
1.03766 0.980773 2.44344
0.468014 1.12991 1.94772
1.34209 0.524931 3.79383
1.35944 0.860362 2.69753
1.24437 0.770027 3.04124
1.34407 0.287741 4.5923
0.286836 1.22407 1.73693
-0.805295 0.975433 2.47978
1.03222 0.529752 3.94784
1.30882 0.845008 2.83322
1.01954 0.517741 4.08347
1.35255 0.915654 2.64052
0.826872 0.611177 3.84694
-0.437175 0.917004 2.71229
1.14878 0.680798 3.36582
1.12386 0.61285 3.62004
0.260924 1.19535 1.82429
0.537595 0.700682 2.48566
0.923876 0.469443 4.23349
0.839158 0.423715 4.36101
0.794709 0.540269 4.07078
1.45213 0.809481 2.81268
0.164425 1.24554 1.65795
0.87198 0.905414 2.73904
0.504056 1.15683 1.80795
1.40789 0.572844 3.59582
0.989176 0.140101 5.33427
0.858089 0.933384 2.67528
1.16863 0.624195 3.52666
0.721224 1.13856 2.16614
1.26076 0.998898 2.45481
0.683352 1.12316 2.2054
0.457021 0.521654 4.64361
0.576608 1.13783 1.90265
1.22526 0.892496 2.72242
1.29609 0.492566 3.87891
1.11913 0.612186 3.63218
1.02838 0.312171 2.89471
-0.120735 0.950915 2.64575
0.2041 0.450559 5.24414
1.03012 0.738069 3.34121
1.21984 0.992914 2.47335
0.419212 1.0607 2.39933
-0.0378592 0.586062 4.92317
0.383121 1.05624 2.40073
0.405419 1.18376 2.00165
-0.413183 0.655004 5.08086
0.336941 1.06368 2.35118
0.132665 1.17433 1.91635
1.37143 0.682729 3.23371
1.33125 0.875023 2.68529
0.989275 0.537779 3.96537
1.01273 0.820985 3.0483
1.2905 0.904569 2.61202
1.42155 0.726295 3.06669
1.17578 0.890373 2.64575
1.1367 0.89898 2.66466
0.971346 0.82192 2.94982
1.09321 0.789633 3.00115
0.306006 1.24304 1.75131
1.22905 0.825011 2.87943
0.986399 0.646326 3.62038
0.872727 0.536763 4.12349
0.979416 0.925669 2.63022
1.17771 0.667699 3.45358
1.26285 0.779403 2.97454
0.955079 1.00328 2.39753
0.961301 0.560894 3.80774
0.346983 1.17002 1.91908
1.29157 0.289914 4.69101
1.06345 0.691624 3.40382
1.26219 0.663168 3.39119
-0.264806 1.24535 1.71814
0.994746 0.899016 2.73755
0.278874 0.259302 5.47878
0.783231 -0.0880594 6.63273
1.25262 0.652162 3.41674
0.55699 0.054428 5.92274
1.56201 0.766861 2.94781
1.13073 0.814866 2.93325
1.28011 0.711185 3.17582
1.09598 0.836561 2.96001
1.23001 0.650297 3.43578
-0.264555 0.869598 2.84602
1.38244 0.329675 4.36102
0.811637 0.590172 3.72279
1.35692 0.342809 4.33559
1.67683 0.6026 3.35051
0.769347 0.644032 3.89848
0.803899 0.639967 3.61814
1.46068 0.734787 2.9104
1.63304 0.702041 3.00902
1.21195 0.420958 4.2155
-0.926268 0.965682 2.44709
-0.565252 0.88486 3.01425
1.44501 0.710539 3.11226
-0.186697 1.027 2.38367
0.736847 0.613232 3.91583
0.166868 -0.0210483 5.79496
1.3296 0.878166 2.6785
0.567711 0.466829 4.7034
0.761739 1.10883 2.22529
-0.143963 0.0171464 6.21438
0.0962583 1.25372 1.68281
1.45179 0.544815 3.63045
0.0950964 1.22546 1.7499
0.687504 0.988552 2.51579
1.14182 0.332811 4.52975
0.982464 0.336803 2.84158
0.626445 1.13074 1.86319
1.27774 0.880591 2.70895
1.2778 0.88623 2.68392
-0.195321 0.933398 2.66888
0.610178 0.972956 2.56643
1.21729 0.363989 4.39592
0.236831 0.420944 5.25618
-0.200177 1.05786 2.23653
1.24526 0.24521 4.7299
-0.598602 1.03266 2.31911
0.907611 0.877288 2.81203
0.100901 1.12241 2.20719
-0.735869 1.06067 2.18462
0.549753 1.1274 2.07257
0.606269 0.967979 2.49751
0.997986 0.864577 2.81038
1.02791 0.225409 4.99456
0.576385 0.590277 4.02229
1.34916 0.854271 2.71381
-0.114114 1.10047 2.08792
0.879421 1.02979 2.34068
0.581524 0.433162 2.42625
0.932822 1.00399 2.41997
-0.500587 1.16795 2.08298
-0.517919 0.990688 2.53753
-0.192065 1.07791 2.18511
0.0596566 1.20929 1.81185
1.52206 0.636562 3.29719
0.541113 1.01826 2.42647
-0.146964 1.25803 1.63541
1.25343 0.812409 2.87943
1.17174 0.977049 2.42238
0.772928 1.03623 2.34218
0.38009 1.1217 2.09947
0.277349 1.0719 2.29075
0.633952 0.484286 2.50713
-0.884121 1.00053 2.36653
0.907594 1.1774 1.96694
-0.0649798 0.999253 2.49725
-0.0264052 1.23266 1.67434
1.15293 0.96859 2.40911
0.90626 0.393612 2.7689
0.844668 0.331227 2.69072
0.871267 0.636461 3.60042
-0.990619 1.08336 2.13684
1.21714 0.771889 3.00679
0.686613 0.968723 2.60403
1.22333 0.860269 2.76626
0.494585 0.00245742 2.45121
1.10073 0.667726 3.53287
1.23853 1.00795 2.4247
0.0429484 -0.201332 2.90381
1.09666 0.583249 3.71675
1.48519 0.805677 2.7889
1.09726 0.641865 3.47685
0.72599 0.888115 2.80347
-0.0649482 0.945771 2.63742
0.994831 0.793173 3.04423
0.870017 1.01427 2.38271
0.383055 1.19966 1.85596
1.04801 0.593297 3.66008
0.414314 1.15233 2.03441
1.14763 1.02295 2.39628
0.23811 1.19198 1.84183
0.491275 1.1022 2.1869
-0.101131 1.24267 1.70125
0.57585 1.17842 2.05918
-1.30414 0.728611 3.13005
-0.423834 1.01263 2.4574
1.49473 0.806144 2.83979
-0.409969 1.11811 2.01232
0.64136 0.60957 3.75049
-1.993 0.315519 4.13425
1.42945 0.738118 3.00952
0.238265 0.115512 2.2662
0.869584 0.305114 4.92509
-0.0856873 0.678112 4.68755
1.32185 0.832425 2.76292
1.31945 0.75215 3.01091
1.01072 1.01481 2.35912
1.65804 0.699757 3.03718
-0.131604 0.918776 2.70336
0.799331 1.07976 2.19991
0.211879 0.316731 2.36134
0.620491 1.13437 2.02404
1.30496 0.807581 2.86509
1.66048 0.566519 3.43833
0.785449 1.06757 2.21595
1.56679 0.636253 3.30315
1.31067 0.79241 2.90764
0.444805 1.16251 1.95578
1.46943 0.552516 3.58312
1.3597 0.717992 3.13033
0.204051 1.21244 1.78174
1.44051 0.680043 3.18161
0.166685 1.22288 1.75048
1.12649 0.857306 2.8034
1.24123 0.757876 3.03343
1.24841 0.422642 4.3453
0.801454 1.0958 2.16372
0.75006 1.13442 2.07898
-0.890603 1.0947 2.15012
0.0967716 1.22629 1.69862
1.10182 0.822222 2.96054
1.16506 0.888782 2.73514
0.923791 0.482016 2.85117
-0.86859 0.754373 3.08724
0.758045 1.04774 2.31103
1.50951 0.830173 2.74394
-0.0608614 1.25454 1.62428
0.708091 1.1063 1.99411
1.32005 0.908708 2.64771
1.05959 0.777091 3.0972
-0.0262944 1.13678 2.1048
-0.385749 1.02443 2.40814
-0.16681 1.0133 2.43002
-0.0914257 1.12767 2.01511
-1.09432 1.02495 2.29084
0.987852 0.388239 4.56639
1.27022 0.898686 2.69928
0.149811 1.02995 2.41863
1.42344 0.426726 4.14149
-0.623355 1.15295 1.926
1.0911 0.496754 4.01192
-1.13351 1.07409 2.13701
0.210295 1.13943 2.01701
