295.767 -152.899 799.159 0.38592 -0.320859 0.864936
318.656 -61.6634 815.435 0.389899 -0.318464 0.864037
356.821 -12.2842 809.081 0.404998 -0.308287 0.860776
633.149 -121.536 626.395 0.576424 -0.431429 0.693977
583.778 -281.188 603.094 0.580441 -0.199903 0.789384
578.59 -287.306 606.281 0.467908 -0.23988 0.8506
580.42 3.15747 710.395 0.334832 -0.231982 0.913275
441.154 -210.784 703.239 0.414838 -0.358397 0.836338
579.566 -7.99048 708.414 0.412298 -0.274901 0.868585
701.229 -39.6983 600.609 0.511062 -0.268947 0.816384
622.407 -13 672.477 0.769947 -0.239371 0.591509
566.074 -60.5764 697.201 0.412802 -0.234351 0.880156
351.07 -172.232 764.965 0.434378 -0.384578 0.814503
463.497 -178.137 706.141 0.393063 -0.291599 0.87205
610.701 -189.188 610.133 0.68202 -0.309698 0.662522
465.415 -218.058 690.974 0.447661 -0.241615 0.860942
491.036 -243.894 672.695 0.329326 -0.391239 0.859346
556.588 -154.828 672.82 0.381581 -0.298513 0.874806
322.101 -98.2154 802.406 0.453637 -0.279575 0.846198
590.87 -190.411 632.198 0.691914 -0.426679 0.582408
333.125 -133.834 785.822 0.297789 -0.277194 0.913502
603.628 -211.399 608.683 0.706404 -0.321639 0.630509
571.961 -149.546 667.206 0.495517 -0.354029 0.793175
412.224 -301.896 689.746 0.343766 -0.339531 0.875525
354.492 -174.216 762.204 0.434378 -0.384578 0.814503
511.197 -101.992 708.156 0.379807 -0.263705 0.886683
520.19 -217.523 668.777 0.449816 -0.272544 0.850521
295.884 -130.921 807.119 0.312278 -0.28645 0.905775
221.675 -145.512 821.861 0.301533 -0.31661 0.899353
344.283 -114.226 789.718 0.315101 -0.223986 0.922248
318.736 -68.742 813.431 0.412626 -0.291358 0.863047
610.689 -5.52076 689.922 0.560611 -0.228509 0.795926
315.323 -180.952 778.851 0.453341 -0.36729 0.812145
515.679 -149.801 693.06 0.381531 -0.255393 0.888374
226.003 -145.219 820.513 0.301533 -0.31661 0.899353
345.737 -217.617 749.862 0.436306 -0.283443 0.853989
592.306 8.40028 703.369 0.599695 -0.224801 0.768004
511.841 -210.439 675.492 0.416534 -0.255382 0.872513
562.241 -75.423 694.478 0.419008 -0.287991 0.8611
156.778 -107.532 855.36 0.293488 -0.267847 0.917673
215.068 -136.196 827.697 0.31483 -0.317315 0.894535
380.543 31.9588 808.465 0.520768 -0.240617 0.819087
606.845 13.8439 696.179 0.55864 -0.21829 0.800169
619.426 -3.33872 682.683 0.686212 -0.297175 0.663927
648.564 -137.499 601.15 0.574158 -0.295829 0.763432
232.576 -33.0348 851.301 0.31968 -0.29077 0.901808
365.62 -13.0582 804.449 0.420748 -0.286964 0.860595
475.597 -249.466 675.648 0.439421 -0.287239 0.851119
533.075 -204.056 666.079 0.395073 -0.322684 0.860112
560.042 -293.85 615.116 0.562708 -0.443127 0.697853
474.665 -173.368 703.714 0.34888 -0.299458 0.888036
674.735 -151.583 580.06 0.495305 -0.254742 0.83053
467.337 -292.502 664.686 0.465601 -0.301002 0.832234
263.224 -46.2225 839.397 0.283978 -0.252653 0.924945
297.765 -198.569 781.776 0.397022 -0.297917 0.868112
181.856 -146.1 836.551 0.318628 -0.295882 0.900516
312.91 -170.841 783.427 0.47486 -0.29216 0.830151
567.53 -281.279 616.252 0.636569 -0.369017 0.677205
508.361 21.2038 746.529 0.359745 -0.285816 0.888196
588.672 -121.712 666.659 0.489482 -0.269279 0.829395
544.353 -278.869 633.047 0.390632 -0.454916 0.800286
519.318 -172.96 684.065 0.447507 -0.285502 0.847482
472.454 -209.807 690.949 0.35984 -0.387617 0.848686
351.963 -28.9336 806.678 0.345915 -0.250997 0.90407
601.579 -24.2846 688.16 0.521179 -0.257014 0.813828
509.897 -123.846 702.452 0.38487 -0.244117 0.890102
664.147 -35.8072 627.594 0.568593 -0.339327 0.749373
213.448 -131.507 829.931 0.31483 -0.317315 0.894535
571.278 -175.953 655.354 0.511274 -0.183845 0.839523
505.923 -182.796 687.31 0.429277 -0.304679 0.850231
584.199 -38.568 695.684 0.45507 -0.256251 0.852788
514.905 27.7983 745.543 0.358775 -0.278841 0.890802
424.704 -190.4 720.479 0.352122 -0.324693 0.877829
377.149 -294.651 710.785 0.423367 -0.308548 0.851797
358.792 -151.178 767.32 0.473674 -0.298695 0.828501
562.38 -108.744 684.125 0.408924 -0.279368 0.868755
540.506 1.77296 728.333 0.365709 -0.278136 0.888199
571.559 -256.347 622.663 0.713977 -0.120049 0.689801
360.29 -158.65 764.331 0.506476 -0.272955 0.81791
567.897 -176.278 657.426 0.541705 -0.215156 0.812566
485.997 -266.947 667.467 0.410709 -0.304172 0.859533
336.12 -225.914 752.02 0.419296 -0.289603 0.860419
570.158 -83.9352 688.133 0.438267 -0.268643 0.85776
559.314 -197.861 652.87 0.472358 -0.454269 0.755326
336.23 -282.246 733.915 0.400582 -0.290353 0.869039
442.725 -204.111 707.803 0.368774 -0.417116 0.830675
317.711 -58.5691 817.002 0.389899 -0.318464 0.864037
576.084 -304.299 603.499 0.428235 -0.14958 0.891202
499.059 -68.8156 723.427 0.375041 -0.265826 0.888077
331.777 -122.408 792.413 0.283769 -0.29252 0.913185
523.871 -139.25 692.165 0.389882 -0.238803 0.889362
492.698 -212.476 682.602 0.292299 -0.316694 0.902367
291.775 -152.684 800.855 0.334672 -0.2844 0.898394
521.545 -146.664 689.806 0.379761 -0.268876 0.885148
609.832 -186.915 612.09 0.68202 -0.309698 0.662522
219.516 -37.405 855.311 0.340169 -0.27003 0.90076
553.254 -173.867 667.512 0.378393 -0.257329 0.889157
530.098 25.7119 739.636 0.376288 -0.274838 0.8848
659.822 -217.348 567.155 0.486837 -0.260465 0.833755
331.182 -5.27037 824.185 0.507066 -0.14525 0.84958
587.294 20.4485 712.123 0.515631 -0.233379 0.824414
567.521 -47.4872 699.737 0.412639 -0.234897 0.880087
607.976 -64.0349 673 0.55227 -0.256641 0.793179
610.48 -151.501 632.075 0.72381 -0.199015 0.660675
506.222 -113.905 706.841 0.380532 -0.260436 0.887338
570.298 9.96878 716.228 0.356589 -0.291573 0.887597
565.46 -147.673 671.598 0.400757 -0.277349 0.873196
638.649 -17.4442 656.942 0.530031 -0.427766 0.732177
339.235 -135.899 784.942 0.332382 -0.297467 0.895006
334.723 -262.17 740.648 0.464482 -0.24382 0.851357
536.428 -3.89399 726.375 0.351047 -0.310118 0.883512
353.411 -90.3804 790.029 0.380213 -0.215888 0.89935
372.307 -172.646 752.67 0.441386 -0.337354 0.831487
586.953 -128.656 663.451 0.494137 -0.320376 0.808201
500.131 -182.939 690.559 0.41791 -0.303729 0.856212
562.127 -280.269 623.892 0.520175 -0.469217 0.71362
473.225 -131.939 716.73 0.397671 -0.234997 0.886924
516.07 -114.315 702.039 0.380692 -0.262418 0.886685
375.074 21.8454 808.962 0.520675 -0.240182 0.819274
350.594 -211.128 749.17 0.461104 -0.314771 0.82964
488.554 -159.977 701.502 0.397459 -0.262292 0.879335
367.798 -20.096 801.25 0.458141 -0.258346 0.850508
487.846 -202.194 687.782 0.292299 -0.316694 0.902367
497.219 -103.394 713.509 0.378132 -0.261101 0.888168
550.918 -200.09 657.54 0.516658 -0.402981 0.755427
612.98 -61.5015 670.619 0.564782 -0.203362 0.799791
612.48 -12.8388 684.209 0.602232 -0.258226 0.755405
309.293 -43.334 827.173 0.369335 -0.321383 0.871955
568.802 -58.5691 696.372 0.412798 -0.23379 0.880307
509.574 -184.698 684.904 0.429879 -0.289824 0.855106
552.032 -83.3714 696.971 0.404436 -0.264843 0.87538
332.903 -202.374 761.503 0.393447 -0.299824 0.869083
657.932 -215.197 568.939 0.487667 -0.260432 0.833281
567.125 -93.3246 686.859 0.437697 -0.268584 0.85807
497.897 -238.852 671.596 0.351282 -0.392058 0.85023
312.641 -57.9236 820.377 0.369335 -0.321383 0.871955
528.963 -202.825 668.43 0.395072 -0.322682 0.860113
501.961 -138.321 702.809 0.389229 -0.257726 0.884352
321.622 -79.825 807.613 0.437286 -0.268374 0.858345
304.442 -81.9431 816.021 0.390889 -0.265945 0.881181
575.355 -196.691 645.517 0.653857 -0.489141 0.577245
549.55 -109.397 689.954 0.408924 -0.279368 0.868755
513.603 30.635 746.723 0.36099 -0.270608 0.892445
592.923 -132.568 658.25 0.494137 -0.320376 0.808201
513.126 -132.783 699.325 0.38783 -0.233748 0.891599
439.89 -200.254 710.997 0.368774 -0.417116 0.830675
220.725 -161.742 817.238 0.293782 -0.243673 0.924292
557.992 -89.9142 692.787 0.421402 -0.257973 0.869408
617.707 -162.892 615.921 0.66345 -0.254171 0.703727
613.102 0.577322 688.191 0.55864 -0.21829 0.800169
595.071 -24.7866 690.624 0.517067 -0.28764 0.806167
345.618 -159.112 771.604 0.368979 -0.309821 0.876279
358.425 -169.45 761.826 0.51439 -0.303183 0.802174
623.261 -151.825 617.158 0.669631 -0.263757 0.694281
485.212 -278.303 663.457 0.44337 -0.32552 0.83514
341.615 -291.78 728.088 0.401887 -0.29031 0.868451
529.795 -10.3822 726.053 0.357015 -0.298271 0.885198
480.884 -265.576 668.816 0.365715 -0.218355 0.904751
452.77 -194.263 708.288 0.368774 -0.417116 0.830675
543.921 -140.149 682.384 0.390156 -0.281464 0.876673
322.244 -284.244 739.392 0.427108 -0.30217 0.852216
312.971 -167.431 784.592 0.47486 -0.29216 0.830151
516.294 -212.332 672.818 0.427849 -0.243341 0.870477
535.27 -144.751 685.65 0.407404 -0.280381 0.869142
312.967 -82.8211 811.743 0.428901 -0.273709 0.860887
464.126 -166.595 710.412 0.389258 -0.283479 0.876423
549.424 -103.182 692.514 0.416932 -0.262364 0.870249
599.109 -299.549 590.345 0.571874 -0.0963835 0.81466
239.056 -230.885 791.486 0.255472 -0.243288 0.935706
543.04 1.76692 726.327 0.386006 -0.278273 0.879525
635.361 -21.3724 657.027 0.530031 -0.427766 0.732177
266.501 -160.117 807.851 0.210803 -0.269339 0.939691
373.226 4.80287 806.099 0.494257 -0.226959 0.839166
540.495 -106.889 694.879 0.360393 -0.28916 0.88685
346.517 -13.4526 815.998 0.419538 -0.294592 0.858606
356.174 -169.784 763.144 0.51439 -0.303183 0.802174
225.456 -160.954 815.195 0.313824 -0.27626 0.908402
561.553 16.7318 722.439 0.368359 -0.285995 0.884601
536.259 -141.906 686.104 0.407404 -0.280381 0.869142
519.84 -213.35 669.634 0.455223 -0.266664 0.849507
323.608 -57.8308 813.691 0.469375 -0.302349 0.829622
335.239 -162.81 773.728 0.345255 -0.303195 0.888185
608.672 -71.5602 670.08 0.55227 -0.256641 0.793179
489.82 -270.902 662.494 0.376227 -0.28933 0.880194
358.717 -122.388 778.727 0.495941 -0.298461 0.815453
543.945 -287.697 628.229 0.390632 -0.454916 0.800286
482.695 -260.35 669.38 0.346672 -0.256406 0.902261
682.401 -118.151 585.775 0.463366 -0.268913 0.84438
653.014 -127.815 601.555 0.574158 -0.295829 0.763432
244.546 -52.3436 843.46 0.283978 -0.252653 0.924945
571.529 -9.31888 711.327 0.355483 -0.240488 0.903215
650.902 -141.096 598.069 0.526488 -0.255759 0.810801
348.876 -183.981 758.614 0.397774 -0.381756 0.834289
564.226 -57.6449 698.851 0.412823 -0.234696 0.880054
499.152 -187.963 689.18 0.328657 -0.371676 0.868241
634.905 -133.89 616.485 0.616299 -0.367663 0.69642
324.149 -133.821 791.138 0.440328 -0.223846 0.869485
588.191 -51.9182 686.69 0.495889 -0.227802 0.837974
293.007 -190.02 782.942 0.325745 -0.371793 0.869287
229.184 -262.831 787.29 0.212896 -0.288605 0.933479
352.996 -204.219 751.705 0.462126 -0.317496 0.828031
531.03 -49.0822 714.853 0.355676 -0.237333 0.903973
600.714 -166.552 633.218 0.81592 -0.38905 0.427685
261.684 -116.95 821.181 0.213449 -0.306218 0.927723
539.207 -148.903 681.503 0.396189 -0.308142 0.864918
157.649 -131.117 847.091 0.285226 -0.276986 0.917565
690.607 -143.512 572.901 0.489614 -0.262121 0.831607
571.59 -252.448 623.309 0.713977 -0.120049 0.689801
374.471 -22.2905 797.703 0.493933 -0.233731 0.837496
318.695 -118.552 798.248 0.437241 -0.286185 0.852595
524.195 -129.04 694.757 0.389927 -0.23894 0.889306
590.352 -24.766 693.658 0.517067 -0.28764 0.806167
313.405 -162.897 785.94 0.47486 -0.29216 0.830151
617.638 -49.666 670.398 0.636296 -0.156367 0.755432
370.973 -0.216752 805.443 0.488012 -0.224459 0.843482
334.515 -31.267 815.823 0.561191 -0.253607 0.787876
625.577 -145.78 616.705 0.605641 -0.335947 0.721345
630.887 -118.816 629.959 0.576424 -0.431429 0.693977
363.995 -120.486 776.214 0.495941 -0.298461 0.815453
555.402 -109.419 687.192 0.408924 -0.279368 0.868755
500.028 -172.385 693.196 0.400465 -0.222154 0.888974
307.839 -190.116 776.541 0.31731 -0.371013 0.872733
291.262 -146.24 803.64 0.38592 -0.320859 0.864936
505.033 -195.821 682.709 0.43004 -0.291253 0.854539
620.267 -31.3638 667.272 0.782316 -0.266788 0.562855
344.687 -64.2145 800.674 0.417071 -0.220991 0.881598
625.391 -34.9311 653.658 0.742072 -0.279394 0.609317
329.364 -14.4462 823.701 0.507066 -0.14525 0.84958
265.863 -113.458 821.372 0.213449 -0.306218 0.927723
277.341 -162.33 802.068 0.317198 -0.279007 0.906389
218.195 -161.026 818.231 0.293782 -0.243673 0.924292
552.47 -265.824 631.585 0.437271 -0.185922 0.879902
273.929 -145.048 808.213 0.257875 -0.286855 0.922613
668.279 -20.3477 629.86 0.581769 -0.326219 0.745068
555.737 -115.224 685.168 0.408924 -0.279368 0.868755
472.79 -237.19 681.057 0.461747 -0.279983 0.841664
500.415 -99.0295 713.46 0.378198 -0.261162 0.888122
349.044 -93.5015 792.413 0.396624 -0.225893 0.889754
578.224 -114.482 674.243 0.471179 -0.262031 0.842217
618.494 -32.6392 669.131 0.782316 -0.266788 0.562855
551.246 -158.924 673.053 0.380226 -0.28305 0.880517
650.557 -222.438 571.574 0.493837 -0.262445 0.829004
560.147 -179.172 661.826 0.541705 -0.215156 0.812566
579.375 -277.227 607.375 0.610249 -0.311877 0.728237
484.324 -209.248 686.447 0.292299 -0.316694 0.902367
215.373 -274.53 786.397 0.246747 -0.272295 0.930038
575.558 -29.6612 701.707 0.425699 -0.276388 0.861621
561.417 -19.3852 711.578 0.35283 -0.259576 0.898961
463.509 -180.93 705.201 0.393063 -0.291599 0.87205
150.154 -235.176 821.838 0.335723 -0.238357 0.911304
550.509 -260.726 633.637 0.437271 -0.185922 0.879902
541.467 -187.251 668.89 0.392337 -0.266619 0.880333
308.671 -184.946 780.758 0.453341 -0.36729 0.812145
577.265 -256.073 615.049 0.756273 -0.108231 0.645242
638.791 -136.016 609.701 0.590879 -0.399079 0.701141
310.453 -161.937 787.966 0.47486 -0.29216 0.830151
476.166 -176.64 702.021 0.34888 -0.299458 0.888036
409.959 -306.709 688.962 0.398891 -0.310319 0.862895
339.34 -20.3002 815.778 0.46389 -0.207942 0.861142
315.077 -119.726 799.71 0.437241 -0.286185 0.852595
341.383 -111.184 791.448 0.315101 -0.223986 0.922248
560.866 -103.733 686.449 0.408924 -0.279368 0.868755
506.617 -142.155 699.47 0.389435 -0.258439 0.884053
538.097 -288.82 630.814 0.396843 -0.432426 0.809644
595.851 -179.804 628.405 0.815709 -0.34109 0.467201
566.387 -63.425 696.28 0.412794 -0.234174 0.880207
267.253 -146.677 809.812 0.258128 -0.286031 0.922798
497.035 -176.643 693.41 0.400378 -0.222461 0.888937
340.776 -5.02523 819.285 0.40294 -0.275703 0.872713
624.941 -147.529 620.009 0.668511 -0.218868 0.710767
619.987 -6.98985 678.058 0.769947 -0.239371 0.591509
488.433 -175.419 697.495 0.400336 -0.222768 0.888879
622.49 -130.315 627.94 0.569153 -0.395398 0.72092
338.797 -161.794 773.185 0.337905 -0.341584 0.877006
521.814 -135.523 694.094 0.3899 -0.238859 0.889339
567.164 -22.7057 708.672 0.425613 -0.313701 0.848791
602.64 -130.573 653.561 0.756233 -0.368865 0.540416
365.047 -173.934 756.002 0.441386 -0.337354 0.831487
568.563 -40.6306 701.644 0.425685 -0.276399 0.861624
597.234 32.3639 709.581 0.54152 -0.249532 0.802802
493.347 -303.871 646.662 0.440806 -0.318938 0.839029
397.786 0.485984 788.091 0.524602 -0.22553 0.820932
514.51 -210.077 674.324 0.416534 -0.255382 0.872513
573.224 -104.237 679.473 0.458628 -0.272421 0.845841
617.142 -11.7043 679.854 0.769947 -0.239371 0.591509
346.053 -16.4422 815.22 0.419493 -0.294519 0.858653
311.785 -154.346 791.431 0.459598 -0.357281 0.813093
463.495 -193.728 701.53 0.396607 -0.325285 0.858424
522.353 -1.75222 732.603 0.389189 -0.297145 0.871916
350.995 -45.094 803.439 0.388652 -0.204826 0.898329
512.956 -141.28 697.483 0.381932 -0.255599 0.888142
526.507 -30.378 723.007 0.351451 -0.215888 0.910975
348.862 -87.0319 794.137 0.396624 -0.225893 0.889754
314.765 -185.988 776.885 0.453341 -0.36729 0.812145
278.697 -110.422 819.327 0.354814 -0.294553 0.887325
469.284 -235.993 682.837 0.435938 -0.292306 0.851184
670.088 -151.132 583.018 0.495173 -0.255334 0.830426
563.163 28.6749 725.339 0.3707 -0.287361 0.883179
355.597 -203.939 748.941 0.444657 -0.295493 0.845555
504.033 -226.783 674.513 0.366869 -0.261637 0.892722
309.805 -181.897 781.504 0.453341 -0.36729 0.812145
568.862 -20.2608 708.724 0.425613 -0.313701 0.848791
307.781 -167.842 787.416 0.47486 -0.29216 0.830151
502.464 -223.944 675.99 0.366869 -0.261637 0.892722
486.152 -193.451 691.752 0.328657 -0.371676 0.868241
365.784 -0.0618213 808.941 0.494989 -0.236121 0.836202
440.68 -298.876 677.521 0.458621 -0.306455 0.834118
588.832 -288.873 599.279 0.524973 -0.130399 0.84107
622.849 -37.203 663.484 0.825086 -0.114901 0.553201
331.926 -9.50317 822.379 0.46389 -0.207942 0.861142
571.74 -299.946 607.087 0.44289 -0.157812 0.882578
338.424 -1.75933 821.402 0.40294 -0.275703 0.872713
536.247 -159.555 679.848 0.435775 -0.293041 0.851016
580.641 -251.545 614.098 0.713977 -0.120049 0.689801
351.206 -103.24 787.875 0.380213 -0.215888 0.89935
571.828 -191.947 649.882 0.575669 -0.442899 0.687347
352.963 -41.4532 803.417 0.388652 -0.204826 0.898329
309.747 -173.27 785.706 0.405865 -0.348903 0.844713
617.82 -170.305 613.136 0.66345 -0.254171 0.703727
369.071 -168.951 755.888 0.441386 -0.337354 0.831487
469.776 -231.066 683.092 0.446143 -0.241826 0.861671
647.967 -141.271 600.137 0.574158 -0.295829 0.763432
636.187 -12.9667 662.942 0.549022 -0.405632 0.730779
570.778 -259.366 619.571 0.720414 -0.103362 0.685799
331.136 3.34354 828.365 0.388786 -0.249114 0.88701
696.321 -67.8165 593.403 0.489163 -0.269076 0.829649
331.303 -119.932 793.354 0.283769 -0.29252 0.913185
588.714 -14.8569 700.249 0.534479 -0.318428 0.782902
501.32 -42.0893 730.855 0.388454 -0.243333 0.888759
555.3 -201.687 653.691 0.516658 -0.402981 0.755427
486.345 -80.2687 725.431 0.374876 -0.266222 0.888028
602.174 -13.2923 690.068 0.543947 -0.248186 0.801577
344.28 -75.2758 798.095 0.417071 -0.220991 0.881598
299.468 -112.697 809.281 0.437171 -0.256955 0.861891
516.298 -13.8106 731.367 0.399295 -0.29578 0.8678
570.444 -31.5879 703.385 0.420196 -0.280518 0.862986
566.074 -54.3635 698.741 0.412829 -0.234441 0.880119
332.444 -53.682 811.694 0.508337 -0.298049 0.807936
588.186 -21.6603 697.842 0.534479 -0.318428 0.782902
608.295 3.29206 692.288 0.55864 -0.21829 0.800169
611.932 -153.79 629.55 0.722759 -0.18016 0.667205
338.932 -15.9772 818.839 0.419532 -0.294584 0.858611
508.937 -191.827 682.224 0.430034 -0.291016 0.854623
621.917 3.39528 683.123 0.686212 -0.297175 0.663927
338.537 -164.584 772.198 0.337905 -0.341584 0.877006
349.388 -208.175 751.139 0.461251 -0.315164 0.829409
228.84 -259.494 788.4 0.212896 -0.288605 0.933479
494.456 -215.644 680.921 0.292299 -0.316694 0.902367
569.35 -98.5172 684.21 0.437164 -0.268527 0.858359
556.191 -118.936 683.761 0.408924 -0.279368 0.868755
230.947 -257.317 788.268 0.211821 -0.187433 0.959167
321.263 -90.1983 804.907 0.432606 -0.264133 0.862024
651.704 -117.457 609.283 0.637838 -0.317652 0.701612
706.201 -71.4222 587.961 0.481301 -0.268266 0.834495
334.14 -269.365 738.76 0.439668 -0.293688 0.848787
252.544 -193.365 797.925 0.243284 -0.332253 0.911274
486.794 -301.255 652.22 0.449406 -0.324095 0.832464
347.746 -71.7115 797.909 0.386557 -0.211005 0.897803
359.733 -21.6447 805.123 0.458141 -0.258346 0.850508
555.725 -162.424 669.488 0.449847 -0.29943 0.841415
623.68 -8.01797 672.836 0.769947 -0.239371 0.591509
606.924 -170.462 623.029 0.583233 -0.321938 0.745785
545.315 -105.229 693.725 0.393525 -0.275718 0.876993
556.346 -103.417 688.678 0.408924 -0.279368 0.868755
565.774 -286.19 613.954 0.605968 -0.415812 0.678161
660.295 -32.3132 632.188 0.528237 -0.388216 0.755152
553.926 -120.27 684.368 0.387954 -0.273897 0.880041
496.338 -308.55 643.881 0.446563 -0.296581 0.844169
350.479 -178.557 762.294 0.434378 -0.384578 0.814503
331.093 -146.291 784.949 0.400647 -0.289014 0.869456
484.081 -298.059 654.875 0.449561 -0.324213 0.832335
224.846 -260.915 787.319 0.213964 -0.273125 0.937882
593.722 -121.7 663.685 0.489496 -0.269359 0.829361
484.376 -204.412 688.128 0.292299 -0.316694 0.902367
600.945 -204.179 614.314 0.604173 -0.285508 0.743949
331.303 0.500823 827.486 0.388786 -0.249114 0.88701
369.42 -299.169 712.753 0.413411 -0.274471 0.868192
474.064 -231.47 681.985 0.347162 -0.28326 0.894003
592.803 15.3795 707.125 0.576593 -0.2429 0.780089
326.381 -106.723 797.25 0.4533 -0.279347 0.846454
489.096 -206.414 685.896 0.292299 -0.316694 0.902367
593.419 4.65993 704.903 0.595454 -0.240924 0.766414
569.182 -249.138 622.789 0.720414 -0.103362 0.685799
377.438 29.3797 809.681 0.52076 -0.24058 0.819103
617.149 -55.8055 669.122 0.564782 -0.203362 0.799791
502.329 -180.203 690.617 0.429544 -0.288631 0.855678
463.836 -191.173 702.341 0.396607 -0.325285 0.858424
614.85 -142.127 630.111 0.72381 -0.199015 0.660675
553.488 25.4104 728.699 0.399863 -0.287735 0.87024
254.125 -96.6431 827.665 0.240761 -0.201835 0.949367
279.826 -142.545 807.886 0.298458 -0.294127 0.907971
529.034 -167.014 680.936 0.447296 -0.285652 0.847543
574.832 -239.774 619.286 0.713908 -0.309723 0.628018
663.837 -31.5253 629.768 0.568593 -0.339327 0.749373
339.65 -283.738 731.75 0.401357 -0.290322 0.868692
558.656 -172.819 666.565 0.485497 -0.221123 0.845812
341.664 -66.7087 801.576 0.503298 -0.286187 0.815345
247.72 -201.639 797.86 0.313923 -0.285673 0.905452
290.179 -120.776 813.608 0.387106 -0.225326 0.894079
489.522 -237.522 675.71 0.295091 -0.34182 0.892233
368.366 6.19116 808.758 0.508249 -0.216827 0.833468
570.093 -240.471 624.33 0.713908 -0.309723 0.628018
576.745 -120.248 673.273 0.471128 -0.261982 0.842261
331.439 -72.1514 805.304 0.477294 -0.256561 0.840457
364.771 -161.883 760.477 0.506476 -0.272955 0.81791
517.645 -216.771 670.491 0.440059 -0.242882 0.864498
549.33 -139.42 680.815 0.382498 -0.284527 0.879056
501.035 -34.5407 732.636 0.399433 -0.239511 0.884923
284.794 -168.72 797.924 0.347301 -0.308287 0.88563
324.15 -87.7889 804.197 0.432598 -0.264115 0.862034
603.834 -140.073 644.84 0.841565 -0.214604 0.495695
604.071 -168.803 625.977 0.583233 -0.321938 0.745785
542.718 -161.587 675.961 0.370203 -0.284976 0.88416
394.995 -187.293 735.414 0.425811 -0.307989 0.850781
265.141 -108.652 823.124 0.213449 -0.306218 0.927723
552.486 -204.659 654.03 0.516658 -0.402981 0.755427
240.127 -255.17 787.365 0.244061 -0.142857 0.95918
369.195 2.16528 807.11 0.488004 -0.224574 0.843456
293.978 -106.574 814.033 0.4029 -0.249315 0.880633
336.432 -61.0375 806.796 0.503298 -0.286187 0.815345
325.76 -135.633 789.855 0.440328 -0.223846 0.869485
625.597 -149.747 615.694 0.669631 -0.263757 0.694281
471.889 -142.117 714.539 0.400005 -0.236277 0.885533
619.65 -10.4153 677.111 0.769947 -0.239371 0.591509
228.137 -127.123 826.316 0.31483 -0.317315 0.894535
373.567 -295.821 712.095 0.423427 -0.308453 0.851802
521.679 -31.9328 723.704 0.378272 -0.203344 0.903084
349.065 -221.185 746.978 0.436306 -0.283443 0.853989
533.896 -14.2361 723.751 0.351047 -0.310118 0.883512
544.497 -169.896 672.688 0.387256 -0.278532 0.878893
293.515 -149.57 801.4 0.38592 -0.320859 0.864936
699.385 -38.5215 602.251 0.515618 -0.276083 0.81112
351.812 -174.376 763.557 0.434378 -0.384578 0.814503
553.032 -156.143 673.899 0.381429 -0.298708 0.874806
323.055 -92.9594 803.162 0.432602 -0.264125 0.862029
335.203 -129.489 789.08 0.283769 -0.29252 0.913185
567.365 -153.393 666.972 0.487405 -0.334648 0.806503
353.765 -179.848 760.378 0.449677 -0.350468 0.821561
522.262 -214.821 668.547 0.449816 -0.272544 0.850521
222.078 -139.872 823.712 0.301533 -0.31661 0.899353
341.825 -117.725 789.708 0.315101 -0.223986 0.922248
610.277 -1.94638 689.475 0.55864 -0.21829 0.800169
315.518 -177.721 780.204 0.453341 -0.36729 0.812145
514.353 -145.564 695.354 0.381741 -0.255576 0.888231
227.776 -147.76 819.025 0.301533 -0.31661 0.899353
162.531 -107.6 853.747 0.293323 -0.26946 0.917253
214.292 -138.828 827.037 0.31483 -0.317315 0.894535
383.265 29.2069 805.424 0.544539 -0.227683 0.807241
609.618 17.4421 695.225 0.55864 -0.21829 0.800169
618.613 -7.66413 681.587 0.686212 -0.297175 0.663927
646.633 -139.577 601.797 0.574158 -0.295829 0.763432
227.425 -34.6735 853.078 0.340429 -0.26975 0.900746
672.413 -151.358 581.541 0.495252 -0.255024 0.830475
258.743 -47.5731 840.404 0.283978 -0.252653 0.924945
508.147 25.9308 747.636 0.35838 -0.278572 0.891045
591.198 -121.707 665.174 0.489503 -0.269401 0.829343
517.091 -170.894 685.937 0.447508 -0.285502 0.847482
598.006 -24.3581 688.895 0.517067 -0.28764 0.806167
508.031 -118.858 704.58 0.384338 -0.244116 0.890332
208.867 -130.057 832.057 0.31483 -0.317315 0.894535
503.867 -185.782 687.278 0.429277 -0.304679 0.850231
585.421 -41.703 690.906 0.492536 -0.225622 0.840537
421.924 -186.416 723.067 0.352122 -0.324693 0.877829
545.237 1.93365 724.538 0.376098 -0.251589 0.89177
573.919 -254.796 620.49 0.713977 -0.120049 0.689801
485.743 -262.326 667.653 0.346546 -0.256191 0.90237
336.439 -285.552 732.692 0.400775 -0.290345 0.868953
575.437 -308.076 603.176 0.428235 -0.14958 0.891202
336.741 -120.024 790.887 0.315101 -0.223986 0.922248
527.451 -142.404 689.746 0.389885 -0.238813 0.889358
288.35 -151.532 802.496 0.334672 -0.2844 0.898394
518.25 -146.316 693.281 0.38166 -0.255517 0.888283
555.779 -173.223 666.624 0.378393 -0.257329 0.889157
535.116 24.5407 737.138 0.376288 -0.274838 0.8848
328.528 -3.99767 825.074 0.434058 -0.222462 0.872986
584.381 24.6451 715.133 0.515631 -0.233379 0.824414
606.784 -61.8717 674.529 0.55227 -0.256641 0.793179
607.978 -156.288 631.611 0.71057 -0.385332 0.588735
503.094 -117.357 706.827 0.380165 -0.244641 0.891979
561.869 -143.927 674.436 0.400757 -0.277349 0.873196
341.361 -140.171 782.726 0.332377 -0.297572 0.894973
374.913 -173.075 751.178 0.442161 -0.321536 0.837322
497.303 -182.761 692.002 0.41791 -0.303729 0.856212
475.826 -126.658 716.906 0.396814 -0.234619 0.887408
513.07 -114.134 703.474 0.380641 -0.262281 0.886748
379.149 25.535 807.162 0.544754 -0.227895 0.807036
490.482 -164.739 699.211 0.39744 -0.262312 0.879337
487.988 -199.134 688.81 0.292299 -0.316694 0.902367
496.455 -106.182 713.034 0.378229 -0.261022 0.88815
614.084 -10.2444 683.817 0.602232 -0.258226 0.755405
309.464 -48.8428 825.07 0.369335 -0.321383 0.871955
658.375 -210.713 570.287 0.487782 -0.260442 0.83321
311.138 -56.1376 821.672 0.369335 -0.321383 0.871955
573.312 -201.462 643.79 0.653857 -0.489141 0.577245
546.603 -108.547 691.615 0.408924 -0.279368 0.868755
436.1 -196.73 712.672 0.363686 -0.331423 0.870569
218.09 -166.488 816.825 0.293782 -0.243673 0.924292
616.873 -167.834 614.922 0.66345 -0.254171 0.703727
595.547 -20.5399 691.834 0.517067 -0.28764 0.806167
343.295 -164.154 770.799 0.368979 -0.309821 0.876279
621.275 -152.085 618.975 0.669631 -0.263757 0.694281
479.843 -279.489 662.566 0.420669 -0.329949 0.845087
479.135 -263.565 670.368 0.356815 -0.257516 0.89798
455.572 -198.051 705.142 0.368774 -0.417116 0.830675
326.306 -286.263 737.168 0.400364 -0.290359 0.869138
310.376 -167.637 786.004 0.47486 -0.29216 0.830151
515.073 -214.978 672.678 0.427849 -0.243341 0.870477
309.17 -84.4218 813.164 0.429042 -0.273542 0.86087
464.044 -161.393 712.129 0.389259 -0.283482 0.876422
546.506 -99.0979 695.22 0.403493 -0.266361 0.875354
599.756 -296.376 585.872 0.600256 -0.116723 0.791245
540.027 4.87733 728.634 0.386006 -0.278273 0.879525
268.627 -154.744 808.914 0.210803 -0.269339 0.939691
531.84 -142.146 687.891 0.389885 -0.238812 0.889358
518.325 -211.424 671.051 0.455223 -0.266664 0.849507
338.508 -159.027 773.748 0.345255 -0.303195 0.888185
546.799 -286.994 627.235 0.390632 -0.454916 0.800286
481.784 -262.96 669.084 0.365715 -0.218355 0.904751
655.803 -130.909 598.259 0.574158 -0.295829 0.763432
650.59 -144.824 597.098 0.526579 -0.255742 0.810747
500.96 -185.591 688.815 0.429277 -0.304679 0.850231
636.879 -131.733 615.876 0.616299 -0.367663 0.69642
324.805 -138.955 789.484 0.440328 -0.223846 0.869485
590.041 -56.0455 684.997 0.495694 -0.229798 0.837545
227.623 -265.816 786.723 0.212896 -0.288605 0.933479
257.728 -114.41 822.919 0.232088 -0.233136 0.944342
157.571 -133.912 846.082 0.284389 -0.277073 0.917798
686.884 -143.933 575.047 0.491221 -0.260356 0.831214
524.382 -132.046 693.868 0.389905 -0.238873 0.889333
592.95 -22.653 692.746 0.517067 -0.28764 0.806167
332.868 -36.9541 815.165 0.561191 -0.253607 0.787876
633.195 -118.714 628.11 0.576424 -0.431429 0.693977
501.128 -176.266 691.795 0.400432 -0.222043 0.889017
289.886 -148.953 803.247 0.38592 -0.320859 0.864936
621.857 -34.3251 665.579 0.825094 -0.11492 0.553184
629.233 -31.707 651.646 0.548807 -0.407084 0.730133
329.728 -11.4538 823.995 0.507066 -0.14525 0.84958
261.797 -113.935 822.15 0.213449 -0.306218 0.927723
280.991 -165.458 799.778 0.317294 -0.278917 0.906383
278.499 -145.851 806.706 0.257896 -0.286785 0.922629
500.425 -94.2503 714.858 0.378189 -0.261155 0.888128
574.553 -111.694 677.164 0.471175 -0.262027 0.842221
618.501 -37.1259 670.837 0.820782 -0.101389 0.562172
553.59 -159.284 671.748 0.449847 -0.29943 0.841415
648.353 -224.194 572.422 0.493649 -0.263001 0.82894
561.383 -175.744 664.235 0.485497 -0.221123 0.845812
578.823 -274.429 612.629 0.689932 -0.240292 0.682827
572.967 -30.6021 702.477 0.420201 -0.280514 0.862985
560.015 -16.06 713.089 0.352828 -0.259576 0.898962
460.896 -185.301 704.918 0.393063 -0.291599 0.87205
636.201 -139.26 613.489 0.588897 -0.362098 0.722554
307.718 -163.763 788.888 0.47486 -0.29216 0.830151
480.595 -177.636 699.945 0.34888 -0.299458 0.888036
317.258 -122.88 797.532 0.437241 -0.286185 0.852595
339.062 -115.604 791.167 0.315101 -0.223986 0.922248
597.97 -181.056 626.528 0.605085 -0.284161 0.743723
495.692 -179.582 693.282 0.400378 -0.222456 0.888938
621.834 -7.50391 675.447 0.769947 -0.239371 0.591509
489.458 -170.079 698.355 0.40035 -0.222793 0.888866
342.208 -160.453 772.394 0.337905 -0.341584 0.877006
521.508 -140.972 691.551 0.379761 -0.268876 0.885148
568.869 -27.1946 706.158 0.425613 -0.313701 0.848791
602.47 -134.344 651.224 0.756233 -0.368865 0.540416
367.059 -171.442 755.945 0.441386 -0.337354 0.831487
594.646 27.4198 709.786 0.541538 -0.249449 0.802815
494.839 -306.208 645.266 0.440827 -0.31843 0.83921
400.623 4.32147 787.332 0.524602 -0.22553 0.820932
574.183 -98.6304 680.759 0.458627 -0.272421 0.845842
616.353 -9.6836 681.698 0.769947 -0.239371 0.591509
341.453 -15.6343 817.719 0.419543 -0.294604 0.858599
468.409 -195.096 698.741 0.396607 -0.325285 0.858424
527.797 -0.915459 730.458 0.389189 -0.297145 0.871916
355.723 -45.5644 801.286 0.388652 -0.204826 0.898329
517.542 -141.334 695.238 0.381779 -0.255561 0.888219
530.447 -33.5894 720.726 0.351451 -0.215888 0.910975
312.197 -187.168 777.785 0.453341 -0.36729 0.812145
274.547 -108.977 821.466 0.354814 -0.294553 0.887325
503.897 -229.732 673.549 0.315552 -0.33549 0.887622
309.726 -177.543 783.517 0.453341 -0.36729 0.812145
573.67 -21.0498 706.022 0.425613 -0.313701 0.848791
499.367 -226.886 676.4 0.366869 -0.261637 0.892722
483.983 -188.653 694.627 0.328657 -0.371676 0.868241
364.49 2.8102 809.372 0.488954 -0.207389 0.847298
440.231 -293.641 678.939 0.474425 -0.261627 0.840519
589.793 -285.929 599.136 0.524973 -0.130399 0.84107
619.979 -39.3196 667.536 0.825187 -0.115123 0.553003
336.178 -6.15312 821.051 0.40294 -0.275703 0.872713
580.749 -246.16 614.924 0.713977 -0.120049 0.689801
353.923 -107.986 785.587 0.380213 -0.215888 0.89935
574.355 -187.483 650.329 0.472165 -0.235565 0.849452
350.897 -39.9636 804.651 0.388652 -0.204826 0.898329
620.809 -173.094 609.311 0.66345 -0.254171 0.703727
369.453 -165.082 756.652 0.501251 -0.296444 0.812938
645.617 -143.716 600.957 0.574158 -0.295829 0.763432
634.008 -10.678 665.849 0.549022 -0.405632 0.730779
333.529 4.90314 827.755 0.388786 -0.249114 0.88701
692.269 -64.6538 595.989 0.500597 -0.279698 0.819251
335.097 -117.708 792.011 0.315101 -0.223986 0.922248
592.71 -15.7788 697.146 0.534479 -0.318428 0.782902
502.059 -37.2027 731.822 0.388515 -0.243699 0.888632
559.522 -203.164 650.015 0.516658 -0.402981 0.755427
488.542 -81.4742 724.069 0.37451 -0.266575 0.888077
340.327 -77.5518 799.058 0.415537 -0.243144 0.876476
297.588 -110.538 810.878 0.437171 -0.256955 0.861891
514.388 -12.1584 732.852 0.399423 -0.295857 0.867715
566.989 -29.5057 705.744 0.420194 -0.28052 0.862986
590.448 -18.7195 697.494 0.534479 -0.318428 0.782902
613.766 -156.669 626.785 0.722759 -0.18016 0.667205
334.136 -19.1592 820.09 0.419534 -0.294589 0.858608
624.565 7.38414 682.172 0.686212 -0.297175 0.663927
232.618 -262.379 786.646 0.212896 -0.288605 0.933479
490.195 -217.093 681.792 0.292299 -0.316694 0.902367
649.693 -117.172 611.241 0.637838 -0.317652 0.701612
333.851 -273.668 737.467 0.425976 -0.289758 0.857079
558.553 -164.722 668.741 0.485497 -0.221123 0.845812
625.683 -3.57814 676.109 0.686212 -0.297175 0.663927
544.446 -101.854 695.176 0.393525 -0.275718 0.876993
562.947 -284.06 617.786 0.605968 -0.415812 0.678161
550.852 -116.611 687.584 0.389284 -0.294281 0.872844
495.004 -311.605 643.526 0.446567 -0.296573 0.84417
479.874 -297.997 657.914 0.459726 -0.327356 0.825524
220.336 -258.792 789.425 0.26905 -0.270906 0.924241
596.646 -118.509 662.854 0.516747 -0.273013 0.811441
332.508 0.00937901 823.594 0.412458 -0.235911 0.8799
477.032 -235.543 679.542 0.347162 -0.28326 0.894003
488.257 -209.001 685.26 0.292299 -0.316694 0.902367
380.291 29.3187 807.462 0.544566 -0.227715 0.807214
465.411 -195.779 699.868 0.396607 -0.325285 0.858424
280.355 -139.209 808.874 0.298465 -0.293792 0.908077
578.598 -238.224 625.646 0.66228 -0.359065 0.657615
666.858 -28.1156 629.02 0.568593 -0.339327 0.749373
340.969 -72.115 800.262 0.415537 -0.243144 0.876476
284.932 -120.743 813.408 0.354814 -0.294553 0.887325
484.902 -236.278 678.007 0.313317 -0.299557 0.901165
576.086 -238.495 628.027 0.66228 -0.359065 0.657615
575.649 -115.971 675.219 0.471158 -0.262011 0.842236
333.927 -76.0028 802.716 0.477294 -0.256561 0.840457
363.74 -156.639 762.866 0.506476 -0.272955 0.81791
287.277 -167.287 797.454 0.347395 -0.308209 0.885621
323.603 -90.3741 803.679 0.432601 -0.264121 0.86203
602.238 -140.605 647.319 0.841565 -0.214604 0.495695
608.858 -167.016 623.005 0.583233 -0.321938 0.745785
263.469 -111.294 822.637 0.213449 -0.306218 0.927723
554.368 -209.083 652.162 0.551134 -0.344845 0.759824
289.811 -103.592 816.826 0.403214 -0.248947 0.880593
625.347 -152.575 614.862 0.669631 -0.263757 0.694281
225.202 -125.525 827.916 0.31483 -0.317315 0.894535
350.314 -226.181 744.681 0.436306 -0.283443 0.853989
537.422 -11.7045 723.392 0.33966 -0.293483 0.893588
328.095 -90.3507 801.555 0.393553 -0.257253 0.882574
569.385 -151.279 666.628 0.487405 -0.334648 0.806503
225.616 -135.585 824.035 0.301533 -0.31661 0.899353
341.604 -114.455 790.578 0.315101 -0.223986 0.922248
313.427 -176.458 781.942 0.453341 -0.36729 0.812145
511.463 -144.954 696.89 0.381808 -0.255598 0.888196
222.828 -150.667 819.66 0.301533 -0.31661 0.899353
158.128 -111.259 854.091 0.290807 -0.273027 0.916999
211.58 -134.442 829.547 0.31483 -0.317315 0.894535
382.971 23.7205 804.225 0.539482 -0.231753 0.809475
609.184 11.6672 693.952 0.55864 -0.21829 0.800169
621.094 -4.849 680.284 0.686212 -0.297175 0.663927
643.983 -139.076 603.984 0.574158 -0.295829 0.763432
228.493 -29.5253 854.214 0.340435 -0.269753 0.900743
510.052 29.3929 747.659 0.361003 -0.270409 0.8925
587.87 -118.036 667.782 0.476336 -0.266762 0.83782
598.786 -19.3874 690.168 0.517067 -0.28764 0.806167
507.005 -122.537 704.007 0.384043 -0.244118 0.890459
210.224 -132.25 830.802 0.31483 -0.317315 0.894535
420.535 -184.424 724.361 0.352122 -0.324693 0.877829
548.434 4.14496 724.712 0.386006 -0.278273 0.879525
333.23 -121.57 787.524 0.306092 -0.262772 0.915018
529.39 -137.369 690.468 0.397564 -0.244059 0.884521
289.449 -154.328 801.201 0.334672 -0.2844 0.898394
519.55 -143.411 691.65 0.379761 -0.268876 0.885148
589.452 26.0602 712.361 0.515631 -0.233379 0.824414
611.245 -156.572 629.543 0.722759 -0.18016 0.667205
505.029 -119.934 705.37 0.381085 -0.244486 0.891628
567.282 -143.616 672.05 0.400757 -0.277349 0.873196
343.938 -135.074 783.468 0.332381 -0.297491 0.894998
372.271 -169.143 754.082 0.442162 -0.321537 0.837321
510.578 -116.513 704.09 0.383759 -0.244206 0.890557
378.651 21.2486 806.284 0.544959 -0.228149 0.806826
489.967 -167.407 698.776 0.400382 -0.222797 0.888851
485.675 -200.577 689.053 0.292299 -0.316694 0.902367
307.869 -46.078 826.765 0.369335 -0.321383 0.871955
655.361 -215.08 570.577 0.494724 -0.259821 0.829302
440.615 -196.745 710.781 0.363742 -0.331261 0.870608
619.778 -163.252 613.838 0.66345 -0.254171 0.703727
593.299 -19.8091 695.105 0.534479 -0.318428 0.782902
346.253 -163.458 769.8 0.368979 -0.309821 0.876279
619.441 -148.243 622.203 0.669631 -0.263757 0.694281
457.467 -195.617 703.599 0.396607 -0.325285 0.858424
517.263 -214.051 670.795 0.455223 -0.266664 0.849507
313.234 -86.4218 809.856 0.447867 -0.251916 0.857877
460.728 -166.077 712.154 0.389193 -0.283375 0.876486
597.428 -296.422 587.634 0.600256 -0.116727 0.791245
544.23 4.51114 726.673 0.386006 -0.278273 0.879525
533.381 -138.139 688.462 0.397564 -0.244059 0.884521
483.717 -264.85 667.846 0.365715 -0.218355 0.904751
654.408 -129.362 599.907 0.574158 -0.295829 0.763432
648.42 -147.161 597.772 0.526619 -0.255735 0.810723
639.014 -131.922 613.887 0.616299 -0.367663 0.69642
321.508 -134.855 791.869 0.474226 -0.181104 0.861575
591.162 -50.5087 685.435 0.495997 -0.22847 0.837728
226.087 -263.178 786.376 0.213966 -0.273125 0.937881
254.452 -114.578 822.502 0.219756 -0.259735 0.940343
682.674 -147.79 576.389 0.491887 -0.259938 0.830951
525.916 -137.225 691.805 0.389889 -0.238823 0.889354
590.869 -22.3362 695.736 0.534479 -0.318428 0.782902
333.692 -34.1106 815.494 0.561191 -0.253607 0.787876
636.857 -115.972 626.776 0.576424 -0.431429 0.693977
503.211 -173.84 691.531 0.400468 -0.221826 0.889055
620.038 -35.7059 668.113 0.825146 -0.115033 0.553083
627.127 -33.1821 652.406 0.548807 -0.407084 0.730133
264.573 -117.725 820.26 0.213449 -0.306218 0.927723
281.32 -160.23 801.412 0.317022 -0.279173 0.906399
279.425 -149.005 806.906 0.314453 -0.281643 0.90653
496.667 -90.7059 717.501 0.37819 -0.261156 0.888127
570.383 -111.765 679.393 0.427583 -0.275616 0.860935
555.228 -157.164 672.601 0.3815 -0.298628 0.874802
647.614 -229.73 571.182 0.493484 -0.263487 0.828884
579.977 -276.134 610.871 0.689932 -0.240292 0.682827
573.385 -25.8747 704.381 0.425613 -0.313701 0.848791
556.644 -20.8007 713.043 0.35283 -0.259576 0.898961
460.952 -179.726 706.757 0.393063 -0.291599 0.87205
635.858 -139.664 606.394 0.598636 -0.366402 0.712309
485.119 -173.909 699.355 0.400346 -0.222784 0.88887
313.297 -124.318 799.081 0.437241 -0.286185 0.852595
335.948 -114.002 792.62 0.315101 -0.223986 0.922248
493.708 -175.849 695.058 0.400357 -0.222617 0.888907
623.361 -5.05338 677.849 0.686212 -0.297175 0.663927
487.289 -171.994 698.856 0.400348 -0.222784 0.888869
342.117 -157.957 773.4 0.337905 -0.341584 0.877006
571.27 -24.1222 706.09 0.425613 -0.313701 0.848791
600.724 -132.846 654.021 0.589494 -0.303114 0.748745
366.367 -168.293 757.384 0.501251 -0.296444 0.812938
591.988 26.7677 710.976 0.515631 -0.233379 0.824414
500.56 -306.636 643.46 0.430025 -0.332463 0.839373
577.587 -94.2293 680.395 0.458558 -0.272419 0.84588
467.396 -190.479 700.959 0.396607 -0.325285 0.858424
530.547 1.01576 729.959 0.369668 -0.319168 0.872627
354.343 -43.5088 802.352 0.388652 -0.204826 0.898329
515.95 -143.451 695.302 0.381768 -0.255566 0.888222
530.301 -28.4923 721.99 0.351451 -0.215888 0.910975
277.043 -112.892 819.169 0.354814 -0.294553 0.887325
499.581 -231.107 674.564 0.315552 -0.33549 0.887622
313.137 -173.421 782.39 0.46827 -0.227648 0.853756
571.266 -20.6553 707.373 0.425613 -0.313701 0.848791
499.36 -222.178 677.783 0.366869 -0.261637 0.892722
480.601 -192.435 694.974 0.344052 -0.372779 0.86178
620.393 -42.1886 666.333 0.825193 -0.115136 0.552992
580.695 -248.852 614.511 0.713977 -0.120049 0.689801
354.642 -102.268 786.655 0.380213 -0.215888 0.89935
620.293 -168.173 611.575 0.66345 -0.254171 0.703727
587.74 -18.4352 699.067 0.510529 -0.312925 0.800898
563.467 -202.394 647.728 0.516658 -0.402981 0.755427
337.092 -76.7566 800.813 0.415537 -0.243144 0.876476
571.661 -28.1486 703.931 0.413883 -0.300044 0.859462
609.191 -158.639 628.609 0.71057 -0.385332 0.588735
624.32 12.5924 683.591 0.617539 -0.272124 0.737967
494.679 -219.529 679.485 0.292299 -0.316694 0.902367
560.952 -159.237 668.798 0.485497 -0.221123 0.845812
625.92 -1.02709 677.006 0.686212 -0.297175 0.663927
550.672 -122.293 685.749 0.389284 -0.294281 0.872844
592.217 -118.25 665.246 0.476298 -0.26673 0.837852
490.382 -204.205 687.471 0.335305 -0.334342 0.880787
376.284 25.3525 809.044 0.544754 -0.227905 0.807033
466.404 -193.129 700.413 0.396607 -0.325285 0.858424
283.445 -140.581 807.396 0.298464 -0.293867 0.908054
576.375 -235.984 619.402 0.713908 -0.309723 0.628018
666.753 -32.8901 626.937 0.568593 -0.339327 0.749373
336.719 -69.2799 803.183 0.477294 -0.256561 0.840457
284.349 -118.336 814.44 0.354814 -0.294553 0.887325
490.096 -234.395 676.828 0.313317 -0.299557 0.901165
575.841 -243.139 625.739 0.66228 -0.359065 0.657615
573.81 -119.16 675.254 0.471137 -0.261991 0.842253
335.323 -72.6413 802.95 0.477294 -0.256561 0.840457
363.225 -154.017 764.06 0.506476 -0.272955 0.81791
284.232 -163.7 799.243 0.317181 -0.279024 0.90639
323.312 -95.7098 802.191 0.432602 -0.264124 0.862029
607.35 -164.145 627.227 0.71057 -0.385332 0.588735
261.625 -106.596 824.612 0.213449 -0.306218 0.927723
288.178 -98.8181 818.818 0.323966 -0.231608 0.917281
220.911 -128.228 828.467 0.31483 -0.317315 0.894535
325.692 -93.023 801.848 0.393553 -0.257253 0.882574
573.977 -150.448 663.254 0.492859 -0.382245 0.781651
225.81 -140.402 822.274 0.301533 -0.31661 0.899353
509.338 -147.026 697.169 0.381759 -0.255637 0.888206
160.341 -109.44 853.955 0.291806 -0.271799 0.917047
381.643 26.5142 805.863 0.539233 -0.231548 0.809699
609.401 14.5547 694.588 0.55864 -0.21829 0.800169
640.402 -139.971 602.417 0.598636 -0.366402 0.712309
224.208 -31.9074 855.143 0.34034 -0.269866 0.900745
586.295 -116.251 669.243 0.476361 -0.266783 0.837799
510.307 -119.951 703.273 0.383847 -0.244163 0.890531
532.128 -135.734 689.689 0.397564 -0.244059 0.884521
286.727 -158.914 799.897 0.317079 -0.279119 0.906396
517.891 -148.494 690.818 0.379761 -0.268876 0.885148
585.46 27.451 715.252 0.515631 -0.233379 0.824414
613.282 -160.779 625.931 0.668103 -0.298525 0.681557
505.585 -116.894 706.011 0.381872 -0.244416 0.89131
569.953 -145.203 670.213 0.492938 -0.356965 0.793466
347.331 -133.372 782.775 0.332381 -0.297484 0.895001
372.494 -164.581 754.96 0.501251 -0.296444 0.812938
508.148 -111.954 706.977 0.363397 -0.270179 0.891597
380.663 19.7419 804.653 0.539578 -0.231969 0.80935
480.511 -199.69 691.641 0.368823 -0.380016 0.848267
303.339 -44.4286 829.291 0.369335 -0.321383 0.871955
656.848 -212.886 570.397 0.487745 -0.260438 0.833233
623.626 -161.578 610.815 0.66345 -0.254171 0.703727
340.658 -163.057 771.537 0.345255 -0.303195 0.888185
312.993 -91.9604 808.355 0.447867 -0.251916 0.857877
462.385 -163.734 712.139 0.38923 -0.283434 0.876451
548.241 8.00474 726.018 0.386006 -0.278273 0.879525
534.824 -140.025 687.293 0.397564 -0.244059 0.884521
482.887 -267.531 667.534 0.365715 -0.218355 0.904751
654.427 -123.665 599.832 0.635963 -0.295454 0.712922
635.444 -136.683 614.533 0.616299 -0.367663 0.69642
323.097 -136.883 790.568 0.474226 -0.181104 0.861575
590.573 -53.264 685.168 0.495867 -0.228872 0.837695
258.15 -110.747 824.041 0.213449 -0.306218 0.927723
681.429 -152.556 575.569 0.496184 -0.252125 0.830804
526.683 -139.814 690.776 0.389887 -0.238818 0.889356
337.869 -32.2619 813.114 0.561191 -0.253607 0.787876
632.119 -31.5896 649.543 0.548807 -0.407084 0.730133
283.875 -157.477 801.452 0.316864 -0.279328 0.906407
282.836 -150.277 807.341 0.317157 -0.293283 0.901885
494.787 -88.9337 718.822 0.378188 -0.26116 0.888127
572.11 -115.471 677.349 0.427583 -0.275617 0.860934
557.592 -157.043 671.363 0.487405 -0.334648 0.806503
647.237 -232.494 570.548 0.493439 -0.263618 0.828869
583.513 -275.637 607.469 0.689932 -0.240292 0.682827
575.932 -23.8567 703.85 0.425613 -0.313701 0.848791
555.303 -16.2037 714.898 0.352813 -0.259578 0.898968
457.308 -177.771 710.973 0.401149 -0.326427 0.855877
633.944 -144.034 610.492 0.605641 -0.335947 0.721345
479.903 -173.647 701.562 0.34888 -0.299458 0.888036
315.787 -127.541 796.722 0.437241 -0.286185 0.852595
332.683 -115.03 791.328 0.323897 -0.305043 0.895566
496.981 -170.928 694.816 0.400408 -0.22254 0.888903
566.2 -26.2791 707.835 0.425613 -0.313701 0.848791
594.674 31.7759 711.833 0.512836 -0.244452 0.822947
496.654 -302.52 645.392 0.440802 -0.319024 0.838998
582.594 -93.6989 678.226 0.458063 -0.272244 0.846204
469.866 -186.536 701.312 0.396607 -0.325285 0.858424
529.994 -1.84788 729.159 0.389189 -0.297145 0.871916
355.081 -37.7523 803.345 0.388652 -0.204826 0.898329
528.107 -26.8679 723.221 0.351451 -0.215888 0.910975
279.783 -114.371 818.495 0.365883 -0.274657 0.889209
496.921 -220.748 678.331 0.292299 -0.316694 0.902367
478.803 -187.8 697.221 0.34888 -0.299458 0.888036
621.624 -39.6963 664.911 0.825143 -0.115026 0.553089
355.001 -99.4092 787.19 0.380213 -0.215888 0.89935
621.96 -164.876 611.195 0.66345 -0.254171 0.703727
567.429 -198.109 647.304 0.516658 -0.402981 0.755427
339.03 -74.4358 800.537 0.415537 -0.243144 0.876476
608.27 -161.392 627.918 0.71057 -0.385332 0.588735
622.194 7.455 685.164 0.660629 -0.26748 0.701444
495.278 -224.473 677.556 0.292299 -0.316694 0.902367
623.918 1.1841 680.064 0.686212 -0.297175 0.663927
545.851 -124.176 687.264 0.389284 -0.294281 0.872844
377.468 23.3004 807.665 0.544814 -0.227978 0.806972
283.613 -143.975 807.444 0.319733 -0.283195 0.904197
580.308 -234.251 620.601 0.751892 -0.233957 0.616378
670.718 -33.0828 623.842 0.568593 -0.339327 0.749373
337.601 -66.2693 804.238 0.503298 -0.286187 0.815345
288.695 -117.101 813.112 0.354814 -0.294553 0.887325
485.377 -232.283 678.288 0.287095 -0.266594 0.920056
577.219 -240.681 625.692 0.66228 -0.359065 0.657615
333.967 -69.5817 804.653 0.477294 -0.256561 0.840457
362.096 -148.923 766.459 0.506476 -0.272955 0.81791
287.852 -162.694 798.327 0.317104 -0.279097 0.906394
326.608 -98.8407 799.577 0.432602 -0.264124 0.862029
611.976 -164.853 625.427 0.668103 -0.298525 0.681557
257.296 -106.019 825.798 0.213449 -0.306218 0.927723
289.016 -101.218 817.869 0.403274 -0.248877 0.880585
326.145 -95.9286 800.702 0.432602 -0.264123 0.862029
577.292 -153.721 659.564 0.492859 -0.382245 0.781651
383.883 26.4562 804.223 0.544834 -0.22797 0.806961
642.495 -143.405 602.956 0.580692 -0.297841 0.757686
220.473 -29.713 857.061 0.338063 -0.277376 0.89932
529.367 -134.389 691.039 0.389889 -0.238823 0.889354
289.095 -160.298 798.644 0.317077 -0.279122 0.906396
512.572 -150.568 692.47 0.379761 -0.268876 0.885148
590.286 29.5089 713.894 0.512836 -0.244452 0.822947
614.248 -162.86 624.072 0.668103 -0.298525 0.681557
567.725 -146.451 670.946 0.400757 -0.277349 0.873196
345.41 -138.908 781.645 0.33238 -0.297518 0.89499
376.977 -165.667 752.453 0.441396 -0.314154 0.840522
297.812 -45.8387 829.296 0.209695 -0.264194 0.941398
621.183 -160.991 613.33 0.66345 -0.254171 0.703727
340.748 -166.046 770.481 0.345255 -0.303195 0.888185
309.086 -88.9359 811.283 0.447867 -0.251916 0.857877
458.165 -167.21 712.965 0.389155 -0.283313 0.876523
548.934 13.5365 727.464 0.386006 -0.278273 0.879525
530.728 -139.904 688.975 0.389886 -0.238816 0.889357
654.983 -121.071 600.408 0.635964 -0.295444 0.712926
637.595 -136.634 612.656 0.616299 -0.367663 0.69642
326.52 -140.297 787.966 0.474226 -0.181104 0.861575
593.128 -57.1692 682.908 0.495672 -0.22998 0.837507
254.839 -109.263 825.227 0.228036 -0.215046 0.949608
679.291 -153.955 576.453 0.496115 -0.252354 0.830775
342.14 -33.7823 809.582 0.561191 -0.253607 0.787876
634.001 -32.0017 644.822 0.589994 -0.373637 0.715753
284.05 -160.585 800.337 0.317044 -0.279153 0.906398
491.689 -85.2213 721.503 0.373887 -0.267329 0.888113
650.076 -236.585 567.565 0.49342 -0.263676 0.828862
455.185 -176.548 712.438 0.40117 -0.326432 0.855865
632.379 -147.177 610.343 0.605641 -0.335947 0.721345
477.385 -171.541 703.261 0.34888 -0.299458 0.888036
312.207 -128.756 798.15 0.437241 -0.286185 0.852595
501.107 -168.671 693.575 0.400548 -0.222201 0.888925
595.797 34.385 711.909 0.512836 -0.244452 0.822947
494.967 -300.655 646.863 0.440792 -0.319256 0.838915
583.332 -91.003 678.993 0.457663 -0.272129 0.846458
474.311 -187.148 699.206 0.34888 -0.299458 0.888036
357.766 -41.8935 801.239 0.388652 -0.204826 0.898329
