558.986 -102.367 688.537
352.343 -58.9135 509.304
547.638 -176.458 669.152
590.754 -173.193 646.404
595.519 -193.479 622.808
330.124 -126.391 788.017
211.356 -290.318 783.845
248.895 -90.8084 538.511
213.055 -275.802 786.668
278.903 -197.302 787.006
319.223 -280.074 742.091
415.38 -282.136 693.956
351.449 -47.5059 514
566.032 -291.46 613.848
723.197 -30.4541 588.867
658.916 -30.6565 634.004
548.761 -130.24 683.484
272.051 -99.4648 523.565
489.29 -32.8386 737.284
413.304 -237.15 709.884
339.667 -234.349 747.144
286.926 -259.863 763.754
217.934 -44.7146 854.296
403.622 -240.468 714.233
492.187 -313.561 644.311
311.242 -230.277 763.029
381.682 -231.175 727.306
286.662 -221.678 776.857
309.285 201.256 493.047
355.171 -279.272 726.119
387.03 -239.421 722.735
360.346 -28.6813 515.107
438.263 -272.607 686.036
353.148 161.468 485.44
343.953 -203.2 756.886
431.662 -256.52 695.302
582.342 -157.063 653.397
255.931 169.535 530
416.015 -210.035 715.708
387.013 -267.755 713.985
274.388 -244.348 777.089
345.588 -183.308 760.489
600.596 4.85236 696.263
304.942 -247.46 758.934
408.382 -237.24 713.121
492.045 -105.149 714.911
333.598 -112.272 485.1
325.628 207.474 487.785
298.327 -271.819 756.24
596.387 -156.462 648.962
336.985 132.63 486.545
716.946 -26.2991 593.907
329.78 -138.644 787.365
614.155 -219.659 595.147
310.794 -244.907 757.822
271.968 189.844 514.033
476.136 -291.596 660.637
468.247 -155.071 713.05
344.783 -125.757 477.131
235.823 -284.713 779.322
217.207 -257.999 790.557
268.01 178.436 517.333
362.843 -264.929 727.373
285.864 -133.328 459.613
496.768 -252.993 664.547
333.987 -212.269 756.157
591.257 -183.598 637.814
272.11 -122.522 460.594
258.973 -95.8035 532.619
582.979 -166.097 651.951
293.891 193.081 499.144
561.6 -188.688 659.894
257.064 -71.3214 832.299
660.228 -298.936 547.001
241.338 -271.715 781.035
270.707 196.999 515.584
279.806 -171.569 798.812
299.895 -251.979 762.129
324.314 205.914 487.972
567.089 -208.089 644.035
269.971 179.636 515.436
299.623 -38.6632 832.41
265.6 139.523 519.357
430.038 -249.293 697.86
314.746 -250.906 755.22
313.217 174.242 489.544
350.179 -24.8506 519.763
547.562 -69.384 703.789
537.377 -295.309 625.759
531.048 -145.568 687.365
253.367 171.662 534.752
274.184 193.902 513.344
466.548 -277.61 671.237
297.962 -179.794 789.191
341.136 -179.71 766.328
334.639 -75.1583 511.808
432.922 -266.101 691.603
272.152 -84.3836 530.576
349.637 -59.0333 511.188
453.282 -256.01 685.246
451.084 -232.556 693.377
431.47 -250.171 697.187
519.676 -189.632 677.656
367.828 -202.785 742.533
429.378 -197.327 715.227
672.048 -66.6827 609.415
345.237 -75.5455 506.178
301.063 -142.922 800.88
261.16 180.622 524.3
275.694 -247.656 774.121
599.588 -115.328 662.051
331.257 -131.529 786.903
270.726 141.273 513.284
241.295 191.319 554.117
306.903 218.782 496.04
201.596 -158.031 824.993
587.287 -213.969 620.918
493.516 -194.085 689.158
555.31 4.92442 721.134
304.226 -259.362 757.022
564.105 7.26087 717.427
540.323 23.2307 735.087
289.252 -69.9918 825.632
336.476 -79.8873 800.236
315.14 -204.389 768.589
353.339 -92.6476 483.645
596.252 -167.622 629.803
431.362 -203.678 710.774
332.53 -107.69 493.715
359.354 31.2713 522.418
309.221 -62.1696 819.506
411.7 -311.758 686.935
265.028 47.2739 512.533
412.158 -279.932 697.08
557.029 -2.82198 718.075
270.3 187.323 515.196
289.901 212.815 503.059
271.049 -80.1234 534.093
296.221 125.025 494.751
465.045 -276.564 671.991
600.83 -199.498 619.433
577.243 -177.83 651.401
264.427 136.516 521.021
348.29 -88.4848 494.504
295.785 -206.822 777.596
292.952 191.754 499.677
681.915 -55.6679 607.461
283.409 -281.863 758.587
563.864 -247.831 634.385
261.128 187.115 523.979
347.269 -36.7018 517.277
283.183 -266.029 768.958
186.471 -160.322 830.801
334.873 -1.14535 822.175
294.941 -79.4849 472.637
399.23 -268.752 707.436
369.796 -43.4039 796.609
233.876 -220.633 795.818
299.432 195.874 497.556
449.854 -230.969 694.517
517.375 -28.5731 725.814
414.009 -261.314 701.654
395.143 -284.789 703.906
376.145 -214.138 735.373
282.118 -277.375 761.688
375.091 -287.732 713.842
438.669 -291.264 680.561
510.766 -88.7982 712.165
539.498 -45.812 713.411
281.191 -138.433 458.732
477.212 -223.398 683.32
294.201 189.997 498.944
321.234 115.273 489.355
312.975 153.638 489.318
263.985 98.6814 521.241
267.111 -100.975 479.172
340.545 -232.761 747.423
685.573 17.3938 628.573
263.406 -16.0613 563.18
340.429 162.802 484.369
547.958 -207.485 658.823
351.087 184.302 483.869
305.49 -98.2451 811.94
564.18 -166.891 664.493
290.884 -264.876 761.113
305.966 -252.945 757.572
315.557 -230.195 760.243
389.384 -225.993 726.335
177.409 -253.023 809.002
594.256 7.2816 701.469
376.404 -281.457 714.548
284.829 132.098 501.998
301.061 -136.733 802.056
308.719 188.655 492.061
353.311 186.739 483.817
359.906 -229.679 739.377
587.511 -183.293 644.74
307.606 136.425 491.406
254.592 148.689 533.332
351.68 -274.408 729.145
391.438 -308.442 697.83
387.787 -223.518 727.406
320.652 -102.169 801.647
619.228 -20.0354 673.767
308.471 -235.766 761.069
360.671 -26.3629 515.649
379.168 -209.25 735.65
576.645 -224.584 635.527
265.162 189.943 520.341
572.394 -262.949 617.983
341.008 -246.104 741.99
297.681 -165.862 794.192
237.421 201.378 556.91
612.324 -183.397 618.136
244.917 -156.767 810.971
494.761 14.8791 750.904
550.041 -293.188 622.033
478.897 -213.729 685.416
295.566 137.526 495.475
435.948 -274.204 687.474
597.229 4.67172 698.801
290.169 11.4974 845.22
312.692 -73.9546 814.408
402.558 -250.524 711.131
278.007 -259.002 771.214
281.579 133.398 504.264
209.13 -216.689 805.785
689.906 -98.0623 588.812
313.713 128.43 489.269
258.14 -106.785 528.095
268.67 -288.879 761.494
356.434 -303.52 717.961
515.863 -173.439 685.709
347.295 -61.8202 511.716
384.974 -187.028 740.321
386.483 -131.858 758.804
481.966 -77.8692 728.193
321.463 -109.829 497.318
339.474 171.145 483.939
274.382 -170.724 802.715
351.443 -231.1 742.15
570.968 -295.734 606.896
303.182 220.62 497.562
625.345 -129.901 623.985
244.364 -116.52 525.356
280.872 -142.15 458.306
481.692 -225.922 681.281
262.004 57.7468 516.822
354.356 -219.157 743.837
612.914 -69.3365 670.543
548.832 -132.733 682.906
360.696 -265.333 727.924
280.027 -217.694 781.655
338.779 -94.3337 500.705
586.288 -46.7981 690.404
587.355 -229.418 615.886
566.272 8.34609 716.923
430.731 -282.273 688.379
374.588 -183.58 746.335
515.518 -299.654 638.056
295.459 211.913 499.615
292.484 226.4 504.023
338.793 -68.3226 514.163
262.606 -103.962 526.875
282.776 -134.561 459.085
299.939 205.627 498.141
298.372 -86.8829 816.137
333.367 -220.339 754.813
244.487 -95.2858 537.647
396.264 -247.855 714.348
422.958 -284.7 692.339
389.085 -204.664 733.213
310.588 35.8355 847.8
540.903 -9.13367 722.913
564.872 -247.984 631.207
265.876 -106.781 479.039
452.29 -225.445 696.23
375.455 -192.416 743.109
327.869 -114.333 489.113
374.58 29.8962 811.651
228.51 -117.926 828.54
375.367 -271.911 719.282
282.261 195.14 506.712
336.598 -307.24 725.827
318.006 145.778 487.47
322.254 -276.225 742.375
182.643 -99.2084 850.506
409 -273.684 702.738
578.011 -206.795 632.227
281.737 125.902 503.108
248.623 -266.326 783.387
449.138 -290.904 674.592
611.738 -54.6156 674.343
406.93 -255.248 707.672
527.73 -47.4916 717.529
398.017 -225.264 721.067
300.347 196.474 497.27
572.025 -122.379 675.385
265.592 51.8572 513.711
360.688 -241.127 735.477
249.998 190.944 538.132
372.326 -245.209 728.185
280.847 -222.224 779.715
279.62 142.37 505.383
269.873 -141.418 810.065
321.5 -97.3566 504.264
386.153 26.3859 802.628
261.148 -67.1972 832.207
544.35 28.5396 734.15
332.724 -86.4076 508.038
318.058 123.809 487.888
337.759 -86.7617 505.285
511.062 -172.083 688.993
277.646 -214.239 783.343
459.187 -190.341 706.638
270.343 205.25 516.352
607.881 -143.506 633.332
346.923 183.915 483.978
402.179 -256.812 709.384
492.93 -48.5796 732.179
242.348 215.46 545.206
385.934 -251.636 719.298
347.185 -74.803 505.708
204.148 -206.228 810.924
546.078 21.7164 731.289
363.04 -244.19 732.515
343.424 -44.9462 804.348
264.993 -136.134 469.637
379.763 -31.0929 791.253
302.252 -120.951 804.735
316.504 165.215 488.069
599.616 -260.172 595.359
254.117 189.842 533.149
472.139 -157.006 710.626
349.287 -8.43869 520.724
275.225 -199.501 789.8
571.984 -314.018 604.448
298.944 169.748 496.242
460.596 -236.846 687.513
341.44 -131.172 785.696
258.467 160.073 525.202
342.032 190.563 483.873
351.364 194.913 483.581
284.295 -264.796 765.972
392.404 -276.97 707.643
251.928 -98.2415 827.719
335.085 -191.736 763.171
408.424 -222.462 716.568
339.711 -46.7036 516.516
411.476 -197.013 722.629
506.831 -99.1991 711.719
435.554 -252.03 694.999
552.449 -242.095 639.033
277.268 180.113 509.496
449.279 -216.633 697.17
338.486 -60.7032 515.474
522.254 36.5213 745.194
583.537 -191.548 640.608
597.574 -236.539 606.944
348.155 -286.892 726.473
290.839 -139.984 805.714
327.673 -157.289 780.501
322.348 171.032 486.455
361.888 -297.242 716.896
316.244 -110.124 802.353
320.378 -121.148 795.909
345.039 -32.609 807.773
397.356 -241.448 716.575
301.745 -78.7376 474.086
294.5 191.318 498.895
437.242 -222.231 701.759
519.296 -176.443 683.227
378.35 -233.388 728.571
582.401 -232.294 615.294
411.64 -213.819 717.414
577.152 -56.0457 693.978
663.671 -77.7077 611.167
352.636 -36.3316 804.325
661.574 -26.1183 634.923
280.983 -257.776 771.232
289.782 -139.019 459.842
592.086 -289.758 598.322
243.28 216.426 544.335
330.829 -184.567 769.037
343.857 193.106 483.959
308.417 -241.779 758.938
406.376 -224.425 716.936
558.929 15.9351 723.024
352.007 -277.138 728.27
393.94 -256.821 713.026
211.196 -202.967 810.174
336.975 -52.8065 516.149
275.783 -214.187 784.139
366.77 -199.442 744.45
389.32 -232.675 722.99
278.416 -233.444 777.537
224.838 -289.911 779.954
271.362 199.219 515.446
296.664 141.199 494.809
590.23 -44.3585 687.369
273.596 143.568 510.293
346.039 -60.752 512.632
621.95 -54.7398 666.672
478.682 -269.811 670.357
559.047 -176.823 665.294
386.852 -257.7 716.611
355.747 -5.41583 812.741
332.612 -66.522 806.357
371.355 -289.992 714.81
321.651 181.758 486.992
323.82 -259.614 747.243
612.008 -137.184 628.025
237.087 195.64 560.965
402.254 -219.712 720.759
464.313 -281.564 672.028
312.919 -113.303 802.811
242.289 -296.842 773.608
559.118 -255.117 633.43
444.501 -232.712 696.109
260.713 -207.307 792.907
319.227 217.935 491.15
347.628 -259.791 734.575
244.97 -200.325 798.563
569.909 0.859394 713.665
312.923 -70.0121 815.782
313.413 193.375 490.638
603.499 -218.495 609.624
295.684 -116.728 810.193
268.582 44.1911 864.521
510.656 -93.2009 711.655
351.909 -244.197 737.493
589.714 -127.355 664.056
283.118 -261.242 769.448
294.967 -105.511 466.008
537.203 -214.623 660.927
665.784 -140.742 588.401
577.258 -243.698 616.43
663.806 -295.395 545.492
274.086 43.8125 862.947
317.078 -263.385 748.307
300.189 -110.114 810.188
257.421 86.4345 529.868
318.065 124.628 487.817
304.077 -256.212 757.306
614.919 -204.278 599.666
286.065 -91.957 821.511
513.218 -179.985 685.515
345.58 -300.397 722.783
627.366 -1.40468 663.03
292.449 -47.4553 830.037
213.707 -99.9487 839.678
467.744 -274.271 671.617
445.596 -197.184 710.006
398.225 -304.058 696.263
283.945 -113.807 470.716
439.79 -231.66 697.478
579.652 -50.9162 694.428
287.821 176.665 502.297
473.464 -292.117 661.682
667.389 -57.9577 615.324
338.758 -106.088 487.323
283.795 -197.11 787.365
290.239 131.277 498.547
516.879 -230.37 667.89
244.678 198.983 545.892
403.26 -279.627 701.016
312.443 149.253 489.329
395.416 -211.149 727.117
611.658 -224.026 595.9
250.756 139.08 541.436
676.723 -7.14521 629.048
319.551 -110.764 496.159
337.135 -105.358 491.696
204.899 -79.856 848.387
543.592 -95.0169 697.937
352.092 -45.6473 513.978
299.746 -246.239 763.23
256.973 -105.188 530.146
489.763 -266.746 663.885
564.868 -48.6884 700.442
704.927 -42.0574 597.341
331.092 -177.959 771.429
377.684 -123.635 767.147
485.862 -257.982 668.812
553.048 -152.595 675.087
248.4 -224.466 790.515
625.138 -21.2844 665.279
570.448 -262.527 619.441
326.481 -77.6438 511.317
273.489 -64.7399 537.765
367.946 -209.431 740.831
367.801 41.8788 819.932
241.418 -195.751 801.385
480.204 -234.96 680.079
261.448 98.6533 524.946
289.501 -211.539 777.297
288.508 -231.399 773.587
362.251 -289.746 718.617
149.108 -176.782 837.167
315.865 133.665 488.569
238.025 152.524 565.152
592.121 -3.88065 700.48
417.972 -218.252 713.155
627.428 -130.751 626.055
309.925 196.905 492.267
589.88 -86.8704 677.301
308.666 -14.9542 835.317
260.467 -203.669 793.436
561.505 -32.7783 707.991
297.519 -115.038 809.268
372.588 -228.673 733.166
298.419 -160.844 793.56
354.012 -23.0798 519.447
279.688 151.367 505.636
563.393 -261.023 631.562
272.019 122.282 511.15
293.48 168.738 499.263
396.801 -260.876 710.854
274.4 -71.5881 533.2
215.352 -143.016 824.945
409.264 -232.348 713.04
367.876 -1.33305 806.929
565.885 -225.569 638.55
270.352 -218.539 786.085
607.24 -30.1315 682.291
557.364 -190.517 659.548
613.051 -76.4377 666.835
279.996 148.082 505.213
253.886 -70.6379 835.729
318.404 166.168 487.527
319.499 -255.308 750.249
578.304 -166.286 653.76
324.593 -124.845 481.848
315.778 -195.908 772.921
278.755 -170.335 799.994
366.633 -12.1667 516.171
309.818 -231.869 762.589
173.252 -132.932 844.148
256.722 -287.778 768.598
263.522 -218.797 788.343
505.71 35.7236 751.546
379.062 11.5541 803.685
620.677 -19.7606 670.443
302.186 196.273 496.727
274.644 -256.134 772.527
213.461 -178.296 815.453
360.501 -277.431 723.879
285.66 -151.006 806.111
233.236 -6.54733 860.881
373.971 -245.014 727.597
520.131 -132.512 695.937
454.77 -300.294 669.064
708.826 -69.6008 587.6
486.137 -218.763 683.292
379.917 15.7543 804.33
302.706 -141.598 801.516
375.798 91.7904 517.595
242.499 -275.357 778.293
509.916 -139.58 699.369
541.908 -201.319 665.284
402.865 -284.101 699.537
368.87 -257.237 725.692
519.06 1.99394 735.782
464.107 -154.287 715.123
582.826 -154.86 655.39
251.956 195.506 537
470.395 -166.671 707.338
258.904 -265.065 779.531
296.194 205.684 500.153
302.469 -266.078 754.41
365.602 -257.033 727.881
562.137 10.9528 719.914
350.2 -218.613 745.865
339.802 173.366 483.698
553.273 -25.5414 712.997
190.338 -261.216 801.261
285.648 -133.631 459.542
682.532 -134.833 580.51
648.543 -124.799 608.106
268.948 -188.803 795.023
567.259 -246 629.481
582.434 -200.281 628.548
397.013 -251.064 713.223
575.011 -165.777 655.398
346.734 -244.995 739.333
551.998 -39.6369 710.25
584.69 -114.449 670.652
516.122 -167.583 687.861
338.057 -191.079 762.849
311.924 -198.128 774.438
311.81 -220.508 765.025
248.125 -246.976 786.617
276.411 -166.256 800.725
440.942 -301.731 676.328
268.6 -90.9862 530.44
241.93 -83.847 833.924
244.844 174.667 543.892
574.804 -277.221 614.071
311.785 -245.785 757.043
333.177 -87.7692 800.042
309.514 -229.968 763.454
252.249 -278.184 777.53
381.244 -237.306 726.288
288.414 137.794 499.844
281.36 -118.599 815.977
284.211 154.725 502.572
299.538 -205.158 776.747
410.723 -288.103 695.294
272.564 -175.862 801.044
366.965 -162.411 759.011
549.553 -253.282 633.039
350.147 -305.738 720.101
359.279 -207.12 745.893
513.294 -227.139 670.304
374.914 -231.698 730.71
281.1 -286.493 757.799
677.983 -52.1381 610.747
530.204 -252.354 642.89
244.032 -292.498 774.123
270.729 -99.9058 524.241
343.169 -113.956 476.556
266.944 -113.399 477.243
265.093 -38.9746 837.762
333.609 -248.465 744.684
399.36 -277.429 703.837
558.783 -147.787 674.85
336.94 -198.869 760.928
280.756 127.785 503.887
274.088 -220.114 784.232
505.52 18.9535 747.104
322.537 -177.395 777.485
248.569 -120.95 522.512
687.779 -101.943 588.593
382.626 18.2557 802.95
344.82 -22.6948 810.872
256.511 166.07 528.699
245.273 201.754 544.479
316.847 -251.104 753.605
223.78 -226.98 796.924
464.778 -247.596 680.349
293.394 -174.04 794.678
579.51 -130.272 668.846
492.368 -43.0259 733.816
276.321 187.758 510.61
540.703 -80.0747 703.459
301.211 148.963 493.231
293.479 -269.781 758.65
347.469 -51.9014 802.534
553.511 -77.7439 699.117
264.243 -92.1283 824.264
286.482 -94 820.633
381.373 -225.822 728.589
368.475 28.2677 519.578
262.841 -18.6186 562.418
585.256 -2.37496 707.85
595.257 -130.785 659.525
591.652 -172.764 632.302
553.876 -233.442 642.868
357.49 -44.784 510.551
279.872 -136.349 459.078
351.615 -289.187 724.011
313.364 147.6 489.006
566.226 -3.25332 714.308
576.927 27.1964 719.378
318.484 139.942 487.365
363.617 5.5033 810.535
294.425 -163.471 797.885
233.915 -11.7665 859.161
272.352 -254.152 772.811
560.368 -8.55711 715.763
254.214 -263.397 781.746
388.01 -241.047 722.168
330.863 -260.479 744.829
300.616 -80.4813 472.891
442.068 -295.397 677.817
236.112 -72.2212 839.462
539.414 -199.715 668.314
197.58 -12.3158 872.237
253.846 -82.0283 539.066
382.647 -235.394 725.934
411.883 -224.215 713.246
424.999 -226.837 706.075
367.601 22.0039 813.589
337.573 -26.6145 813.585
306.435 -217.726 769.65
323.452 -269.306 744.028
213.837 -48.3135 854.734
343.631 198.014 483.585
345.679 -234.89 744.4
262.51 177.005 522.678
347.604 -305.354 721.197
372.432 -217.354 736.323
711.938 -90.8144 579.079
341.417 176.727 482.875
406.833 -235.438 714.137
329.387 -117.57 483.431
427.632 -210.867 710.486
313.802 -263.267 750.436
260.729 -108.017 525.002
285.425 -277.955 758.17
230.031 -216.152 800.886
263.622 -86.5238 824.156
591.887 2.30609 704.674
279.643 135.803 505.621
255.39 204.334 532.647
614.116 -181.106 616.342
341.96 195.588 483.402
284.322 -86.3067 473.504
538.666 -187.166 669.137
581.105 -176.409 650.576
580.775 -282.626 602.223
640.464 -263.17 564.164
498.615 -145.959 701.488
264.113 -93.3919 530.952
247.36 -89.5471 538.971
392.073 -273.723 708.975
279.24 -184.159 793.683
322.918 -53.7161 816.622
545.72 -30.3441 714.08
325.723 -79.3107 806.427
686.508 -140.75 576.201
536.487 5.42729 729.288
434.527 -266.508 690.671
493.758 -258.746 663.54
266.201 -120.881 512.334
308.622 -202.1 773.308
297.289 -304.136 744.166
533.213 -182.46 672.785
438.921 -303.696 676.432
277.998 -297.54 756.08
393.971 -306.407 697.505
304.589 167.425 493.193
263.392 222.63 522.805
292.935 -297.421 749.276
296.321 -264.855 758.721
601.154 -159.485 640.13
388.315 -3.31342 793.1
275.383 -186.969 793.747
344.355 -115.394 475.987
428.783 -279.681 689.58
329.345 -178.325 772.641
276.467 -294.743 757.737
271.754 -107.668 476.058
601.31 -137.864 652.589
443.525 -307.053 672.933
405.721 -196.438 726.452
307.499 -15.3403 835.242
363.067 -233.806 736.601
352.432 164.403 484.849
379.659 2.33422 800.907
282.48 -135.864 459.003
294.351 -113.362 811.635
594.614 -163.745 645.761
294.331 177.928 498.426
317.582 125.093 488.001
599.539 -196.101 620.993
278.102 -73.3805 475.654
293.969 208.148 500.982
272.57 -175.978 800.89
256.343 -280.028 770.602
340.086 -110.059 480.63
309.635 -54.3516 822.967
424.112 -230.694 706.342
622.423 -209.922 590.941
288.93 148.655 499.443
334.413 -178.103 768.689
475.958 -222.073 683.759
271.593 122.166 511.53
370.762 36.6741 816.809
359.514 -75.2902 491.146
407.082 -226.75 715.741
266.342 174.455 518.971
260.008 35.0055 509.001
678.267 -92.8017 597.026
269.09 -66.2314 542.047
519.898 -192.589 676.733
598.907 -168.863 630.341
290.972 189.01 501.222
395.573 -269.041 709.107
476.379 -274.881 669.601
247.913 216.814 540.416
314.243 -110.236 494.37
305.971 -146.833 798.147
607.986 -176.068 619.779
558.642 -34.5625 708.204
260.832 -108.778 524.049
324.406 -89.8655 507.708
300.378 -208.597 774.135
561.123 -1.76135 716.355
252.988 -122.559 520.744
329.073 193.091 486.814
624.494 -16.0358 666.781
342.703 176.758 483.028
311.466 -208.594 768.931
664.745 -70.2996 613.739
574.367 -259.666 616.115
459.25 -223.646 692.788
534.354 -157.892 681.204
399.435 -186.537 733.39
261.701 86.2873 522.612
505.957 -126.202 703.382
355.524 -249.836 734.359
307.274 -199.246 775.524
460.209 -209.979 696.122
268.469 -105.341 826.118
367.387 29.6612 815.993
286.268 197.045 504.085
411.643 -254.596 705.081
582.533 -60.1164 691.318
303.109 -260.591 756.956
397.466 -295.908 700.511
379.282 105.727 515.978
354.513 -243.037 737.065
325.135 -110.216 496.221
585.18 -149.281 656.472
602.296 9.28135 697.778
419.488 -224.331 710.481
360.004 -307.177 715.784
271.045 145.12 513.158
253.925 209.769 534.828
391.705 -247.117 717.648
553.558 -197.558 657.821
381.34 9.27645 801.329
350.694 -264.668 731.763
467.447 -272.493 672.229
571.339 -206.286 642.125
252.551 -196.012 796.839
594.187 -174.31 641.926
330.676 -92.199 506.693
270.32 -10.1592 846.67
255.7 209.51 531.582
338.206 -27.8312 812.472
384.129 -227.704 727.216
549.334 -263.467 637.156
458.853 -288.45 673.326
242.002 -257.356 786.697
355.403 -127.184 779.658
289.829 -275.219 759.229
368.966 -17.2449 511
261.487 -100.516 528.804
270.93 -246.997 778.323
330.448 188.031 485.729
243.591 -211.898 795.447
263.039 -117.731 518.043
230.31 -287.832 779.598
417.859 -242.121 704.995
256.785 -280.45 769.568
446.899 -272.451 681.284
314.197 -257.793 752.995
465.076 -206.685 695.524
425.357 -268.295 694.251
677.201 -155.379 577.415
256.271 89.2003 531.822
280.684 -284.452 758.631
574.668 -208.455 635.67
271.115 -144.778 460.006
462.182 -229.115 687.707
341.678 -99.9058 792.468
262.619 -244.689 781.695
430.28 -198.383 714.289
376.632 0.97573 802.718
424.48 -300.412 686.047
243.448 195.031 548.415
295.701 -177.914 790.595
287.17 -107.23 817.083
302.198 194.4 496.446
308.396 -222.105 766.261
293.162 204.343 501.755
341.485 -54.6518 805.088
222.481 -134.233 825.562
586.863 -86.6162 678.964
264.971 -202.378 794.399
327.306 -74.8589 512.358
250.839 -225.295 789.963
300.269 -254.947 760.657
415.353 -193.355 721.699
277.988 -216.417 783.424
325.405 -72.8298 808.097
437.875 -236.73 697.942
292.866 -92.1433 467.811
561.732 -304.068 605.764
543.938 22.7269 732.832
383.678 -134.773 759.139
348.392 -49.823 515.019
331.518 -131.326 787.336
331.513 -90.8527 507.441
319.149 135.103 487.593
589.46 -298.586 597.346
451.181 -270.783 680.105
537.919 -264.426 643.76
381.909 -272.488 715.156
609.1 -42.7437 678.276
425.569 -260.731 697.031
629.292 -144.295 614.277
603.832 -151.765 640.542
245.295 -116.483 525.458
593.262 -101.475 669.032
475.614 -133.951 714.979
501.448 -206.969 681.249
599.848 17.3296 702.525
346.86 -197.043 757.61
211.292 -115.246 835.119
262.662 -287.995 765.742
288.756 -66.2643 826.903
281.726 -178.213 796.565
637.131 -33.2036 641.615
616.123 -7.83627 683.97
254.596 149.775 533.146
256.959 176.649 529.889
293.393 -211.875 776.419
296.703 -242.465 764.886
579.198 -144.743 663.289
425.311 -280.288 690.142
255.438 -92.1177 828.755
377.386 -190.422 742.207
340.12 -248.468 741.611
452.225 -253.721 685.923
622.572 -142.492 622.929
275.408 -143.486 458.999
396.625 -234.182 719.065
311.609 185.692 490.681
448.407 -275.854 680.303
266.982 -110.781 477.783
157.127 -174.083 835.036
295.515 -88.3764 468.784
332.987 -154.82 778.14
262.432 -104.472 526.544
322.275 -204.288 766.343
437.776 -279.479 684.992
280.412 -121.314 815.026
252.397 -262.164 781.831
244.202 -48.3914 843.547
583.973 -116.102 670.742
226.274 -119.85 828.68
389.749 -280.719 708.06
627.725 -25.5793 655.774
671.975 -75.6559 607
371.859 -205.045 739.831
463.796 -246.562 682.807
538.235 -8.3132 724.106
334.216 200.289 483.663
538.008 -127.909 689.268
320.422 -204.081 767.029
562.1 -257.213 631.581
251.32 -215.261 792.294
537.342 -176.328 673.853
597.635 -178.2 626.725
230.786 -220.869 797.249
369.943 -275.593 720.557
280.058 -179.917 793.171
275.54 -219.252 783.567
550.735 25.7074 729.998
236.393 -268.289 785.193
291.403 130.089 497.496
572.207 36.9375 724.294
334.106 -254.187 742.772
524.944 -84.3281 708.171
318.69 -234.51 756.323
248.667 -286.286 772.822
607.03 -293.557 580.787
186.547 -254.786 804.841
275.046 160.45 509.814
354.107 -238.616 739.335
263.278 -93.0091 485.092
314.333 -197.705 771.401
603.913 -25.7439 686.535
335.729 9.37828 827.801
287.424 130.681 500.006
277.436 -18.1333 842.929
308.821 -152.015 794.131
268.029 -93.5903 480.762
380.144 -292.304 710.806
605.572 -196.776 613.39
251.606 -167.113 808.319
570.052 -237.542 632.398
408.869 -291.067 695.741
520.01 -21.5769 726.526
485.143 -124.028 712.599
348.678 -228.462 744.694
434.691 -291.867 683.059
259.271 -189.511 798.52
357.97 -291.337 720.385
497.492 -206.198 683.986
222.807 -251.08 792.053
298.375 -79.4912 472.903
388.999 -195.5 735.475
255.51 8.90144 858.005
305.977 -22.994 835.009
144.037 -183.908 836.934
587.804 -155.626 653.106
526.822 -15.6502 725.116
251.435 185.053 537.709
332.948 177.915 484.342
537.459 -173.469 674.657
467.013 -271.474 671.7
301.369 -225.221 767.193
580.955 -148.542 659.908
332.235 -52.1163 516.558
642.556 -134.181 607.572
270.998 -96.1538 525.349
261.361 -213.097 790.482
408.458 -259.279 705.843
206.931 -205.376 810.665
265.622 -267.437 774.89
609.246 -100.48 661.61
332.144 -105.939 495.944
623.275 -13.2972 669.423
543.534 -158.876 676.066
450.841 -290.288 674.407
189.095 -265.744 800.512
327.379 -109.002 496.62
306.05 -265.975 753.344
469.673 -285.285 665.99
359.795 -288.338 720.621
334.372 179.889 484.105
339.609 -115.813 477.151
299.31 -148.259 799.3
286.949 -65.8565 827.57
358.223 -138.459 772.213
487.712 -250.43 669.969
320.04 -66.432 813.725
455.751 -261.913 682.635
256.022 201.833 531.717
255.778 162.068 529.136
213.838 -152.228 822.051
283.507 -140.104 459.286
602.032 -144.912 648.176
341.835 -83.6813 503.595
355.939 167.48 484.709
292.444 207.999 502.211
354.796 -233.453 740.474
314.103 -304.062 736.98
345.654 5.44309 820.438
225.394 219.024 580.471
363.512 -3.3267 808.023
495.343 -259.547 662.009
638.79 -123.99 621.525
347.503 -115.083 789.705
419.811 -263.409 698.329
246.28 -244.488 787.571
429.117 -252.076 697.242
588.995 -203.486 628.025
355.844 -11.6447 812.416
446.337 -282.022 679.372
140.771 -189.881 837.106
401.841 -207.216 724.403
136.342 -193.191 838.5
274.554 -216.919 784.368
496.974 -168.181 695.629
341.337 -7.82816 817.805
535.49 -1.08863 726.65
318.071 183.81 487.954
585.66 -274.656 602.692
369.871 56.5173 520.287
428.81 -279.426 689.584
369.768 -199.488 742.858
243.214 -252.912 786.736
589.953 -177.026 644.949
580.021 -292.882 603.922
581.434 10.741 712.156
647.518 -68.5062 628.736
444.61 -204.823 703.669
581.378 -190.215 644.322
304.439 -218.73 770.376
278.092 139.327 507.186
329.249 188.431 485.845
402.804 11.6682 788.225
585.824 -13.3134 702.85
222.694 -297.807 778.446
270.316 -225.177 783.513
400.702 -196.955 728.708
338.493 122.582 486.335
576.458 -281.006 608.201
398.4 -243.486 715.325
525.022 -178.235 679.673
416.421 -305.91 687.172
623.791 -175.88 605.479
363.47 16.5415 521.018
582.856 -21.1441 701.122
422.443 -224.494 708.264
702.944 -44.0223 597.929
311.77 -268.419 750.073
503.649 -198.208 683.079
316.367 122.709 488.511
238.523 -217.867 796.091
620.67 -19.3992 671.633
363.682 -45.8049 799.648
317.989 130.876 487.982
300.3 -84.2454 470.527
357.787 -86.6749 482.3
456.69 -267.122 680.077
289.109 182.132 501.852
301.753 218.952 498.377
199.732 -127.274 835.998
377.808 -305.717 705.93
568.498 -64.9696 695.385
283.079 -272.137 764.943
615.406 -81.4699 661.486
266.853 -92.3957 481.839
276.274 -138.886 810.948
402.16 -276.367 703.278
294.037 145.102 496.275
533.68 -148.838 683.948
269.635 -269.001 771.122
314.555 190.065 489.787
265.191 -205.929 791.106
326.929 -107.649 497.911
509.677 -133.621 700.217
349.94 -177.55 765.621
289.112 189.424 502.386
535.343 -218.965 659.837
276.819 -121.233 815.435
561.475 -272.86 628.158
464.314 -188.119 703.277
607.459 -193.592 614.034
255.424 -237.914 786.358
241.379 -82.1399 834.553
307.79 209.792 494.838
463.887 -225.268 687.473
267.409 -228.152 784.798
574.534 -130.855 671.946
379.596 -257.636 720.312
334.072 -109.907 487.442
157.812 -128.387 848.084
305.127 172.298 492.856
493.024 -245.713 671.105
261.622 -122.813 514.772
420.068 -197.056 719.206
557.59 -0.678261 718.18
553.479 -259.607 632.397
281.146 -240.488 775.176
241.106 -176.856 809.706
518.194 -205.72 673.449
193.54 -22.5253 871.205
268.302 -83.6257 534.812
236.648 -282.037 780.141
289.304 166.896 501.117
555.545 -165.225 668.588
422.923 -289.503 691.016
323.914 -226.167 757.68
289.926 -288.758 752.701
236.467 -194.466 803.703
277.822 -198.765 787.625
584.715 -225.572 615.767
339.579 -121.374 790.32
473.767 -291.807 661.617
318.027 -101.334 803.872
589.298 -189.123 634.222
339.908 -97.7989 496.941
386.119 38.5419 806.735
252.163 189.527 535.745
521.495 -90.1338 707.886
592.458 -45.0529 686.17
525.381 -24.9172 723.076
331.526 -137.715 786.565
369.603 -3.6138 514.794
350.2 -65.5609 507.899
594.59 -211.921 617.877
402.611 -273.262 704.953
216.315 -156.616 819.672
252.15 -213.149 793.324
314.236 123.351 488.914
430.138 -287.107 686.643
350.521 155.642 485.482
256.838 -125.089 516.736
564.322 -150.459 671.641
281.632 -140.456 458.91
405.808 -293.946 695.737
358.788 -179.74 757.473
308.359 -110.398 804.732
513.441 -110.265 704.278
690.532 -67.0496 597.021
289.81 118.47 497.644
283.541 -220.245 778.522
532.264 -260.542 644.05
522.871 -217.202 666.801
298.533 227.455 499.781
295.713 197.178 498.631
427.288 -270.559 692.227
393.52 -278.513 706.88
366.651 -281.594 719.287
566.241 -190.44 655.549
268.434 110.309 515.972
361.902 -256.332 730.48
383.797 -183.071 742.28
364.596 12.4661 520.36
394.319 -291.334 702.813
297.797 -129.227 806.437
373.799 -239.91 729.434
565.955 -77.1477 692.052
340.058 164.37 484.614
543.635 -255.287 640.133
349.088 -51.4401 514.248
324.152 -155.714 782.344
307.9 201.16 493.665
348.849 -268.998 731.535
296.21 112.678 494.729
221.008 -152.828 819.227
668.241 -166.256 579.382
534.663 -77.4075 706.443
335.496 -106.686 793.24
318.471 -71.366 812.929
557.786 -196.333 654.555
319.87 -214.941 764.053
557.602 -291.059 623.025
472.664 -273.268 670.23
410.081 -228.308 713.238
619.129 -84.7492 654.267
266.579 -249.314 778.575
361.149 -52.4206 796.717
608.295 -11.7404 689.326
271.401 158.296 512.461
448.113 -303.116 671.814
603.325 -31.0296 686.768
301.814 -204.294 774.814
429.795 -190.95 718.233
363.079 177.216 485.612
671.481 -61.048 611.73
353.608 -292.267 721.874
290.398 199.485 501.686
320.739 -181.334 776.839
323.106 218.064 490.305
346.44 -200.121 756.763
298.993 -274.447 755.011
527.412 -155.342 686.143
359.172 170.525 485.074
461.936 -255.07 680.633
467.909 -244.341 680.743
356.694 -31.8468 515.908
287.93 203.615 504.171
294.753 -211.328 776.392
507.1 -149.022 697.184
218.495 -141.194 824.495
298.758 -83.5353 471.071
343.591 -216.967 751.362
373.643 -224.569 734.111
589.023 12.1887 708.664
502.569 -86.8119 716.574
338.125 153.693 484.06
270.288 -182.168 798.831
288.208 228.978 506.324
414.227 -292.863 691.541
321.173 -257.611 748.621
299.091 208.869 498.282
507.345 -203.805 679.072
264.792 -92.089 483.578
314.639 -214.459 765.876
461.694 -260.398 678.778
189.237 -110.157 846.014
563.825 -70.2155 695.992
345.622 -55.441 514.304
686.265 14.1178 627.136
574.012 -199.485 645.735
320.638 202.458 488.701
367.473 -300.929 713.183
315.374 193.219 489.583
614.29 -19.183 681.423
575.752 -138.389 669.689
371.433 -242.227 729.642
308.581 -287.412 744.508
402.375 -225.858 719.036
366.719 -5.39669 517.364
246.224 158.756 547.424
617.76 -173.435 615.747
508.912 -11.6589 735.671
249.659 181.456 539.776
601.018 -311.611 591.069
155.32 -103.959 856.69
316.475 200.018 490.246
295.175 -272.379 756.997
440.41 -236.164 696.812
367.146 -2.30429 517.503
325.501 -236.079 753.593
261.413 -222.298 790.33
228.949 -226.587 794.867
717.319 -17.3585 596.129
310.113 195.326 492.251
446.744 -206.26 701.979
265.907 -99.8735 480.114
558.946 -275.665 627.07
261.963 174.616 523.067
387.14 -241.968 722.265
263.197 175.533 521.826
218.016 -127.755 829.654
354.839 -15.7915 520.857
382.23 38.9706 810.387
282.472 181.973 506.024
290.679 -35.7416 834.492
446.366 -267.875 682.946
340.218 175.915 483.266
356.207 -267.419 728.642
410.822 -200.837 722.025
425.534 -254.283 698.318
233.114 -220.26 796.493
316.041 142.371 488.186
377.201 40.6402 814.97
362.967 -241.558 733.513
266.467 -124.336 473.105
416.53 -244.009 705.095
294.364 206.072 501.397
236.866 -108.093 530.456
644.789 -100.267 622.374
661.99 -137.179 592.122
322.762 -184.852 773.969
590.805 -0.372344 705.352
284.941 -242.724 773.187
272.669 -237.732 778.709
518.54 -157.607 689.154
283.038 -140.045 459.23
466.591 -258.449 675.202
253.134 -293.515 771.649
517.563 -87.7637 710.115
677.92 -212.147 558.007
539.917 -163.881 676.438
289.492 206.519 503.625
450.518 -283.281 676.716
476.22 -99.3077 724.136
342.216 -250.176 740.07
366.898 -245.143 730.598
325.217 -95.5445 505.662
405.162 -273.981 703.646
391.04 -225.023 725.924
412.409 -272.891 701.291
262.462 100.967 523.657
372.035 -279.302 717.717
341.102 -78.9992 506.23
381.597 -215.721 731.711
512.197 -225.742 671.516
250.351 -126.778 518.382
282.337 -266.246 769.956
300.855 -130.733 802.634
529.386 -80.4061 707.571
411.096 -275.892 700.927
525.977 -123.575 694.443
612.339 21.0605 694.197
575.347 -168.497 654.86
267.744 -227.987 784.466
464.15 -297.655 666.608
289.371 -283.947 753.424
358.785 -237.176 737.883
619.359 2.60477 685.985
349.838 176.852 483.715
369.872 -263.865 723.455
293.928 222.489 503.127
301.069 181.877 495.246
672.133 -128.831 586.934
305.697 -143.813 800.22
503.387 -218.65 677.162
242.812 185.873 549.572
638.575 -141.941 602.939
310.961 26.6547 844.623
271.405 147.3 512.59
289.172 -180.994 791.021
269.079 -96.8098 526.472
456.828 -173.684 712.579
405.953 -215.083 720.563
553.948 -245.874 638.45
225.257 -274.61 783.814
416.262 -220.024 713.345
310.997 -288.349 742.794
258.423 -273.954 774.074
266.035 -286.818 763.083
289.54 -292.508 751.776
311.128 -232.111 760.945
169.554 -220.194 817.855
261.689 -176.804 803.189
576.674 -219.458 633.569
404.699 -300.124 693.574
236.042 -32.4357 849.183
378.748 -243.73 725.354
278.693 -294.729 756.495
143.902 -207.875 830.628
554.402 -84.5237 695.417
394.542 -244.759 716.861
247.253 175.43 541.052
299.571 -124.004 805.983
302.077 -246.706 761.006
527.32 -196.041 673.318
269.261 -140.04 461.978
468.292 -285.192 667.936
325.57 -166.555 778.502
269.72 120.359 513.788
283.031 208.728 506.928
363.977 -11.1241 806.167
435.629 -245.508 697.887
473.247 -254.136 671.928
402.086 -284.361 699.951
414.867 -254.673 702.976
626.904 8.33638 677.481
257.25 -97.6301 532.383
474.891 -169.454 705.02
326.517 -245.129 750.883
262.224 -277.992 770.113
477.031 -196.014 694.851
250.435 -246.945 784.929
401.644 -260.683 708.612
412.622 -192.959 723.223
486.863 -305.841 650.76
266.998 130.088 517.162
253.702 208.079 535.115
455.043 -258.26 684.093
260.194 -179.309 801.814
299.85 181.509 495.753
300.278 -183.777 785.129
334.721 -250.099 743.557
282.755 -207.181 782.016
534.714 -212.593 662.388
419.014 -214.113 713.75
261.13 -95.9448 531.46
347.3 -105.115 479.568
388.396 28.9016 801.754
400.416 -244.296 714.447
461.402 -210.681 694.948
288.498 -103.069 468.901
354.898 -54.7842 509.01
267.704 -252.509 776.328
567.672 -288.316 612.477
593.868 -95.7189 672.043
354.841 -85.9845 487.268
703.138 -14.5429 607.39
327.478 -36.1168 819.851
666.716 -131.163 590.081
472 -182.317 700.937
265.471 -163.022 807.528
674.9 -142.345 583.029
596.92 36.9941 711.984
306.917 -262.536 754.03
573.848 -168.016 655.516
263.743 -125.541 509.261
531.225 -191.33 672.659
499.659 -149.839 699.537
339.862 -96.7389 497.979
460.622 -290.653 670.562
352.887 -235.25 740.428
260.574 -230.553 786.914
327.09 -217.123 759.879
283.051 139.676 502.64
299.915 206.912 497.889
264.702 -43.828 836.2
513.626 -157.633 690.306
342.502 189.541 483.829
304.577 -266.453 753.676
452.265 -282.942 676.576
360.942 -40.1104 509.988
329.712 -22.6026 822.102
333.452 -120.752 477.021
258.017 -97.0672 532.283
254.192 -81.3738 830.313
403.532 -220.729 720.087
327.16 -110.799 494.51
320.265 -224.455 760.832
266.433 -241.075 780.645
572.907 -75.8777 689.315
260.709 96.5986 525.772
391.369 -288.651 704.776
320.137 -118.877 488.608
350.142 -261.309 732.672
347.831 176.78 483.811
319.688 195.941 488.332
626.2 -8.52495 662.436
458.578 -242.805 687.33
235.127 -300.701 776.43
305.337 -162.322 789.977
290.56 -204.413 780.985
416.737 -258.906 700.755
309.592 148.611 490.518
303.045 159.432 493.47
279.547 -212.918 782.596
595.316 -166.361 642.992
554.085 -193.5 658.634
306.783 201.05 494.205
258.539 83.7959 528.189
272.472 -96.0309 524.313
288.171 196.216 502.661
253.93 -199.996 793.698
347.095 -85.1078 795.257
152.014 -108.611 856.633
459.666 -251.248 684.098
593.731 -86.6947 675.031
188.471 -136.913 837.819
422.16 -296.271 688.28
388.136 2.16792 795.253
391.641 -222.694 726.228
516.735 39.0266 747.931
310.81 -232.601 760.663
260.156 -227.123 787.649
678.649 -212.078 557.722
216.897 10.6074 871.702
447.078 -203.829 703.485
321.625 -172.192 780.298
441.737 -179.562 717.323
324.764 -161.701 780.785
380.065 -198.697 739.047
316.21 -216.101 765.049
488.168 -259.266 667.259
273.789 109.852 509.62
508.676 39.446 750.567
590.234 -282.855 598.161
503.373 -47.2433 728.845
356.834 -283.561 723.784
260.309 148.972 524.635
219.957 -290.517 780.468
705.94 -94.8427 581.465
561.031 7.17819 718.711
571.862 -273.279 620.661
296.278 122.686 494.81
257.864 135.424 530.019
280.076 182.475 507.634
667.719 -278.734 547.236
288.292 220.871 505.129
315.088 191.007 489.511
512.759 -249.599 659.439
296.046 -275.617 755.488
336.414 -109.22 484.88
292.085 -271.236 759.019
334.942 202.416 483.597
250.98 -228.076 789.192
687.445 -35.5095 610.393
535.72 -197.931 669.653
584.132 -158.784 652.281
298.3 -35.847 833.312
267.373 -21.8974 559.325
276.66 131.523 507.899
226.757 -107.76 832.505
280.9 200.033 508.764
337.339 -262.201 739.212
235.348 -278.389 782.93
353.264 197.794 483.081
278.911 -174.478 797.902
585.456 -226.433 613.077
508.05 30.5669 749.034
340.259 -92.2644 500.578
406.147 -201.447 724.39
563.863 8.36375 717.68
584.492 -124.173 668.393
465.658 -262.716 674.232
360.721 -0.547931 809.347
487.074 -44.8678 735.694
533.846 -262.107 644.333
263.91 150.919 520.062
341.242 -127.351 787.131
319.796 -5.10249 829.845
407.186 20.3591 786.483
244.944 196.554 545.266
257.592 -182.194 802.016
276.311 134.107 508.818
424.971 -292.532 688.991
210.884 -85.9468 844.449
396.218 -199.153 730.388
386.643 -186.162 739.718
518.189 -9.30589 731.887
329.304 -106.125 498.65
336.715 -258.991 740.065
551.004 -277.424 632.573
247.45 -81.5213 833.933
268.861 -85.1154 483.433
309.492 -296.474 740.573
335.216 -114.406 481.553
378.29 -184.127 744.255
309.098 -34.2406 830.327
418.411 -202.075 718.356
555.619 -213.113 649.426
312.466 -237.272 757.879
291.579 -33.5076 835.066
560.477 -224.871 642.697
363.301 33.3408 819.917
286.12 201.858 504.676
305.062 -126.67 475.126
468.616 -276 671.022
299.699 18.6462 845.213
374.03 -278.993 716.757
302.011 191.662 495.725
423.195 -258.2 698.631
223.571 -154.082 817.345
416.86 -220.372 713.411
327.522 -236.421 752.615
348.65 -291.204 724.661
334.403 189.606 484.365
373.348 37.3199 815.75
242.439 -297.299 775.147
519.833 -165.123 687.498
465.549 -211.956 692.843
287.059 206.066 505.008
564.24 -188.333 658.301
241.381 198.062 551.927
288.458 208.242 504.054
553.514 -248.14 637.65
587.074 -143.626 658.325
487.886 -246.669 671.665
349.811 -245.717 737.693
342.777 183.542 483.74
247.974 -90.7832 538.639
467.031 -215.703 690.066
293.168 -74.5673 472.728
545.542 -155.643 676.181
338.2 -72.1779 512.926
360.602 -247.412 732.645
462.389 -294.564 668.879
267.672 -100.31 478.951
263.768 -211.067 791.631
265.135 96.3572 518.805
254.312 192.114 532.757
236.483 -33.6632 848.565
322.377 -257.634 748.155
599.362 -204.469 616.544
610.94 -23.3156 680.034
354.49 -20.9282 807.12
554.403 -290.994 622.541
351.282 -128.508 781.88
242.863 -226.685 791.539
407.575 -293.716 694.741
304.208 206.502 495.582
362.997 -0.301239 810.122
291.953 -78.3566 472.801
599.268 -31.7296 687.289
587.445 -196.441 630.631
247.923 204.008 540.919
603.92 -277.811 586.011
259.643 -275.708 772.811
260.213 -118.299 519.789
521.99 -159.885 687.502
597.957 -244.153 603.383
283.406 -80.1703 474.999
516.659 -120.449 699.029
335.469 -119.537 476.303
428.154 -249.456 698.343
640.168 -125.438 620.387
492.959 -87.1966 720.263
241.642 -268.631 783.572
581.75 -230.706 619.523
375.012 -216.464 735.351
260.457 -228.029 787.279
328.452 -224.999 756.049
674.188 -32.9798 620.093
335.521 131.092 486.244
340.228 -94.4507 499.422
276.434 168.936 509.735
262.197 -256.287 780.785
660.724 -20.7409 639.098
385.383 -257.894 717.474
442.202 -213.102 701.614
350.504 -47.7991 514.392
344.881 191.148 484.212
581.507 -213.836 627.124
472.642 -207.038 692.311
264.992 -200.089 793.849
204.179 -128.498 833.878
413.703 -198.768 720.879
572.639 -178.116 653.778
420.035 -247.074 702.98
269.105 -261.876 773.481
397.645 -278.717 704.173
575.294 -45.0575 697.388
354.472 -272.152 728.525
384.937 -263.943 715.915
503.971 -191.148 685.303
334.134 -66.1228 516.04
323.001 179.712 486.477
356.849 -242.898 736.727
404.416 -270.266 705.65
456.236 -248.217 686.496
342.83 13.0242 823.5
363.03 -204.337 744.771
320.074 -183.767 775.392
378.193 -8.65049 799.063
572.391 -211.567 634.488
412.073 -280.226 697.103
279.243 -282.752 759.975
615.223 -213.464 596.816
647.603 -7.93902 657.967
294.532 -240.941 767.206
276.041 119.24 507.854
268.196 -206.042 789.575
363.255 -39.68 507.527
494.022 -64.0832 726.998
329.801 -8.37813 823.802
392.539 -263.933 711.38
553.461 -66.9413 702.322
511.473 -251.696 658.218
592.523 -186.586 626.971
451.661 -216.068 696.607
423.324 -285.595 692.142
439.837 -243.17 696.373
504.858 -177.718 691.587
563.904 -277.314 624.458
262.191 -279.114 768.184
578.174 15.3174 715.057
500.059 -152.503 698.011
580.855 -46.3294 694.599
262.678 100.539 523.26
339.567 -12.3159 817.945
367.479 -182.568 750.339
330.875 -90.1581 507.899
516.618 25.4261 744.15
267.826 -83.4795 484.952
317.622 191.251 488.615
418.323 -285.32 692.88
406.22 -203.502 723.448
278.155 -223.539 780.99
245.467 -94.0807 832.135
351.282 -81.455 794.333
569.313 -262.772 623.738
277.816 -260.769 770.518
283.5 130.249 502.586
272.201 -81.7297 531.573
331.545 -82.9356 802.172
413.182 -252.936 704.842
243.505 173.157 545.753
243.249 199.056 548.204
538.902 -42.0233 714.725
312.615 -265.664 750.511
312.606 22.5857 840.034
247.902 -96.0104 536.831
439.298 -237.414 697.22
295.768 199.535 498.599
668.216 -73.2406 610.215
262.732 173.365 522.231
512.015 -6.06264 736.398
418.461 -181.802 723.951
222.162 -224.473 798.555
331.222 -42.6412 814.507
421.93 -264.681 697.019
365.164 -217.269 739.529
315.627 -72.0703 814.05
622.156 -131.324 624.61
358.176 172.776 484.565
592.479 -208.66 621.938
306.155 -226.397 765.321
250.08 -275.007 772.826
369.817 -294.828 714.268
591.936 22.5321 709.809
475.448 -238.337 679.198
286.167 191.268 503.795
359.705 -148.174 767.869
578.794 -298.016 601.966
322.535 135.768 486.852
637.69 -14.6305 657.806
308.427 197.438 492.932
698.667 -11.3751 611.39
553.113 16.4674 726.387
615.615 -154.06 625.487
292.092 205.028 502.474
562.008 -204.721 648.905
612.404 -95.7801 660.428
575.373 32.8696 721.749
341.516 -61.6725 514.413
263.336 -165.068 807.132
295.064 143.199 495.641
457.363 -244.941 687.398
263.311 190.008 522.114
284.207 -63.9625 828.52
354.356 -197.323 754.053
333.758 -97.8378 501.583
332.033 -232.288 751.244
678.771 -138.528 581.791
330.95 -83.2199 802.326
582.685 -214.282 625.131
440.579 -279.706 683.571
302.286 -252.339 759.075
561.389 -114.693 682.922
550.078 -81.318 699.074
331.341 186.954 485.343
535.536 0.779029 727.68
330.436 8.99789 829.185
546.464 -1.9643 724.709
429.122 -281.359 689.284
576.516 -258.693 617.124
570.729 20.4312 719.48
350.981 -45.8584 514.621
565.153 -272.478 625.031
508.815 -102.879 709.437
302.429 -135.128 802.107
285.947 -206.557 780.592
357.831 -166.988 763.868
268.604 -184.514 797.163
367.567 -178.59 751.995
569.866 -290.321 609.772
314.423 -211.682 766.784
315.495 -112.134 493.711
596.549 -123.082 661.353
267.708 -85.3538 484.267
279.898 132.978 505.541
306.007 -129.077 800.656
273.285 -259.35 773.301
571.282 -169.097 657.144
380.938 -213.094 733.413
424.831 -311.222 680.479
609.29 -15.4861 687.035
485.25 -294.618 655.881
488.977 -268.168 663.894
270.646 -76.8925 536.297
282.227 -115.628 817.101
338.612 -219.697 752.57
573.302 -95.4934 682.822
188.65 -249.141 805.777
278.731 -189.571 791.948
248.722 -287.827 772.979
534.779 -162.555 679.551
602.015 -161.524 634.622
265.803 -95.9246 528.758
338.923 -92.6642 501.527
359.778 -64.6635 500.361
340.934 -58.3805 514.855
379.591 -258.735 720.054
252.013 189.742 535.901
549.861 28.4746 731.251
240.324 -281.381 777.936
335.358 157.564 483.819
586.019 -168.999 649.602
374.113 -256.575 723.188
573.473 -167.697 655.76
292.321 -172.156 795.977
557.773 -277.47 628.023
227.71 -272.03 785.526
247.466 159.473 545.064
554.874 -58.1555 703.88
401.623 -259.233 708.838
275.959 -223.085 782.354
523.923 -20.7229 724.96
335.27 198.188 483.309
558.943 -254.291 636.695
480.14 -244.629 674.995
265.829 -110.593 478.549
226.23 -57.409 846.7
484.102 -256.847 670.122
324.932 194.257 487.124
587.668 -180.487 646.078
277.245 153.185 507.48
272.818 -216.368 785.762
602.141 -11.1301 692.029
558.12 -201.336 651.527
311.204 21.0228 839.56
375.225 90.421 517.718
243.274 166.579 550.359
314.933 156.346 488.794
491.529 -149.64 702.891
430.043 -280.251 688.593
299.531 -304.341 742.429
262.847 -127.145 509.397
545.405 -39.4462 712.641
571.871 -34.3108 701.805
365.721 -204.31 743.768
346.447 164.389 484.328
534.726 -168.927 677.513
383.906 -231.107 726.021
287.618 -79.9724 474.031
306.074 -256.845 757.148
558.746 -48.1056 704.429
325.715 -228.29 755.424
336.674 -288.876 731.524
444.801 -294.112 676.27
295.103 -215.683 775.314
334.908 135.043 486.146
284.996 -186.504 787.453
301.994 -237.997 764.186
347.975 -96.0843 791.652
561.803 -106.352 685.737
285.178 -187.186 788.184
432.938 -200.83 711.285
385.518 -227.853 726.693
430.142 -211.739 708.534
310.025 -247.106 757.46
572.499 -170.291 656.188
354.493 3.10906 521.339
361.504 -51.9517 503.359
437.458 -226.893 700.504
626.65 -186.361 596.563
534.844 -251.801 642.892
320.61 -59.3464 815.607
406.572 -195.027 726.663
389.443 -225.399 726.492
340.193 -49.4321 806.426
423.9 -262.021 697.525
302.14 -249.284 760.937
332.887 -241.838 748.232
334.878 -74.702 512.592
463.166 -205.763 696.334
578.18 -307.946 601.88
495.797 -78.1259 721.653
285.702 -266.385 763.576
241.978 -283.037 777.687
475.417 -202.826 692.083
529.872 -179.569 675.622
457.194 -277.494 677.282
454.214 -170.882 714.397
234.013 165.394 570.728
269.648 -257.943 773.21
358.176 -12.6595 520.638
471.973 -243.448 679.554
231.399 -298.404 775.567
342.397 -13.2522 518.414
534.191 -130.468 690.135
343.652 200.089 483.09
324.114 -121.392 793.738
609.483 -124.382 648.21
369.115 -192.545 745.928
322.765 70.0763 487.574
353.706 -261.723 731.351
292.883 143.108 496.777
324.656 185.445 486.437
261.038 10.9046 856.373
290.153 210.049 502.649
255.926 -116.632 821.681
270.207 -142.042 461.099
305.649 221.19 495.518
275.255 6.91271 850.655
335.489 -91.8177 504.666
235.163 -27.7804 852.078
314.841 -200.278 770.295
365.768 -266.604 725.188
534.176 5.84688 730.031
563.391 -235.826 634.996
268.812 -264.547 772.819
348.003 -32.186 806.852
523.173 -143.449 691.354
331.231 189.664 485.632
315.476 -109.457 803.393
418.896 -261.813 699.244
235.985 -58.9337 842.004
287.829 -49.1721 832.282
291.105 217.683 503.347
204.594 -23.2364 865.968
363.703 -301.512 714.505
425.593 -276.642 690.573
248.582 -89.4092 538.851
268.442 -141.358 462.896
349.381 203.084 482.657
322.541 -266.336 745.281
430.838 -200.536 712.687
382.247 -246.594 722.834
518.798 -179.978 682.112
375.056 -270.328 719.762
257.043 -220.204 788.915
289.94 -248.755 768.32
292.674 -114.126 465.182
557.466 -194.886 656.851
257.047 80.9658 530.958
358.712 -211.81 744.452
371.982 -215.221 736.947
296.838 -226.431 770.382
499.344 -217.465 679.145
356.568 -221.77 742.602
298.905 -142.732 801.309
267.907 111.773 516.431
511.968 -153.499 691.839
610.524 -187.196 617.778
217.276 -36.0069 856.782
306.94 -8.43055 835.525
381.418 -180.23 744.684
268.264 -226.427 783.816
554.936 -176.026 666.982
319.671 57.3206 485.441
535.399 28.3635 738.205
260.213 -17.178 563.616
273.186 -154.053 806.786
384.742 -267.428 715.405
274.626 204.5 513.062
605.09 -151.444 636.45
568.735 33.0517 724.429
236.63 -228.736 792.659
262.569 -114.864 519.915
