264.306 -14.9142 564.835
304.261 -259.396 757.119
590.036 -249.285 627.785
262.451 -291.986 772.15
265.749 104.583 518.296
375.824 -218.775 734.887
245.091 -253.89 792.348
244.455 -152.118 817.286
255.263 -188.866 801.841
388.143 -236.387 723.268
338.116 -98.4042 497.829
571.731 -284 614.676
290.56 203.274 505.864
185.023 -135.563 838.511
504.014 -26.1768 733.363
357.803 -125.793 775.815
263.52 -16.1709 563.437
262.78 -169.341 803.555
498.474 -142.605 701.265
297.535 -285.371 752.849
287.151 130.712 499.589
600.121 -14.6563 692.195
242.01 -203.178 800.68
322.918 -279.861 736.367
351.094 -288.805 722.881
401.87 -221.138 720.466
330.507 -63.0588 809.278
305.348 -239.602 760.138
267.749 103.321 516.896
271.065 -90.4571 530.124
351.16 157.752 484.927
252.122 195.503 537.139
253.536 72.8384 530.124
494.714 -299.403 650.408
553.155 -283.855 607.83
350.555 -94.4935 478.929
581.087 -131.255 671.78
315.165 127.751 488.847
378.021 -273.733 716.176
343.418 -69.6163 793.936
265.709 -106.758 478.831
278.71 -150.374 801.203
578.078 -166.202 653.251
254.94 -276.396 773.668
251.294 -212.34 791.058
274.592 -72.2627 529.028
210.669 14.3196 878.637
288.564 -273.563 758.122
632.428 -130.073 627.124
402.656 -219.954 721.595
314.278 23.9325 852.028
297.357 -129.045 805.696
215.369 194.43 595.31
578.706 18.3624 713.717
243.083 -237.372 786.911
408.818 -210.346 719.596
646.989 30.7113 688.992
581.46 -231.672 619.891
626.219 -2.94192 680.888
439.43 -291.682 681.871
276.209 -78.7759 478.597
344.479 -22.451 810.119
617.56 -156.756 609.99
453.483 -170.452 713.073
556.335 -240.66 638.478
510.597 -140.079 700.964
562.269 -236.003 629.178
425.831 -256.879 697.572
575.546 20.8506 718.181
297.087 -114.833 808.517
533.334 -102.239 699.195
250.811 -224.487 787.208
264.508 -193.22 797.764
345.762 88.5301 493.153
220.297 -150.119 817.887
262.871 -106.623 526.012
406.51 -224.501 717.158
339.015 -113.107 479.992
379.74 11.2916 804.633
258.857 -293.258 766.487
402.713 -227.089 713.897
270.635 -116.796 476.147
366.851 -245.111 730.494
263.204 -124.974 508.626
262.104 -267.354 778.92
449.059 -233.777 693.487
582.442 -196.132 617.459
408.637 -282.97 696.561
269.084 -91.3993 531.25
304.115 -261.511 755.588
355.138 -163.831 767.623
431.594 -277.274 689.542
606.213 -122.836 645.931
252.85 -70.3898 544.337
367.775 -1.29364 806.756
301.401 168.033 495.518
407.832 176.378 502.418
296.518 -165.343 792.274
245.259 -179.947 807.004
594.486 -4.98006 702.938
257.044 -215.481 785.936
413.853 -261.258 701.356
269.881 -181.157 797.26
584.532 -124.197 668.462
465.058 -157.016 716.283
520.026 -189.834 678.328
586.397 -8.91601 703.536
434.545 -266.523 690.71
150.55 -178.768 836.185
283.422 177.681 504.701
550.465 -127.952 683.856
220.016 -152.012 816.453
272.154 -93.5017 525.251
388.036 2.21534 795.097
272.021 9.09358 846.01
333.284 -211.802 754.666
372.852 -256.319 724.471
594.593 -190.681 624.001
585.207 0.733442 706.246
176.523 -87.7858 855.476
571.405 -276.002 611.743
301.936 -164.163 788.36
604.676 -218.932 610.751
254.909 -267.786 778.606
189.468 -265.984 801.346
269.08 -80.0303 535.878
283.152 -80.1837 474.3
271.385 177.605 513.207
283.049 -140.083 457.959
683.755 -216.257 555.602
658.129 -143.775 591.835
292.648 -252.997 760.284
476.449 -203.656 693.928
530.58 -39.9613 719.679
386.391 19.4523 802.347
217.786 -4.55419 864.694
262.262 -104.336 526.312
341.192 157.023 483.566
311.861 -198.055 774.325
526.411 -297.982 637.411
506.774 -232.981 671.367
408.276 -287.565 696.532
426.571 -231.67 705.651
296.073 -134.516 808.464
455.04 -270.054 680.271
539.625 -45.915 713.753
249.33 145.622 546.15
220.095 -290.701 780.995
523.52 -21.9713 719.542
389.476 -3.57913 790.109
534.228 -183.228 675.137
545.918 -75.515 702.605
415.384 -232.072 710.473
396.183 -276.21 705.892
285.193 -150.572 804.604
273.028 -130.655 462.268
350.064 -310.211 720.351
477.202 -245.324 670.712
305.936 -252.928 757.5
128.44 -202.652 844.524
263.677 -91.7171 821.474
344.33 -181.721 757.631
296.586 207.774 502.794
256.871 87.1254 530.629
366.865 -19.6853 805.045
284.917 -176.801 793.058
233.961 -7.1671 862.818
696.592 -119.873 579.147
385.961 -272.798 713.339
475.432 -241.949 681.764
331.116 -280.427 736.693
423.232 -242.371 703.085
500.972 -206.705 680.34
300.386 -120.114 802.117
367.899 -178.835 752.649
450.123 -252.834 687.287
306.357 -234.619 757.411
620.46 -174.693 602.954
374.594 -1.87516 804.104
353.456 169.624 484.066
355.836 167.582 485.847
268.362 -120.13 475.122
586.272 -169.133 650.175
362.645 -40.747 508.074
245.149 180.419 542.344
368.293 -3.29488 515.68
294.466 177.925 498.676
558.396 -291.778 624.048
244.961 196.555 545.278
244.381 -93.4029 829.284
416.435 -214.638 714.311
356.798 -283.533 723.712
244.842 -283.882 775.434
286.839 -285.032 755.811
335.488 -119.558 476.341
464.989 -214.729 686.563
260.443 -269.421 774.952
306.322 -158.105 791.338
649.832 -33.2519 653.827
529.413 -291.361 637.74
627.037 -138.173 608.892
596.194 -131.169 661.015
297.252 -306.262 743.064
280.479 -171.608 800.319
257.827 141.104 528.939
278.998 -294.925 757.171
313.942 -303.903 736.551
403.833 -233.06 716.379
366.819 -20.2312 512.522
367.786 -287.185 717.32
291.676 -228.074 770.594
311.459 -208.589 768.917
593.552 -215.106 619.25
322.844 218.185 489.47
403.3 -214.238 721.623
309.51 216.525 494.501
641.507 -135.499 624.319
253.234 -122.975 521.262
265.279 -108.421 479.312
350.401 -65.6773 508.159
309.993 22.1758 836.603
634.304 -14.4348 659.966
295.628 197.199 498.404
391.959 -227.601 726.432
352.495 -162.62 768.242
513.254 -253.65 661.792
423.277 -297.833 687.064
277.572 147.004 507.133
251.974 -243.059 786.722
283.448 133.366 502.357
350.035 -284.452 725.876
289.439 206.528 503.52
292.611 206.494 501.274
283.378 -287.744 761.65
306.026 -256.813 757.016
588.465 -4.30698 714.326
316.86 127.108 488.308
315.655 -215.051 768.087
601.289 4.5481 697.212
265.979 -82.9133 535.872
373.529 23.752 807.888
397.743 -202.704 727.452
286.654 -204.306 780.086
582.178 -117.134 663.696
324.171 -173.841 776.13
257.561 137.503 531.392
362.089 -289.643 718.259
353.356 -59.9115 508.381
259.601 -101.29 530.472
596.074 -156.267 648.597
543.486 -184.297 668.468
491.461 -174.958 697.697
273.828 154.522 510.881
248.602 137.147 541.568
594.713 -174.236 632.749
255.771 -293.763 767.662
555.17 -246.272 640.831
287.209 144.526 500.128
325.001 -118.86 486.74
324.947 -125.393 482.492
406.312 -194.869 726.196
256.777 -124.995 516.612
419.465 -209.495 715.026
580.939 -183.473 646.969
277.667 -183.02 790.842
264.928 96.3805 518.666
332.457 -241.578 747.51
279.355 -190.498 789.524
377.872 -187.823 741.747
267.405 -190.754 794.78
324.307 -62.6724 812.582
400.751 -196.988 728.811
382.222 -27.5714 789.529
416.932 -276.216 696.866
263.047 -252.457 775.418
453.974 -283.115 674.834
387.229 -186.543 740.854
266.778 -270.876 772.495
185.977 -254.347 803.288
383.875 -231.086 725.953
275.905 -58.7425 536.125
530.718 -205.855 664.805
447.614 -204.507 704.761
253.617 190.971 534.113
295.786 -239.788 767.403
443.35 -205.53 705.768
295.717 177.36 497.646
280.842 -203.982 782.713
286.812 -206.22 778.551
403.931 -303.606 694.291
558.659 -318.504 612.223
335.226 155.031 482.808
428.785 -293.623 685.885
496.1 -229.668 676.366
417.623 -287.047 692.349
259.374 97.1395 526.644
371.647 31.098 807.262
300.685 -265.971 755.17
365.121 -209.843 742.306
398.67 -237.648 716.874
272.586 -127.78 460.152
583.719 -169.12 651.527
328.35 134.123 485.527
542.64 -36.4147 717.26
364.604 -243.357 731.828
380.886 -213.05 733.301
442.326 -213.158 701.877
619.735 34.486 696.787
304.315 21.6111 853.783
246.853 -214.701 796
279.542 148.106 504.664
367.296 -275.988 721.112
256.702 -287.768 768.546
284.13 -220.261 776.022
372.037 7.51406 810.339
293.521 -269.803 758.728
564.421 -208.068 645.992
248.465 -231.086 789.648
640.61 -113.404 625.588
415.157 -234.694 709.872
299.273 -87.4283 818.238
406.783 -235.414 714.042
568.473 -245.991 613.587
368.391 -266.12 723.535
396.948 -234.41 719.485
534.469 -215.019 665.084
346.428 -286.878 727.88
282.076 -295.169 753.948
262.171 177.022 522.37
493.936 -265.244 663.864
321.463 196.609 486.967
338.665 -147.634 780.937
435.725 -245.574 698.109
379.416 2.4228 800.555
361.952 -272.225 724.382
466.673 -248.683 680.079
380.613 -248.512 722.953
357.374 -5.91577 815.011
289.573 227.709 504.796
264.079 136.489 520.731
279.927 168.8 506.284
247.627 -246.877 785.009
339.957 -248.754 740.997
398.688 -185.859 731.68
333.595 -236.93 749.623
241.593 -257.095 785.352
399.647 -9.01954 786.911
250.334 207.088 535.981
353.711 -238.258 738.299
436.759 -259.37 693.157
567.129 -286.9 618.22
378.655 -13.8522 789.681
306.339 198.4 494.138
399.281 -268.695 707.859
252.557 -268.676 779.328
478.613 -269.766 670.158
427.586 -243.836 700.236
288.905 -269.272 760.084
439.903 -231.729 697.731
406.291 -269.92 704.199
356.48 -271.667 727.311
240.785 -294.362 775.042
419.818 -196.838 718.588
298.745 -274.232 754.404
259.238 -121.206 518.767
430.078 -277.917 690.399
296.05 -172.225 795.546
454.313 -206.691 697.943
326.166 -211.548 765.362
260.669 99.9669 528.633
267.113 -110.814 477.949
268.815 -93.9672 529.14
353.036 -278.717 726.508
327.271 -278.261 738.961
262.094 -90.9409 821.949
353.311 -56.2124 509.338
548.19 23.3145 730.484
234.692 -282.249 781.316
296.338 -292.655 749.078
274.548 -283.911 762.117
422.763 -224.638 708.811
246.854 -92.5109 831.48
449.054 -227.996 696.03
376.78 -291.18 711.54
366.431 -266.638 724.356
289.657 -292.554 751.967
303.368 -293.244 745.053
558.677 -209.374 654.014
703.045 -44.0774 598.08
252.016 -293.834 769.631
309.664 -231.679 762.241
485.142 -294.865 659.286
241.996 -297.272 773.632
357.245 -297.132 719.194
268.495 -236.601 781.847
601.771 35.4014 702.8
468.459 -220.411 687.619
292.996 192.132 499.596
580.24 -202.415 638.528
291.743 183.507 499.917
323.728 -117.58 487.823
277.279 168.484 508.356
351.047 168.154 483.628
654.984 -39.3519 625.339
536.559 -151.201 682.677
369.185 41.2067 822.376
246.794 -271.063 774.903
537.234 27.2238 742.583
440.633 -259.679 691.321
350.748 186.002 482.807
315.68 139.477 487.935
252.221 -195.494 795.72
511.645 -279.563 648.919
353.604 -46.8333 513.377
572.828 -223.256 625.38
262.653 96.3966 527.022
285.714 -200.906 781.403
242.927 -95.7672 834.426
291.646 -205.906 783.714
416.888 -258.078 702.183
241.515 -149.298 817.069
323.087 -251.024 749.466
262.84 -117.555 517.797
401.884 -259.396 709.476
254.479 -173.567 803.995
372.301 -182.56 745.571
264.646 -180.626 797.675
376.396 -261.302 720.594
340.168 -111.986 472.513
344.657 -65.846 511.488
417.393 -208.609 716.747
455.85 -274.842 677.742
313.085 -255.676 753.655
269.174 -213.39 785.269
254.402 157.884 534.118
282.569 -219.839 777.019
322.427 -184.621 773.427
351.209 -233.423 741.424
356.546 -82.457 792.089
294.673 -226.211 770.532
310.438 151.203 491.024
698.017 -94.4536 578.203
596.261 -29.743 692.209
701.002 -95.9639 582.57
380.771 2.27478 798.751
601.412 -32.9135 690.852
309.775 187.194 491.011
394.22 -35.8365 779.81
227.807 -128.332 823.851
339.974 -232.327 746.272
369.081 -105.579 777.358
377.448 0.673772 803.876
551.955 -34.6839 711.251
301.561 172.802 494.391
568.81 -275.199 622.324
387.805 -240.922 721.755
334.282 155.505 483.069
300.174 170.901 495.384
315.211 -242.413 754.506
599.389 -196.056 620.772
591.14 -70.3291 677.503
553.535 -236.732 637.793
320.222 -275.007 743.782
338.002 -86.9111 505.634
331.585 -220.221 755.664
646.464 -116.425 612.137
280.821 -177.189 794.228
218.209 -44.8964 854.911
256.35 -242.232 783.11
550.772 -246.013 639.414
565.769 -21.0936 710.849
150.007 -158.332 842.53
287.059 -116.83 816.565
612.282 -69.0192 669.678
228.101 -246.752 794.658
570.58 -295.442 605.998
255.792 -210.411 792.018
313.752 -257.46 752.192
614.425 -126.456 622.098
372.137 -7.251 803.005
566.786 -90.9666 688.811
445.457 -252.298 689.73
294.71 -261.867 758.427
309.479 -250.326 755.3
283.418 157.055 504.206
363.044 177.281 486.412
311.762 -269.404 748.616
294.633 -113.52 812.216
239.269 -272.585 781.897
271.377 147.299 512.561
405.426 -252.84 708.851
241.552 -272.887 780.173
292.659 180.854 499.961
313.767 172.91 488.492
375.161 -283.907 714.729
254.838 198.983 537.848
499.198 -112.678 709.835
262.019 -114.633 521.966
615.032 -64.8226 667.886
312.967 150.453 489.013
607.513 -248.413 593.245
283.276 -213.405 781.275
229.607 -295.631 781.322
533.804 -157.561 680.235
264.743 -110.578 479.041
676.774 -141.06 579.531
705.107 -10.3894 610.593
538.529 -135.945 686.925
315.16 -27.9916 521.771
335.394 -103.377 490.281
564.604 -195.095 655.918
326.804 71.8447 487.086
405.721 -207.894 724.096
305.127 -247.523 759.386
716.487 -26.0604 593.198
572.438 -178.062 653.484
489.606 -268.564 664.902
273.766 109.851 509.599
326.5 -264.412 743.806
236.28 -72.3972 840.07
320.904 192.678 488.365
241.451 42.9991 870.831
208.135 22.8917 879.416
281.868 159.457 504.658
263.038 -92.9142 484.773
257.484 -185.646 797.334
352.853 -235.223 740.346
254.395 -47.6697 549.575
249.163 -286.52 773.842
423.599 -203.426 714.873
466.928 -299.468 667.044
216.63 -71.7452 845.185
288.936 -210.947 775.274
583.706 -105.171 676.342
229.929 -222.296 798.205
354.486 -243.006 736.989
322.368 185.439 486.96
374.831 60.5823 518.925
575.736 -218.989 634.462
219.786 44.3528 878.341
474.763 -245.074 684.108
414.942 -293.526 692.659
324.237 -173.109 783.763
339.334 63.719 491.54
251.92 -82.8381 536.93
304.618 -76.5843 473.583
342.245 158.431 477.678
245.089 -87.3011 537.091
326.631 59.5293 482.874
330.341 -136.852 783.735
224.522 -104.826 834.863
229.695 -24.5113 855.725
360.415 0.945187 804.726
335.607 -146.69 789.498
263.452 186.344 521.098
379.361 -205.025 736.786
335.31 -191.877 763.645
414.853 200.935 499.159
270.643 124.036 513.038
598.378 -252.396 593.092
174.155 -134.152 847.999
475.492 -238.367 679.304
574.676 -234.88 630.895
255.453 150.983 530.636
592.06 -191.372 625.613
304.351 -232.655 764.77
241.976 -123.122 522.076
481.855 -211.577 683.868
325.12 -179.97 775.475
253.147 44.4629 867.046
257.912 65.2486 521.802
304.875 -219.09 771.214
251.233 155.334 537.433
273.076 -90.1811 480.134
365.544 -195.55 750.491
397.094 -244.896 715.199
558.896 -180.807 663.156
244.437 -212.648 797.573
566.576 -245.699 628.964
358.088 -30.3705 803.019
258.63 -107.164 528.826
274.272 10.2155 501.239
290.245 -213.548 774.331
310.694 -228.838 758.549
276.679 -226.132 780.398
242.049 167.394 553.55
265.489 181.705 519.725
592.323 -178.405 647.402
290.564 185.789 501.201
254.162 -284.165 771.53
239.109 154.333 560.128
569.193 -147.92 668.85
610.023 0.315878 696.644
561.265 -32.5862 707.388
307.314 -251.895 755.99
461.725 -250.964 681.961
270.809 -237.752 781.28
198.975 -41.2629 863.968
265.772 -238.357 781.151
296.792 -282.697 751.203
366.097 -290.241 717.025
683.713 -48.4776 607.241
282.785 -134.565 459.927
357.829 -10.1117 804.393
240.321 -228.653 793.713
321.418 -175.044 780.57
362.273 -60.9294 493.296
283.381 -179.049 792.799
204.958 -79.9039 848.548
346.904 -78.2042 502.955
292.956 -120.958 463.307
336.339 -243.574 745.286
615.3 -97.0684 664.002
302.356 -246.814 761.497
583.174 -157.749 655.304
226.593 -107.594 832.004
262.884 -86.1596 821.297
284.792 136.783 501.824
264.504 -224.127 795.44
328.714 -195.873 765.09
559.083 -102.429 688.742
396.57 -234.154 718.96
264.978 -266.933 773.944
571.491 -122.044 674.384
556.215 -136.154 678.4
251.125 -228.142 789.733
218.284 -127.973 830.317
328.26 -260.537 744.467
567.46 -154.423 668.278
566.108 21.3023 721.587
288.463 -243.781 770.887
367.799 -39.8937 793.812
518.59 -179.849 681.743
402.205 -283.625 700.6
526.55 -186.649 675.802
449.844 -292.82 674.56
310.165 -262.294 754.896
391.103 151.262 498.834
435.51 -273.975 686.615
557.345 -176.252 665.647
368.632 -210.865 739.267
310.287 -202.637 771.634
244.151 -199.652 796.664
268.799 -44.7736 498.314
280.792 -142.071 457.694
229.777 -215.852 800.306
367.158 -249.047 729.828
430.86 -287.393 687.622
300.94 -272.529 751.718
410.731 -278.641 698.392
291.749 -261.817 763.54
561.441 -271.79 623.858
542.056 -28.0008 719.025
225.228 -274.54 783.621
364.791 -189.16 752.33
366.582 -281.536 719.152
640.521 -277.27 556.063
581.224 29.0054 717.625
472.399 -257.382 668.69
447.859 -302.956 671.351
266.56 -201.138 798.566
287.026 128.472 499.373
254.891 232.87 526.824
371.365 -260.149 723.659
466.364 -208.094 698.649
291.012 189.009 501.285
677.528 -211.518 555.905
255.562 189.559 530.304
337.84 171.099 483.295
468.907 -302.813 667.822
688.869 -97.4608 586.916
314.31 29.2688 851.273
530.135 -179.765 676.18
344.496 171.027 483.856
239.06 148.931 562.177
335.454 -26.9153 818.071
597.476 -123.507 662.791
576.545 27.5187 718.347
539.56 -79.282 700.835
360.743 -277.579 724.357
288.431 216.018 505.244
228.42 -40.3367 842.299
553.603 24.8092 729.106
260.799 180.633 524.001
361.385 -234.212 738.078
629.493 4.77835 677.171
386.122 -131.617 758.166
177.542 -253.111 809.339
588.366 2.89379 707.174
250.389 192.653 534.548
583.902 0.545481 709.347
303.284 -66.918 821.964
264.313 190.427 522.887
579.55 0.254413 711.527
191.229 -41.0853 869.153
332.569 182.236 484.307
608.819 -184.799 619.727
369.837 -263.849 723.387
395.735 -239.659 717.762
477.921 -276.319 668.795
340.836 -107.001 475.892
255.192 -250.392 782.891
311.638 184.889 485.544
468.231 -241.796 680.01
252.723 189.864 532.112
558.899 -28.2237 711.271
331.181 8.31551 830.947
544.564 -31.4899 716.349
191.705 -23.2923 872.839
265.513 134.851 519.447
556.087 -32.8412 710.635
260.122 172.413 525.262
577.22 -56.0811 694.122
371.88 -291.577 718.304
578.79 -182.506 648.375
273.263 128.722 510.55
404.602 -248.989 712.349
268.65 107.398 516.788
631.129 -135.241 623.109
369.642 7.71995 517.151
579.641 -50.9114 694.409
293.504 -227.406 771.47
347.677 -127.334 780.803
317.183 -116.586 491.65
623.414 -55.0088 667.932
431.254 -267.59 690.486
559.976 -62.9803 700.652
276.492 171.616 509.07
261.521 -19.5401 837.95
565.997 -67.7859 695.158
317.156 -51.797 819.93
290.136 200.492 500.295
315.029 173.401 490.159
556.087 -73.4878 698.839
268.979 -159.494 804.826
627.724 -129.071 634.161
268.741 -116.543 476.185
428.094 -211.182 711.25
325.442 207.538 487.226
323.629 172.915 486.162
323.57 -55.1123 814.655
266.386 177.453 519.553
544.217 -80.5918 701.392
329.623 -117.822 483.734
245.148 -116.166 524.952
336.814 200.253 481.469
335.478 170.769 483.451
328.439 -270.591 741.032
523.041 -150.083 688.509
561.376 -114.684 682.895
604.633 -184.672 611.085
425.785 -297.836 686.36
368.593 30.0388 518.456
283.191 208.707 507.209
260.635 -153.279 805.029
568.15 -100.98 683.841
422.9 -198.307 717.432
283.518 -140.143 457.981
333.189 193.469 485.345
247.147 -258.751 782.471
287.93 -66.7959 831.151
316.236 -125.016 485.04
284.19 -242.369 770.988
349.067 -263.384 733.585
299.805 -202.539 769.695
310.29 197.749 491.903
288.331 170.529 501.636
259.631 -202.882 789.111
314.707 -200.114 769.927
308.644 -202.122 773.348
288.799 152.496 499.99
245.536 195.352 543.728
569.619 -217.208 638.235
213.677 -229.361 799.394
352.438 -110.919 786.819
282.97 -236.59 773.57
294.452 -213.418 779.761
296.273 -303.367 748.342
250.623 -247.035 785.381
222.317 -250.502 789.501
613.815 -154.347 627.702
649.244 -19.9199 650.141
535.072 -162.756 680.157
368.281 29.2905 817.434
225.613 42.5607 876.088
320.64 -181.246 776.669
275.464 -269.238 762.5
355.793 -81.0873 792.425
345.989 -122.25 791.59
445.201 -294.379 677.115
369.635 -3.62331 514.861
376.293 -278.76 722.652
347.284 -305.175 720.453
284.411 -273.807 762.046
428.018 -282.399 691.739
227.04 -288.913 777.738
404.078 -227.181 717.847
292.087 -276.153 757.551
202.623 -289 788.912
424.038 -230.654 706.198
623.493 -69.723 667.787
274.85 -174.607 798.173
323.033 207.894 489.481
240.789 211.56 548.023
343.921 -203.17 756.818
331.001 193.322 486.704
428.963 -281.407 688.941
324.021 -226.257 757.884
316.208 -93.0608 807.36
242.37 -106.694 830.589
331.91 191.756 486.531
315.066 147.504 488.753
272.957 148.057 510.51
272.118 186.241 515.331
547.313 -90.5626 694.751
335.806 159.732 484.875
338.407 32.1828 836.877
274.243 117.737 509.561
268.543 110.315 516.07
244.641 162.995 550.56
243.296 -237.781 790.106
325.669 -282.339 738.401
292.162 145.141 497.462
289.73 130.971 498.709
359.862 -238.686 736.555
576.246 -267.004 623.691
292.322 -47.3259 829.602
202.899 34.6134 887.013
299.509 -239.727 764.896
583.571 -162.285 652.527
576.999 -18.8802 704.927
570.775 20.3915 719.603
408.737 -212.872 721.908
374.769 -281.731 715.333
595.183 -0.4437 703.483
275.174 131.54 507.379
609.021 -176.77 621.971
268.202 183.383 516.646
360.966 -51.6682 502.659
385.127 29.9136 802.007
626.368 -8.11624 680.118
318.424 -206.489 766.472
300.866 -208.843 775.465
328.035 -213.873 758.835
598.108 -307.886 589.755
421.338 -257.874 700.305
580.462 -16.7401 704.232
218.199 13.2808 872.402
447.213 -206.769 703.051
243.548 -47.9209 841.672
431.8 -232.312 701.801
582.735 -60.2083 691.626
285.175 -195.987 785.591
398.4 -45.9102 774.456
188.931 -137.414 839.149
603.648 -25.6782 686.253
262.314 -60.3162 832.275
418.836 -272.111 696.277
565.787 -77.028 691.716
300.361 181.469 496.806
381.669 -272.328 714.699
614.03 -136.831 631.813
558.662 -78.9793 693.984
267.163 -92.5186 482.252
620.073 -83.9021 666.36
544.961 -85.1325 701.812
276.624 -155.997 464.357
478.084 -280.911 665.213
354.648 -233.349 740.036
317.857 -73.3841 818.27
272.034 -142.293 459.705
539.242 -95.4203 700.4
300.436 -251.207 755.06
402.366 -276.626 703.737
289.094 148.647 499.702
365.205 -28.6071 802.514
579.897 -13.4268 705.698
475.635 -117.453 716.35
580.587 -108.446 675.619
367.99 -20.5096 509.878
326.789 -73.459 806.988
547.642 -112.85 690.497
536.674 -124.001 690.769
393.794 -280.195 706.292
614.264 -127 653.781
546.29 -133.117 684.338
466.842 -271.97 670.582
294.741 198.468 498.854
351.291 194.811 481.457
268.511 -80.9921 484.376
332.281 -104.339 495.72
562.674 -247.346 632.267
557.188 -158.573 672.857
293.763 208.116 500.624
323.708 195.46 486.77
236.311 -194.325 803.336
555.612 -165.282 668.768
271.946 -222.83 784.644
410.35 -236.615 712.131
295.58 199.605 498.096
359.25 41.1805 819.852
285.367 -292.748 751.338
274.284 -227.62 780.111
368.187 -285.598 717.735
641.145 -126.816 610.202
479.254 -209.725 685.814
358.314 -17.6183 519.588
291.348 -181.06 780.925
254.206 188.896 532.413
257.387 -189.16 798.575
342.252 -84.0016 504.267
378.417 -233.423 728.708
262.564 -132.294 474.958
506.581 -199.717 679.688
277.713 -134.977 460.473
698.984 29.2475 635.78
622.645 -210.474 596.697
441.999 -245.261 695.691
512.65 -226.731 668.942
712.126 -90.9287 579.453
545.645 -255.162 640.118
305.379 206.344 497.695
390.626 -245.926 718.649
688.362 -109.945 587.724
261.253 89.3365 523.812
269.204 -151.034 462.611
550.4 -243.061 646.736
314.905 -195.106 771.255
242.241 -97.9011 830.834
354.917 -265.147 729.46
382.971 -170.52 747.557
324.503 -90.1212 508.289
565.596 -256.861 637.043
472.839 -254.72 677.562
425.212 -213.01 711.464
301.854 -235.167 764.006
215.865 -256.722 791.76
334.751 174.435 484.033
477.653 -275.626 673.666
444.928 -216.781 700.404
236.655 -268.71 786.433
316.59 -210.102 766.218
563.526 -304.23 612.707
234.244 -271.354 785.37
594.92 -82.794 676.946
338.812 -100.445 501.474
395.002 -274.488 708.606
605.235 -21.5143 690.606
263.48 -104.748 528.22
424.552 -300.48 686.201
360.459 -277.544 723.584
605.023 22.2704 701.761
250.048 -274.926 772.638
237.609 -34.7593 851.757
614.076 -213.964 607.308
505.046 -158.434 694.817
216.478 -281.327 785.15
224.487 -289.478 778.774
519.641 -21.3889 725.718
595.715 -2.16952 699.8
375.039 -266.26 719.468
290.009 140.859 499.602
253.497 208.076 534.949
568.748 -278.633 601.257
339.667 194.378 483.246
412.377 -236.085 710.492
250.145 197.577 538.505
293.631 -227.238 773.01
365.401 -204.139 743.19
334.094 -121.345 478.079
275.347 -233.705 779.795
282.855 131.719 502.753
440.484 -249.668 692.584
382.565 -219.174 728.849
423.395 -252.696 699.673
550.59 -74.0707 702.742
326.294 -206.777 761.513
453.795 -233.698 693.129
537.337 -127.444 687.742
572.963 -229.194 611.067
326.28 -249.737 748.736
476.092 -195.027 692.382
396.788 -307.493 696.487
546.037 23.6031 730.328
257.986 -273.578 775.625
567.244 13.8926 720.113
572.656 12.114 717.703
357.968 -253.528 732.167
601.279 -311.625 591.38
270.368 -218.547 786.128
531.41 -132.384 691.375
582.691 -7.22976 706.557
189.122 -110.057 845.659
550.28 -194.467 652.89
385.993 -196.671 735.845
245.731 204.154 545.019
348.752 184.909 483.348
578.388 -190.326 646.474
587.715 -47.6452 692.808
244.942 -73.2582 544.597
298.863 -37.7766 829.978
281.725 202.497 506.515
541.938 -64.2355 708.03
572.959 -70.9304 692.377
299.615 -246.159 762.945
607.589 -73.6824 674.209
254.857 210.11 532.707
359.988 -54.442 501.817
359.342 -222.942 746.253
399.582 -298.226 698.414
283.153 175.281 505.192
464.779 -211.314 691.437
264.356 53.7233 574.288
697.237 -129.342 576.142
577.821 15.5741 714.172
556.479 -85.3571 694.018
347.166 -61.7322 511.469
459.265 -288.727 675.019
469.236 -288.387 666.681
573.418 -95.5623 683.057
399.323 -282.665 702.485
564.015 -261.207 632.062
612.493 -105.13 655.771
509.553 -316.834 636.223
595.745 -178.386 627.534
565.756 29.0837 725.506
559.199 -115.613 684.43
338.818 -86.9008 503.499
277.976 -280.047 764.358
352.304 -98.6286 478.802
298.67 -83.1082 469.715
214.259 -7.87223 867.769
266.192 -82.8334 483.433
581.881 -134.385 667.072
283.282 201.274 506.462
595.877 -136.143 654.911
472.667 -153.098 709.645
245.512 -98.4623 827.396
288.851 -218.146 776.552
371.275 71.0716 518.493
269.097 -93.6137 527.331
410.743 -289.989 695.641
293.831 234.785 511.049
378.076 -257.85 720.697
534.94 -169.063 677.938
334.621 -96.7333 502.731
339.389 -112.519 480.107
361.169 -56.3954 796.881
314.814 143.615 488.522
263.66 -290.736 761.809
349.298 -13.3226 521.611
270.687 112.644 509.244
541.837 -153.021 679.206
596.28 -166.963 643.939
273.56 -199.65 791.674
592.639 -167.764 651.919
631.159 -22.603 649.263
253.694 204.327 526.424
308.357 -283.254 747.293
247.435 -275.286 772.847
335.411 -114.591 481.75
532.486 -171.511 677.167
262.623 173.727 521.562
300.287 -84.1815 470.324
327.871 -3.32898 825.468
316.783 -123.059 487.752
528.416 -188.003 673.996
279.353 -181.799 788.111
317.607 125.092 488.09
460.832 -224.562 695.279
194.282 -23.0894 873.002
479.29 -281.887 661.765
289.083 120.397 498.906
464.982 -202.813 699.464
386.932 -239.371 722.527
296.915 -226.479 770.531
276.509 -136.142 459.855
283.107 146.27 503.294
269.749 -205.078 783.813
565.879 -18.107 711.18
427.42 -254.817 697.741
359.186 170.518 484.953
391.867 -201.422 731.354
282.992 187.214 504.8
252.358 -70.0826 546.93
236.12 -208.925 796.611
672.658 -67.3746 610.34
170.103 -220.56 819.426
446.294 -208.335 695.495
241.994 -283.045 777.717
287.177 109.685 499.465
586.306 -230.92 633.117
575.795 -36.1591 701.405
391.951 -273.636 708.735
252.732 -215.797 788.646
274.318 -137.073 461.425
440.216 -237.75 699.19
241.298 170.674 553.021
278.722 -261.69 775.154
184.864 -148.192 837.363
373.531 -260.62 722.3
417.044 -273.37 697.701
443.513 -279.211 682.839
687.863 -114.208 582.766
611.478 -167.224 616.831
369.004 -276.644 720.167
375.792 -277.742 715.113
288.257 -273.318 756.098
206.448 218.424 605.823
291.599 -278.482 752.485
348.378 -291.017 724.089
290.247 195.048 501.33
265.546 -7.7995 566.987
338.27 -4.85996 820.164
328.665 203.291 486.75
352.698 182.382 483.726
253.214 143.432 535.537
350.893 -21.9306 815.284
592.05 37.0761 713.92
565.366 26.1275 725.057
343.113 -81.4512 792.601
299.596 201.778 497.318
459.912 -285.169 671.922
590.926 -3.02108 704.504
525.117 39.0797 745.029
338.546 -72.5194 513.627
704.311 -41.723 596.422
450.806 -265.514 678.644
270.988 183.913 513.759
596.238 -193.751 623.758
580.171 -40.8181 696.509
257.986 65.0017 522.804
264.368 -133.591 472.131
625.413 -46.4257 674.481
503.593 -246.709 670.554
343.511 -57.5902 513.651
547.071 -85.2834 697.821
564.86 -109.435 683.274
305.292 -22.6569 833.122
290.023 -80.0983 472.413
347.897 166.641 483.721
588.051 -155.928 653.744
341.982 -96.0139 495.41
586.354 -150.599 659.147
471.621 -181.942 700.025
564.208 -150.372 671.408
616.551 -188.638 603.195
480.441 -92.8476 725.112
602.47 9.20103 697.971
605.243 -159.844 647.494
411.874 -213.899 717.846
284.067 -175.352 804.472
515.925 -167.47 687.438
315.19 -122.046 487.217
574.023 -195.641 650.444
273.111 -129.828 457.367
269.215 158.524 514.858
518.066 -219.888 669.944
275.088 -143.567 457.759
389.548 28.4357 803.41
232.915 165.288 570.284
716.717 4.89281 601.546
479.342 -234.083 677.496
289.107 -238.412 766.379
376.332 -257.936 720.847
267.839 -83.2808 534.183
339.507 -248.06 740.388
384.422 -267.26 714.834
234.563 -274.479 785.396
327.827 198.13 487.047
280.242 -156.351 817.625
251.282 176.584 537.166
226.647 -21.0839 594.256
345.595 -36.9126 808.078
278.402 36.5395 861.108
310.996 -230.844 768.803
310.996 -257.292 754.049
562.32 -216.168 642.408
666.537 -250.989 551.59
373.053 -160.212 756.383
396.943 -260.951 711.14
218.723 -151.468 823.022
331.857 -232.147 750.898
419.769 -242.975 704.949
333.625 -238.65 749.345
363.068 -244.209 732.568
289.779 -240.121 778.724
340.201 -126.153 783.652
431.471 -250.172 697.189
443.307 -251.209 690.927
317.585 191.258 488.51
395.61 -247.336 712.843
512.05 -231.821 671.75
529.708 -257.637 633.26
384.06 -183.348 742.974
299.875 -269.197 755.729
245.971 191.295 543.105
385.446 -253.468 719.511
356.811 -255.009 732.382
342.179 13.4647 822.088
294.373 -249.875 764.299
403.975 -261.033 706.188
572.665 -218.214 615.782
379.67 -258.783 720.22
310.194 -255.365 763.606
437.388 -281.997 684.405
361.884 -261.097 731.309
579.341 -197.022 620.767
261.287 -276.377 767.176
601.78 -277.638 584.015
360.113 -190.017 755.024
419.231 -285.999 695.987
360.497 -265.172 727.433
292.685 -261.792 761.71
310.167 -287.622 740.982
359.753 -270.338 726.519
294.472 143.745 496.078
396.862 -276.175 704.257
281.081 142.072 504.69
413.613 -278.498 693.622
300.313 205.584 498.976
339.177 -233.972 746.141
314.658 -269.91 747.48
569.168 -294.088 609.118
335.593 -103.454 496.065
343.085 192.044 484.854
317.615 120.842 487.872
562.721 -302.299 600.298
576.761 -307.252 598.619
563.298 -212.097 642.206
300.507 -284.378 760.737
368.128 -294.119 715.592
200.361 46.6714 888.883
259.644 -283.868 788.151
273.225 44.6201 860.337
559.31 -307.285 598.68
293.101 214.716 501.645
605.561 23.5385 700.489
263.191 190.014 521.992
286.369 191.253 504.136
392.446 -230.288 722.888
270.564 185.839 513.478
305.916 -296.686 741.208
289.321 188.132 501.716
294.626 -296.454 745.339
253.926 10.2641 853.538
323.903 185.03 485.317
271.507 143.437 512.372
288.516 226.799 505.88
266.057 142.129 518.427
305.668 221.191 495.558
280.958 140.708 504.351
319.514 56.3618 484.828
269.311 33.033 572.298
378.275 -238.91 725.512
300.574 206.612 496.558
369.354 76.3022 520.9
561.186 -28.4822 709.732
346.264 11.5316 825.791
526.665 31.2343 740.784
365.166 -22.3233 513.084
679.545 28.5034 634.286
559.894 29.4706 726.282
407.521 12.2096 783.937
396.762 9.25242 791.632
546.636 -37.1995 712.984
381.738 0.644746 798.232
543.608 28.9534 732.64
364.959 -3.8594 810.935
406.071 -5.13393 784.916
361.853 -243.518 734.247
308.965 198.451 494.63
383.398 -15.1385 793.404
653.793 -10.0416 635.33
315.718 193.132 490.405
640.783 -11.6234 658.802
379.521 -257.589 720.149
622.23 -20.0943 672.609
393.33 -31.2703 779.099
314.45 190.089 489.526
546.433 -1.94048 724.631
638.56 -29.6834 653.445
693.723 -31.8555 602.96
463.037 -256.81 670.307
303.474 184.947 493.386
540.552 -8.80696 721.838
354.874 -50.6579 803.66
337.612 186.455 483.7
508.323 -11.2538 734.511
365.462 -50.6432 798.113
251.966 189.537 535.591
366.593 -12.1485 516.092
324.81 -61.6723 819.743
304.341 -252.639 768.289
338.15 184.625 483.357
348.691 -62.9423 804.248
666.376 -57.561 613.763
289.114 179.157 501.15
717.685 -66.0909 581.214
332.234 -83.8825 805.227
337.239 174.722 483.746
507.779 -37.8319 731.006
335.225 -111.328 793.104
318.953 -112.687 806.358
402.624 -271.437 701.376
334.131 164.104 484.713
360.645 -114.617 779.494
340.645 159.285 484.094
616.215 -116.204 622.78
420.712 -277.421 689.376
317.946 145.777 487.255
495.414 -44.7752 730.876
696.27 -119.665 576.334
400.307 -277.077 699.534
316.076 142.374 488.279
361.428 -36.8074 511.29
351.098 -119.459 782.885
493.868 -49.2244 734.391
250.422 -97.5386 829.104
357.931 -125.411 779.866
512.767 -56.4575 720.773
487.631 -62.7843 731.705
661.845 -137.741 589.791
538.278 -300.753 612.15
317.98 118.269 488.175
357.944 -138.285 771.741
270.603 110.766 513.104
381.427 -144.811 756.482
346.555 -110.63 476.889
595.54 -126.15 662.702
304.818 -147.309 801.746
305.204 -154.349 798.863
555.376 37.5382 731.294
375.722 -156.013 756.009
536.157 -78.2971 703.415
568.141 -80.112 686.199
527.064 -79.4182 710.512
362.277 -169.568 761.318
441.77 -179.589 717.413
604.982 -177.616 624.022
532.44 -85.3157 709.783
259.621 179.904 525.305
336.564 -170.878 768.392
377.47 -173.467 749.594
589.57 6.14656 707.607
274.581 -171.876 812.945
361.329 5.07949 520.834
279.909 -180.423 805.71
583.55 -2.3219 706.997
671.832 -201.216 568.092
506.482 -98.9635 710.942
256.827 -99.2446 531.178
312.207 -194.809 781.768
554.932 -101.527 688.298
595.857 -205.826 606.183
396.478 -199.3 730.835
366.531 -5.32293 516.924
376.521 -198.377 742.743
607.899 -11.4515 688.631
563.128 -210.79 624.256
407.132 20.3816 786.398
576.98 -27.2702 703.483
354.698 -202.967 749.068
533.017 -155.715 683.43
418.315 -211.38 713.801
424.689 -216.076 707.049
570.785 -40.4591 699.957
376.885 -214.515 736.75
236.173 -32.5628 849.553
330.246 -212.844 764.817
360.619 -28.8322 515.635
415.373 -219.58 710.483
575.448 -45.1492 697.726
296.541 -219.186 781.379
265.668 -39.796 840.444
428.906 -226.003 702.057
642.724 -14.8935 644.916
263.934 -42.3095 835.96
408.77 -224.354 708.687
579.322 -54.7291 692.221
351.38 -222.802 746.934
164.375 -125.52 851.026
359.919 -229.689 739.409
659.339 -249.449 558.677
566.307 -70.9566 694.384
448.912 -239.761 687.014
334.713 -123.627 477.117
362.147 -237.262 737.567
328.912 -124.725 478.426
360.311 -240.793 739.213
662.612 -264.715 554.799
353.971 -57.7731 509.064
499.139 -139.662 701.498
543.433 -194.632 666.758
286.76 -248.325 784.154
578.156 -271.321 617.831
408.3 -246.064 707.946
339.887 -250.964 744.187
604.045 -92.1475 642.604
593.923 -89.739 675.676
180.241 -139.023 839.306
274.891 -248.567 789.191
388.633 -99.4667 764.377
588.124 -89.7326 678.674
499.568 -146.612 703.411
634.386 -276.841 566.389
361.668 -241.826 737.299
578.035 -204.015 639.094
636.964 -277.57 563.321
507.605 -149.397 698.285
499.999 -150.087 700.23
516.841 -203.699 675.345
262.702 -253.629 792.963
383.534 -197.739 736.265
576.577 -276.134 599.613
587.377 -150.876 654.601
697.996 -124.7 577.158
378.158 -262.927 719.751
353.71 -261.726 731.361
667.415 -153.172 585.769
385.044 -263.994 716.111
367.071 -267.409 727.725
296.886 -129.033 812.039
599.235 -115.131 661.483
507.663 -154.353 687.799
668.819 -291.906 543.139
295.21 -131.036 812.094
581.491 -115.019 675.193
577.463 -156.757 656.698
472.828 -277.715 657.867
682.082 -134.604 579.676
535.628 -115.639 694.889
497.648 -155.549 695.756
375.988 -272.323 720.541
371.973 -242.635 730.849
662.491 -295.178 548.266
555.2 -40.7642 709.522
309.916 -268.12 751.164
275.27 -199.561 789.911
422.682 -278.113 687.092
269.527 -201.549 792.686
401.363 -283.992 698.455
562.76 -304.537 607.842
370.285 -286.953 717.911
385.004 -159.85 748.609
228.295 -117.695 827.896
464.43 -159.451 709.648
460.271 -296.938 663.394
338.57 -114.763 472.861
340.982 -90.6096 501.027
183.464 -154.912 828.978
557.251 -214.06 646.076
576.812 -307.844 586.796
374.949 -207.772 738.604
268.29 -203.67 791.191
145.837 -158.195 847.745
372.34 -207.75 739.02
500.715 -166.216 695.508
366.905 -207.704 742.081
256.306 -118.395 517.518
276.26 219.883 511.016
461.466 -174.433 709.587
275.602 197.486 511.918
279.661 -209.023 779.558
265.735 -62.541 498.682
261.965 94.4041 524.697
646.692 -226.229 574.171
543.042 -158.515 674.974
144.635 -184.373 838.738
261.455 -109.322 524.805
531.135 -163.813 679.968
284.798 -218.954 778.338
433.89 -189.941 713.35
544.478 -99.063 698.408
270.52 174.796 512.804
547.248 -167.431 670.932
318.708 -117.036 488.278
411.489 -192.388 721.211
230.47 -220.549 796.441
597.978 -254.562 592.56
566.295 -190.48 655.623
411.042 -200.962 722.455
531.347 -250.573 631.851
541.349 -190.188 669.064
504.096 -191.235 685.542
366.286 -250.386 728.311
541.254 -193.478 667.442
512.603 -207.779 674.925
527.314 -196.036 673.304
265.777 -233.061 783.206
534.276 -212.238 661.462
278.425 -133.318 802.642
260.524 141.506 525.129
445.777 -265.857 680.537
520.947 -203.658 674.365
452.026 -216.225 697.611
420.672 -270.15 691.711
316.307 62.7236 489.218
469.976 -247.864 682.751
253.378 -239.699 787.116
459.375 -210.99 699.494
517.178 -213.524 671.392
269.731 120.359 513.798
462.904 -235.813 684.837
290.749 -35.8404 834.791
370.898 -240.201 730.597
373.28 -212.626 736.616
297.209 174.752 496.716
258.455 83.6888 528.201
285.845 -259.42 761.637
557.622 -260.032 633.626
463.936 -267.837 675.449
404.513 -261.746 707.215
307.755 -226.933 764.374
387.837 -233.852 723.762
462.054 -238.45 685.396
303.742 -241.641 762.516
291.95 207.978 501.319
349.677 -114.157 790.918
479.997 -244.455 674.522
338.428 -131.942 787.539
459.582 -243.822 684.521
458.544 -245.629 689.519
525.133 -294.766 644.272
286.037 208.696 503.773
348.926 -253.246 735.272
470.519 -262.594 676.683
259.418 220.568 524.739
471.515 -220.432 684.653
438.08 -242.112 693.058
263.654 -225.535 787.12
558.798 -254.927 632.678
273.682 193.95 512.668
244.856 199.702 542.58
276.247 193.371 510.553
322.964 179.718 486.33
257.442 149.102 529.712
271.241 122.291 510.378
271.126 145.127 513.242
347.773 -259.894 734.891
281.62 133.395 504.32
288.808 -259.256 763.789
260.019 85.313 525.545
257.567 79.9623 530.309
519.501 28.3252 740.331
372.166 -279.413 717.977
518.234 24.6391 742.045
605.184 19.1772 699.88
355.263 -279.333 726.298
255.681 -278.985 768.078
494.708 14.9213 750.767
401.838 -287.375 700.227
447.486 -293.295 676.145
537.095 4.8373 730.887
308.858 -114.596 803.649
394.381 -291.357 702.927
570.149 0.692232 714.338
247.955 -287.459 771.19
503.211 -7.30125 737.939
300.895 -115.215 808.097
557.174 15.7064 723.937
299.836 206.92 497.723
267.046 206.869 518.321
549.347 -259.548 620.453
274.319 204.528 512.633
540.898 -41.0548 712.775
303.277 -186.57 783.896
277.933 -141.616 458.849
369.04 -229.007 734.826
276.924 180.153 509.057
269.533 -229.104 782.957
487.019 -245.252 665.925
260.262 -66.3708 828.813
572.601 -75.6461 688.671
569.651 -77.1607 687.951
363.063 -261.659 727.292
338.574 163.681 483.917
310.532 -271.997 749.375
308.85 159.463 490.942
290.295 148.039 498.398
274.212 146.185 510.372
315.052 195.698 490.638
555.868 -199.792 651.044
479.206 -95.462 724.779
544.776 -97.6429 693.878
284.611 132.109 501.663
285.047 128.562 503.566
574.199 17.3829 717
351.706 -122.408 780.73
552.135 16.9547 724.49
541.928 -109.856 693.396
305.47 -5.71538 833.879
615.881 -165.468 615.805
367.798 1.76546 517.966
528.737 -111.573 697.556
351.828 -161.294 772.533
559.33 0.265653 717.724
649.915 -9.18373 659.13
333.131 -16.5863 820.354
628.382 -187.265 597.986
588.352 -10.843 702.797
343.728 -85.932 499.722
268.044 -110.039 477.456
360.669 -26.3616 515.644
530.991 -128.968 692.15
591.423 -47.5567 688.815
363.434 -39.7777 507.734
281.74 -187.869 788.687
321.668 -97.9422 505.144
542.064 -204.647 661.01
593.88 -141.507 654.46
390.348 -202.53 732.768
186.32 -137.371 838.132
268.807 -134.362 464.786
546.261 -144.366 680.235
299.145 -204.696 775.933
389.288 -208.962 730.595
261.801 -105.478 524.492
371.143 -208.96 740.699
215.147 -142.825 824.378
594.214 -150.183 656.121
262.371 -107.811 525.471
359.687 -214.18 743.063
133.388 -144.26 849.512
279.421 -212.867 782.369
467.773 -154.766 712.049
334.208 -99.153 500.541
377.211 13.8796 808.165
544.309 -143.586 681.281
283.079 -115.466 819.499
691.236 25.4952 627.785
292.655 -91.9726 467.018
327.758 -101.561 499.283
364.376 5.05768 812.009
532.488 -147.698 685.656
582.078 -149.46 661.633
319.987 -120.969 795.217
268.625 -226.564 784.48
326.782 -115.911 486.482
309.498 -228.932 760.679
342.477 -117.383 476.549
362.556 -233.479 735.612
550.882 -167.678 672.966
356.688 -233.291 738.447
471.813 -167.774 710.711
344.192 -233.446 744.603
588.129 -168.341 648.999
515.761 -169.353 689.702
541.843 -184.566 669.519
214.874 -170.745 814.569
170.937 -170.183 829.05
391.67 -247.095 717.589
453.106 -175.353 713.982
522.47 -177.077 680.274
175.508 -173.52 834.357
448.17 -272.968 683.758
269.81 -164.731 803.79
426.162 -250.832 700.446
275.226 -171.947 799.235
253.457 -244.839 785.529
466.885 -186.009 702.375
275.017 -186.666 792.994
528.872 -187.252 668.448
385.446 -253.324 719.984
458.975 -190.19 706.286
266.619 -119.921 475.794
409.386 -190.303 726.117
329.275 -184.922 768.1
268.181 -181.902 799.415
528.421 -192.283 673.736
351.3 -253.633 734.205
537.974 -264.42 643.9
425.784 -198.681 719.267
388.869 -259.362 715.294
405.913 -201.298 723.985
502.404 -234.648 673.368
392.334 -230.292 723.016
330.589 -216.33 759.211
278.082 -216.443 783.603
391.661 -233.825 721.794
133.753 -207.826 840.576
313.587 -232.87 757.784
345.381 -234.638 743.752
410.278 -251.182 707.531
434.724 -277.47 686.257
294.675 -215.426 774.123
267.89 -215.322 785.736
306.496 -138.992 796.986
408.628 -240.354 711.023
552.957 -287.451 633.237
347.001 -245.206 739.901
376.814 -287.181 712.794
326.862 210.823 487.845
230.387 -147.167 817.113
293.143 198.794 499.673
242.285 -236.054 792.17
396.658 -291.625 702.726
320.225 -236.88 755.038
274.692 174.407 510.701
440.874 -256.863 692.968
454.749 -298.78 670.876
441.814 -240.981 700.183
274.462 -295.724 758.083
409.746 -303.61 694.939
293.347 -301.49 747.082
269.546 -252.093 771.781
291.307 -302.688 745.736
438.794 -268.341 687.721
416.171 -270.371 700.669
356.351 -267.519 728.979
338.497 4.41515 821.536
269.557 -268.927 770.958
303.094 -221.497 771.302
340.609 -0.168852 821.135
295.89 -231.052 772.33
306.157 -8.10007 833.732
351.929 -267.284 730.104
317.396 136.465 488.861
301.243 132.74 493.602
338.277 133.566 486.963
546.555 -269.994 646.567
318.144 127.29 487.911
298.098 123.378 494.201
554.86 18.0328 726.027
300.909 211.768 498.025
365.598 -285.921 718.393
242.058 -275.838 776.14
257.796 -280.023 769.036
198.736 -275.422 791.536
245.901 198.506 545.961
375.192 -287.242 713.947
545.233 -39.3607 712.273
347.322 -288.592 725.402
343.433 -52.4787 802.179
251.922 137.007 542.294
313.894 -292.462 737.171
455.14 -300.562 669.842
361.829 -297.21 716.777
369.019 -304.23 711.351
374.154 36.9644 817.078
229.887 -296.237 775.299
248.469 -89.295 538.505
336.503 191.745 482.252
349.643 191.981 486.709
351.211 -96.8131 482.454
553.049 -152.596 675.09
318.015 183.813 487.794
346.969 -108.092 477.607
362.171 181.174 486.358
333.106 177.887 485.56
331.492 175.709 484.394
339.885 173.477 485.747
280.632 139.979 503.866
303.949 -95.5238 813.381
296.197 122.696 494.631
368.269 -15.4876 803.913
232.258 43.0562 875.184
558.681 26.5899 727.046
376.721 107.68 516.195
271.243 -73.8065 536.308
387.52 -223.345 726.766
554.57 -237.528 643.022
359.831 -242.968 734.052
265.973 -81.5193 485.179
473.365 -158.904 705.581
568.225 -82.9191 690.684
338.534 -73.5156 511.701
369.046 1.47363 516.223
265.044 -89.1503 483.951
302.072 -261.973 755.803
541.644 -154.712 677.533
494.262 -16.2741 738.051
343.452 -18.3632 519.372
522.525 -25.2079 722.881
364.476 -21.1814 514.595
361.699 -196.115 745.982
225.979 -119.551 827.834
247.74 -90.5456 537.918
508.19 -129.378 704.774
263.681 -93.0214 530.188
509.146 -129.522 696.574
352.442 -94.2435 482.211
520.072 -132.483 695.805
334.006 -98.1223 501.952
589.718 -148.012 630.157
256.436 -97.2478 530.485
328.001 -99.6893 502.363
519.076 -9.99859 733.799
322.157 -99.5106 503.717
503.421 -138.448 699.89
523.944 -143.912 692.968
519.537 -143.699 693.003
471.528 -144.715 713.757
264.959 -98.2344 479.411
559.593 -148.475 676.817
534.152 -149.101 684.754
265.945 -100.149 478.927
327.619 -109.064 499.774
481.444 -150.946 708.459
264.138 -109.173 522.05
314.213 -109.706 493.774
481.607 -154.672 709.316
319.621 -111.403 496.883
481.704 -155.717 706.082
512.396 -156.077 690.927
346.165 -112.378 477.988
513.159 -157.325 689.109
318.507 -114.288 493.239
537.32 -164.354 678.92
326.524 -117.636 487.241
262.008 -118.712 516.7
571.427 -169.15 657.357
572.784 -170.371 656.61
171.139 -168.244 831.863
261.947 -125.999 508.094
267.266 7.33367 570.061
157.82 -174.672 837.053
551.365 -181.217 666.972
496.77 -181.367 691.101
501.402 -188.44 686.335
407.146 -187.392 726.611
460.864 -189.634 705.069
441.234 -189.172 713.989
569.419 -191.667 657.07
259.625 -189.903 799.596
265.414 51.908 513.558
405.954 -190.366 727.757
712.763 -56.4378 591.998
241.917 -191.11 800.687
404.885 -193.185 730.51
677.955 -92.6473 596.523
287.581 -131.623 459.463
218.47 -32.9376 859.442
558.502 -196.087 659.215
445.64 -197.249 710.12
253.988 -195.809 786.088
426.11 -201.233 714.488
431.301 -203.625 710.654
143.244 -202.072 834.099
463.539 -206.163 697.245
279.454 -139.046 459.018
358.672 -82.8716 791.079
462.682 -211.593 697.794
430.496 -212.958 709.221
277.968 -214.396 784.001
275.72 -214.181 784.016
415.328 -216.937 714.987
255.813 -216.644 792.329
211.362 -216.408 806.079
414.851 -219.002 714.169
343.219 -63.6158 512.791
405.442 -220.108 719.137
341.341 -38.5274 811.705
257.329 -220.478 790.86
237.836 -219.932 793.051
239.769 -219.997 792.607
199.765 -219.368 805.764
407.765 -222.643 720.065
396.774 -224.523 722.061
512.428 -225.885 671.96
229.53 -223.639 791.349
260.671 -228.465 788.208
389.429 -228.788 723.413
236.139 -230.03 790.521
319.79 -232.293 755.852
301.963 -232.69 765.314
455.41 -234.204 690.691
298.218 -235.251 765.993
689.914 -71.9258 592.291
348.019 -235.267 741.638
272.729 -237.776 778.854
323.148 -238.963 753.829
340.312 -243.697 741.187
364.633 -245.275 730.78
329.522 -194.929 760.698
352.623 -248.634 735.989
301.724 -249.201 760.178
570.24 -238.935 640.957
333.986 -254.119 742.554
307.987 -255.98 754.612
280.29 -256.265 766.694
572.286 -220.859 613.1
320.256 -256.799 746.686
547.338 -257.82 648.712
290.015 -257.459 757.537
385.635 -260.255 717.606
431.429 -259.599 694.182
312.959 -261.762 750.845
270.434 -262.817 772.237
255.786 -263.968 779.613
305.873 -265.826 752.955
321.83 -265.944 743.629
263.569 79.4783 576.023
379.822 -269.135 718.128
302.308 -272.207 753.365
236.952 -270.944 776.361
408.756 -273.415 702.111
318.652 -260.565 745.916
240.443 -274.068 775.523
368.561 -250.392 728.024
280.913 -279.958 762.166
248.774 -281.964 771.464
228.79 -282.156 779.517
328.275 -283.186 738.85
208.875 -283.2 788.647
351.349 -4.19765 520.3
282.04 -283.639 754.707
211.744 -279.017 785.176
221.227 -283.808 780.175
218.853 -283.876 778.903
207.387 -284.398 784.86
359.009 -286.67 722.082
245.976 -286.949 771.084
308.549 -287.385 744.438
289.516 -288.583 751.843
267.148 -287.911 757.912
379.99 -292.207 710.49
536.989 -290.72 637.258
378.194 221.988 483.63
288.833 217.781 506.087
285.292 203.5 505.478
538.401 -41.6922 713.287
332.316 194.481 486.663
334.253 192.539 484.772
346.873 185.483 484.887
351.094 -2.04191 824.08
343.073 181.614 483.654
262.929 173.344 522.402
293.742 145.118 495.706
590.371 -87.1752 678.251
278.728 145.785 506.085
319.074 133.892 489.029
274.49 123.222 509.733
286.742 120.061 499.039
379.97 105.419 514.718
367.872 40.9688 521.178
532.482 35.6359 739.915
563.872 24.7182 723.614
492.589 27.4011 753.652
366.516 10.7212 519.373
559.108 15.79 723.431
374.483 90.6569 518.928
370.89 7.80594 517.359
719.781 -27.9196 592.34
557.573 -3.08666 719.229
505.75 35.6941 751.659
364.459 -5.12204 519.839
592.384 -164.387 625.9
363.441 -9.6537 520.503
516.847 -10.0167 734.793
341.607 -11.1326 516.973
340.8 -25.8601 518.062
489.485 -32.9599 737.773
340.199 -28.2798 517.775
531.564 -37.7136 722.469
348.76 -29.0379 519.436
348.648 -32.8406 517.828
571.687 -201.134 629.579
553.571 -57.4758 701.396
352.28 -45.7414 514.306
361.017 13.326 522.158
349.936 -48.9029 514.916
