166.686 -20.2954 979.262
22.8106 125.862 898.033
106.155 140.322 916.729
87.5485 167.148 858.796
13.8476 173.967 871.158
34.5509 210.526 880.683
56.4875 -91.6295 935.185
45.8398 -53.9926 943.632
158.774 43.8142 967.572
167.851 32.2225 989.519
125.017 34.3322 947.314
95.1036 219.487 879.312
94.1392 221.951 870.538
-39.1332 -141.43 909.828
43.5116 -113.897 922.95
28.7281 -141.705 918.654
-24.6871 -19.9087 935.044
67.3896 189.011 887.448
116.801 -25.1369 915.253
10.1787 -151.016 893.394
49.2059 -15.2803 939.788
74.3052 -39.6841 957.915
-3.00011 -34.5456 940.492
42.6349 -63.1267 938.357
112.099 -4.35046 920.738
30.325 2.27068 935.995
174.827 8.85211 991.27
93.2531 170.483 851.997
170.885 14.8433 991.689
73.8858 -60.5532 962.466
-107.807 -42.1384 977.05
166.303 10.0038 986.68
-21.418 -24.1673 934.363
-19.4623 -19.2122 946.174
-10.4866 -167.719 895.862
117.107 -122.822 964.164
109.042 -99.6172 976.682
123.485 -123.908 965.767
-39.8965 -47.0909 947.578
41.8696 -38.2665 947.791
-8.45357 -4.98502 934.84
72.1127 3.359 941.551
-23.3928 5.34361 930.871
81.3352 31.3741 937.204
158.687 10.44 985.102
-19.5304 11.6848 934.461
-1.70864 122.905 898.914
31.6144 17.5673 935.911
204.89 19.5468 1010.44
-54.2037 31.2675 946.257
-56.443 33.6635 948.077
-3.81399 38.8551 938.558
38.3638 -24.1828 940.069
162.63 43.4658 977.241
8.17046 -20.4195 939.013
-88.0568 58.5285 953
118.969 -19.1558 916.03
-47.1015 -191.016 942.561
3.54125 -161.072 884.034
-22.7417 -104.899 909.771
40.5609 11.2923 936.221
84.7297 -37.4512 957.141
-60.3689 34.6462 945.835
58.1008 -27.7221 943.72
146.898 20.3883 982.717
148.627 22.6149 986.345
-19.6436 25.1961 923.942
120.146 40.3392 940.961
188.159 40.1957 1001.77
21.181 -211.421 938.456
18.5894 -173.076 879.201
76.1608 -84.2823 968.884
23.2468 190.338 882.366
104.395 -82.5871 973.512
71.5786 -66.1118 959.133
62.9596 194.661 862.848
-68.3671 15.2389 951.659
162 -23.812 976.161
183.487 -9.63963 996.602
-35.3486 -7.77747 933.79
15.6583 -175.252 881.243
138.89 15.8431 960.566
145.716 23.1084 983.765
-22.5004 37.8925 941.815
30.1062 -6.6222 935.582
32.6681 124.407 887.086
-14.9186 150.828 885.372
25.5921 209.905 873.427
4.9018 -146.673 887.054
157.468 -57.4664 978.7
23.6535 -22.4166 945.861
175.979 10.5511 992.602
24.7136 17.2887 919.902
-55.0293 31.5826 945.626
128.678 -11.5309 938.949
41.7347 33.8198 920.724
91.8849 130.427 905.735
137.831 -132.401 971.978
66.2526 183.229 883.495
222.07 15.6806 1046.37
62.4346 200.013 861.891
-8.25979 -199.592 918.632
172.48 18.2586 995.615
112.867 -145.775 950.478
30.0407 -114.487 913.558
-65.5852 -30.1327 950.509
19.3088 198.731 876.768
72.5038 -190.76 901.992
119.375 7.29508 926.89
85.484 125.083 897.134
28.5406 193.533 877.638
171.142 -14.8812 982.412
43.4859 -153.537 902.666
-74.462 -34.8849 961.017
136.75 -21.8268 951.732
133.478 -116.496 953.105
101.212 155.243 872.304
15.3773 -160.021 879.747
47.9965 200.08 872.045
-42.0019 -184.255 929.654
126.549 -129.036 964.171
109.296 -127.194 966.539
64.1986 146.188 900.433
16.6201 188.189 871.679
-34.1798 132.193 926.045
117.369 48.9046 937.634
66.1881 216.293 863.33
145.316 -34.4611 967.842
127.43 191.605 875.989
126.842 -112.852 955.736
40.3752 -19.2546 939.868
77.9659 -55.1879 962.171
-34.4106 -43.2398 946.55
-29.3414 -16.4685 933.136
-26.3585 -35.2653 939.05
80.8557 159.325 903.134
-19.9838 -26.7812 939.065
-42.8949 -13.7711 923.09
33.7256 183.006 865.7
155.768 -24.4778 967.693
22.2026 -11.7379 941.523
135.614 -52.2562 955.388
86.2233 -43.5561 951.68
45.0692 -20.6799 938.708
13.0447 -20.9609 954.079
148.9 -10.9036 964.971
162.401 -4.2519 978.421
177.629 -0.62708 989.107
176.832 -0.558138 994.286
122.597 13.2789 930.304
156.219 0.0734281 974.899
30.2428 2.2971 937.215
147.343 8.35464 968.598
64.5865 8.0284 934.009
191.013 11.7436 1000.66
17.2787 -34.1547 946.219
17.5802 187.758 872.876
-92.9223 53.4344 955.003
69.0045 12.5465 936.217
-77.232 13.5465 954.494
-7.39624 14.2937 931.98
-69.6945 18.3721 949.789
-71.7347 19.2877 952.648
-75.1999 21.117 954.45
-9.79426 24.9036 933.221
156.554 28.98 989.566
201.138 41.2173 1011.8
177.313 30.0476 998.369
127.362 40.0663 950.318
-56.367 34.1823 951.599
-50.5568 38.9439 948.668
-48.1377 46.6633 954.713
-90.8162 51.4103 956.508
65.6059 13.7405 938.099
68.6498 124.897 895.728
20.1389 -209.343 931.907
33.2529 -188.961 884.637
-65.1162 -117.136 977.484
90.7848 -80.3008 980.06
164.084 -39.2551 976.489
-46.4734 -16.1672 929.329
-58.5035 69.7304 959.465
191.852 -4.69335 1004.73
25.3573 -4.30656 939.097
208.427 11.3526 1014.66
34.2226 11.3102 935.258
173.793 13.866 992.517
107.706 -134.099 949.972
76.5692 12.3552 936.202
121.812 16.3678 928.848
-38.2795 26.2016 952.776
-12.9162 26.7148 932.167
-3.6893 27.3693 932.847
-62.6619 29.0934 948.569
-15.5754 32.6245 928.851
32.0695 8.36654 942.226
-1.0252 35.0762 931.261
67.8505 -195.32 908.034
53.5443 -158.119 905.892
48.1654 -43.7046 948.423
-14.2127 -108.967 910.096
106.213 -93.5413 978.906
146.376 -40.3866 970.511
150.897 -40.3894 974.676
-38.4439 0.349926 933.612
17.9201 143.1 872.413
-37.1003 11.5817 941.798
-29.8587 23.2479 936.851
60.1697 37.4981 921.553
21.6224 41.2558 917.23
150.446 23.7006 987.93
93.7829 -99.4003 991.225
-87.8078 61.3845 955.379
70.8921 124.202 890.936
107.266 132.031 915.373
-22.0994 150.655 884.182
171.773 158.124 876.952
1.96447 158.888 882.01
58.6342 193.637 861.911
83.3028 218.689 862.892
-47.1179 -160.18 922.058
106.791 -125.031 975.481
120.941 -99.9685 959.891
96.7719 -99.7969 989.06
142.724 -59.57 946.171
118.214 -56.2067 957.27
43.3623 -62.1375 942.081
-36.7961 -47.7149 958.731
102.988 43.7896 936.709
-43.2771 -46.5405 947.977
155.664 -36.1979 973.692
119.003 -28.007 917.953
0.435667 142.007 885.054
58.2753 -27.6771 943.564
31.1401 -26.8452 941.299
37.918 -24.2516 940.474
-21.2973 -23.868 936.183
-10.4927 -15.2575 933.226
181.27 -10.8741 992.926
54.8968 -12.4887 947.196
-35.2239 -8.03863 933.166
166.156 12.1296 988.918
-31.1927 -46.3041 944.405
36.8503 22.2223 931.248
-85.9108 32.3947 953.048
139.736 -62.8629 951.079
31.9929 35.6911 919.504
70.4075 38.5161 922.703
158.997 43.2487 968.805
96.0242 158.401 860.509
114.154 42.7892 940.566
80.6557 200.452 873.907
23.7806 213.736 877.267
-97.3497 60.899 959.745
77.5972 219.862 869.525
61.7861 -185.786 889.304
-32.1836 -178.469 915.866
-47.8412 55.5404 953.622
-26.6017 -176.1 923.181
92.3138 -166.706 911.833
74.1114 177.159 870.003
38.803 -159.569 895.913
0.79558 -149.65 884.342
56.1317 -153.004 902.158
15.1487 -158.926 888.289
94.7863 -28.9839 930.028
123.099 -147.015 963.116
116.81 -148.078 954.417
127.533 -143.516 966.314
124.05 -148.415 966.011
129.732 -139.284 961.457
160.493 -32.0234 979.549
68.4476 -95.5509 935.473
-35.4903 -86.0415 938.074
104.13 -98.8738 983.159
-29.1074 -82.3662 936.151
9.0431 -65.6241 955.198
-69.0288 78.7682 964.933
55.7251 -63.0439 941.961
44.4695 -59.5405 936.677
-69.4429 -47.4624 954.544
79.7974 -37.5286 950.193
28.5248 -19.6216 945.525
-244.374 -16.1153 893.495
95.9162 20.4948 941.023
199.776 7.45599 1007.54
32.576 124.275 885.452
-64.118 19.0562 950.761
158.598 19.8992 990.23
22.0077 11.1669 929.06
-25.5721 21.3378 929.638
52.7571 9.08674 913.79
189.845 39.8483 1003.38
-2.8501 20.7466 929.205
37.6658 -63.2824 938.565
108.356 24.699 954.391
76.4003 37.7467 921.702
177.312 39.3011 1001.71
22.5932 36.4642 920.088
-87.6557 58.2864 953.584
76.3913 146.301 907.118
12.2265 140.694 871.14
16.0006 192.139 872.273
83.7444 200.759 866.463
79.6938 220.368 862.302
51.8786 -18.5837 942.192
-9.93367 -216.946 935.009
52.1275 -189.44 896.046
25.9966 -15.0697 942.101
12.9693 -147.315 899.298
-9.76796 -167.722 892.422
43.262 -112.063 945.488
66.9014 -152.359 927.211
149.919 17.1598 981.832
115.111 -142.168 946.268
-6.91915 -125.287 894.031
-9.07582 -51.3681 951.406
-25.9088 -43.3259 948.667
-14.1322 -168.752 897.704
74.3991 -39.5329 955.232
136.865 -59.5964 955.014
59.9815 -32.5848 949.461
25.7379 -26.3967 945.738
34.7866 -115.492 917.767
-8.87596 8.97129 932.739
44.8393 30.4645 918.085
63.619 11.6563 936.134
151.1 43.2421 951.868
4.09812 32.0863 929.758
89.4646 217.571 861.109
142.735 43.3976 975.254
-69.2271 21.4882 948.027
72.4019 45.3129 924.456
-87.6045 52.2667 953.782
-98.5782 64.9263 960.181
128.303 111.815 913.279
-79.76 34.3014 951.228
17.0322 173.572 874.202
-33.6814 -199.979 943.638
52.6279 -161.186 906.925
115.008 -127.809 961.066
-33.5174 28.0704 945.428
-88.5675 35.8335 955.483
-78.5767 17.5657 953.303
-25.2215 13.2073 931.349
95.2596 175.624 858.249
158.289 1.12931 979.257
39.5079 209.933 885.937
192.178 0.946941 1004.54
54.8576 -36.2433 954.754
57.7569 -44.7305 951.095
180.811 174.681 1003.53
168.736 18.5621 995.25
183.705 -5.65471 996.022
34.6584 -105.25 922.148
64.759 -3.19681 940.832
-20.1007 -105.971 897.494
112.286 -149.78 951.941
139.782 -76.8134 961.475
235.741 29.696 1043.85
109.368 -119.085 975.657
71.9392 -22.5475 945.755
-41.7335 -136.384 914.18
17.5925 -151.383 892.853
140.48 -42.816 965.377
72.3079 32.5514 927.471
162.097 21.0695 991.225
40.3665 -25.0346 941.951
186.938 35.4115 999.187
-32.9365 -18.3111 932.659
-22.8975 61.4104 920.086
164.681 148.504 883.274
117.872 12.2176 932.461
-8.04463 -39.3752 940.397
6.43592 -161.416 883.197
74.7123 149.889 906.893
-22.8426 21.8846 931.247
164.349 -47.5301 980.36
-84.0889 34.94 952.709
99.7639 -33.616 923.389
129.2 112.497 916.482
-9.01201 -171.025 895.544
212.507 17.0699 1017.39
95.8893 -96.1857 985.418
31.8367 -4.74064 934.231
11.2301 -13.7879 939.792
169.938 -63.4964 990.553
141.143 -2.71037 960.724
-43.067 -19.9835 931.224
20.546 -182.189 882.041
-7.84205 -118.78 900.313
119.318 31.4921 942.045
46.4225 -63.9553 939.521
141.395 -28.4537 962.175
32.0044 75.6061 889.968
87.1373 148.939 902.273
18.0983 -30.7034 946.139
140.006 -57.1709 956.701
-30.7653 -29.9041 933.235
16.1481 -35.6013 948.427
163.057 -41.6123 977.761
-2.64415 -43.0589 945.339
150.269 46.001 962.258
-64.4677 0.303905 951.253
151.903 27.6186 991.768
5.56775 -42.2838 963.507
146.301 10.1443 968.757
-12.9307 154.89 882.521
141.794 -54.3203 952.033
-48.3856 -42.876 942.176
-8.41113 10.8259 931.837
19.9799 198.651 873.276
75.5697 -46.5251 951.563
73.462 -74.9417 957.201
46.0968 -161.341 895.794
-54.3999 61.133 955.232
66.4151 203.898 858.987
14.4943 -29.379 943.171
89.4745 18.9663 941.515
181.025 -38.0593 989.381
121.519 -145.597 959.524
140.781 -127.852 978.277
25.8584 -14.7511 941.763
70.9175 124.384 891.97
106.888 53.8691 918.535
3.12029 -36.4001 943.831
48.8723 -196.906 898.526
139.001 -47.5195 952.199
-33.6404 -22.1221 932.514
158.125 217.02 878.751
19.5055 194.422 873.152
163.324 -43.2525 977.645
-62.4742 74.0187 941.145
135.522 -104.236 946.791
143.347 -1.47372 962.544
177.016 182.181 882.413
-10.2893 -112.505 912.79
158.866 152.375 883.91
128.265 13.7624 949.225
-88.4671 58.4709 954.189
113.975 214.062 872.11
110.486 126.675 911.459
9.96151 -159.809 877.774
93.4841 33.8571 942.953
5.54422 161.494 880.92
-38.2882 -130.79 913.563
77.9198 -119.415 952.493
-99.2303 47.6286 963.553
23.2015 29.4966 921.918
-10.4488 33.0803 932.989
135.31 -52.9641 960.571
12.2724 191.725 868.811
74.2377 187.643 885.537
155.434 -20.2153 970.688
84.1568 33.2202 938.549
200.119 -6.62072 1017.73
170.535 148.154 1016.6
130.702 -17.6517 939.767
172.775 30.8925 994.138
225.556 16.7654 1046.37
-83.4821 29.026 952.934
85.7314 195.339 869.522
-8.8936 10.8836 934.688
138.99 31.1086 952.169
-29.1749 -18.5473 933.893
-31.4934 -46.5613 945.551
178.597 5.5136 993.302
149.448 -57.1984 957.362
32.7415 203.471 878.684
135.827 -37.6042 951.678
108.255 160.849 857.751
-85.4858 32.5676 952.962
-27.8674 27.8224 938.838
-39.1462 -42.7196 939.152
77.7784 -60.9317 966.346
-20.5831 -187.847 919.077
24.8574 -180.373 880.956
27.5809 -26.2755 944.307
-61.6753 -6.61213 952.794
98.777 -90.3059 982.59
-15.6922 149.218 889.856
64.8854 12.7092 938.268
-38.8244 35.4997 951.122
82.2165 187.65 871.477
-90.56 42.6455 953.38
68.8688 -124.657 946.567
-51.4387 53.4454 952.168
-87.4593 -14.759 972.005
185.29 37.7384 1001
136.224 35.8792 951.255
121.918 33.949 945.185
162.578 3.13823 984.318
146.712 27.2243 989.117
186.129 53.8745 1008.59
-26.5392 -131.871 903.024
143.406 -6.8481 962
145.046 8.58638 967.27
31.5992 -35.4266 951.833
50.4173 -57.4631 942.728
44.2327 -40.2884 947.909
33.861 201.233 872.845
56.4982 28.0152 932.122
-24.0634 -190.938 922.133
58.6523 128.204 895.385
68.0694 -27.7365 944.92
61.3446 -98.4894 929.612
161.31 -38.0623 975.804
76.4733 146.548 909.448
-24.5105 -97.9281 915.466
20.8733 -138.871 893.412
63.7204 -6.73258 939.427
41.3601 -194.834 889.353
-91.855 60.5921 956.11
-26.5168 -49.4638 948.856
-76.6255 60.5755 952.58
39.236 142.233 894.94
120.356 44.5748 948.432
-3.23709 25.0312 928.119
181.206 -25.8819 991.062
185.34 35.0414 1000.13
24.8276 7.23801 936.64
13.3468 184.772 871.565
-124.303 83.9389 981.44
120.288 -120.087 961.77
3.96102 -148.845 885.563
163.752 -20.2625 973.879
14.1072 -52.4629 949.713
6.50053 -152.239 884.078
-38.5343 -163.66 917.658
64.9516 205.55 856.411
-118.471 58.9598 982.015
-80.6448 37.6458 950.549
89.2554 40.652 931.222
-46.7733 10.3087 949.261
-34.443 -44.9276 941.989
176.367 48.4929 1003.77
-18.815 -110.71 904.49
163.241 -14.0122 976.854
32.3319 -183.654 881.772
-27.1724 -12.2808 935.752
113.534 132.24 914.237
30.4852 -10.4451 941.602
98.6009 -85.3674 978.47
52.5361 -19.5296 940.407
111.006 -23.9046 912.683
5.67744 42.0439 925.376
31.5533 -145.054 891.93
-22.5162 -95.2312 915.613
2.79239 -166.705 887.116
69.8674 -70.1695 957.01
128.763 -20.2535 938.969
115.439 218.182 875.494
-47.689 -37.8337 933.081
37.8454 -24.7039 941.226
-12.6707 -128.176 896.422
17.5914 -144.652 895.942
174.677 -45.8366 985.781
113.084 149.173 857.419
177.478 33.4859 1000.76
134.311 148.4 860.076
-5.32907 -132.624 893.261
108.767 29.4129 943.296
121.637 -142.426 958.095
180.633 207.94 890.666
36.1162 -191.604 887.517
160.207 -63.0612 981.794
16.673 -186.722 879.237
69.6673 34.8547 924.051
166.432 34.4673 986.948
116.447 -43.6776 922.46
-37.5144 31.5539 950.719
171.6 22.6439 994.992
-42.1679 19.0045 946.833
-76.5283 15.8125 952.758
52.4566 14.7733 935.029
160.932 -45.1519 977.899
36.2972 16.5507 934.455
37.958 -46.3923 945.738
178.971 24.9695 998.954
29.6673 -6.516 936.795
-9.96724 -20.1286 934.845
73.9116 176.328 870.152
66.8721 -132.734 942.884
28.0884 -20.9263 945.035
19.0385 -32.6959 944.857
70.5974 138.719 906.818
41.5805 -45.6486 946.291
37.5523 26.2873 930.091
-17.1368 -187.368 919.455
187.751 27.0688 997.257
47.8468 -57.2813 944.303
145.904 -32.049 955.972
-36.7639 -43.4874 941.046
-2.98448 -8.09789 929.667
76.1733 208.05 857.847
-58.8917 72.4494 959.784
-45.896 46.1107 952.234
21.9871 10.5519 929.647
106.62 39.4127 943.432
-5.34051 2.50354 930.817
-45.6158 29.3645 947.265
99.2629 221.394 868.473
124.066 32.5542 945.414
118.923 -95.0372 969.779
174.115 166.56 888.378
132.773 -113.216 954.093
-55.0908 29.1824 947.682
198.75 38.7549 1008.93
33.2513 22.9497 931.969
-10.7578 19.3298 934.532
-38.1087 -29.9553 931.333
53.9809 13.2676 935.286
-76.346 12.2753 955.735
137.746 -15.4576 952.988
-24.9357 -1.23161 937.048
-24.5911 148.648 882.183
0.354001 155.62 889.345
-8.25825 -5.0622 934.18
189.151 43.6621 1005.71
20.1189 38.8264 920.076
23.2001 -14.4452 943.544
30.0963 213.403 880.913
168.139 -14.9685 979.74
62.8352 12.5841 939.062
0.0470845 20.3903 927.763
37.0433 -17.2615 939.452
38.4669 11.1781 936.571
17.2273 -18.9813 950.584
181.452 27.1952 998.155
25.6839 -19.8512 945.864
-4.29687 8.38103 931.78
-44.3049 44.9784 951.871
159.138 -20.4361 970.748
-16.7521 -23.7434 933.971
-30.529 -32.4298 936.395
44.1573 -40.2324 947.873
102.068 -106.532 980.557
73.8798 -66.657 963.077
7.11766 -166.497 885.856
160.143 -73.6549 999.291
11.52 -178.143 884.731
-30.479 -3.90346 935.66
16.0869 -185.402 885.93
-29.4794 32.3957 947.346
179.353 -35.8319 988.078
65.3379 -105.571 927.731
162.854 -4.97809 981.271
1.28206 -203.333 929.049
-67.7791 129.06 950.496
167.81 -23.817 979.099
18.6178 -208.957 938.125
76.2122 22.9518 937.243
122.414 151.428 859.179
-41.7366 125.131 929.69
-24.6083 -19.7316 934.494
41.1195 -57.0691 943.964
-36.1968 -23.0229 933.986
241.38 34.91 1048.83
14.6529 164.97 871.905
-17.235 -113.832 902.491
101.609 139.844 912.177
59.2644 12.3605 937.019
165.606 24.134 993.215
-63.8626 71.1503 959.26
92.0897 218.585 868.203
150.401 -15.8665 966.26
86.2457 -18.4296 950.232
-21.8056 -139.643 901.201
129.234 -115.968 957.148
87.8579 21.4495 939.648
150.653 14.5122 983.213
196.303 51.8967 1016.3
31.4745 45.6733 914.776
16.6347 -19.7254 951.401
170.548 48.6379 1008.75
31.9897 -34.9547 948.857
75.7414 -59.5935 960.088
111.56 26.3782 949.049
-16.0743 -104.22 906.555
-12.5815 43.483 919.421
54.9674 -2.34029 936.946
2.63815 161.493 881.85
141.991 -40.9835 972.133
-17.3191 152.163 884.825
84.186 -178.389 879.017
12.618 154.616 877.621
-84.4938 44.1446 952.215
145.045 149.513 864.117
40.1089 -61.9574 939.044
-19.4969 -5.70356 934.573
-53.0098 51.1627 948.564
42.5706 178.546 873.139
182.883 85.8517 1017.19
50.0372 -17.2991 940.942
61.8124 -68.4233 944.106
-46.9034 -158.602 922.069
-19.8785 -169.777 901.28
-54.1858 34.4894 948.13
152.467 -12.8445 963.814
219.66 21.304 1021.42
-12.5187 30.015 934.648
-66.5489 23.9847 946.98
97.6219 206.43 871.046
31.2298 6.27592 937.581
102.053 190.237 873.051
12.5881 -18.8205 953.189
3.37858 -172.566 889.877
53.4691 -34.4347 953.368
-15.6001 -122.76 899.194
85.8586 174.497 857.883
103.577 17.0313 934.492
-25.1742 34.4899 941.244
-11.4685 -3.54748 934.533
-36.6992 -26.1779 932.811
124.733 -3.798 922.893
156.029 -16.9863 972.778
68.2319 -26.9226 941.336
158.339 -44.8293 976.38
-52.1727 -23.6619 924.834
-19.0771 -2.20281 935.186
-4.25109 -212.439 937.732
183.443 -20.9274 992.144
-51.9807 -40.2324 929.09
-14.6952 -21.6458 934.457
23.548 210.911 867.975
121.495 49.3687 938.106
-37.6398 137.918 907.823
-44.8562 -1.59277 942.11
73.2998 21.8846 936.416
-31.3108 -49.0189 951.039
178.259 -123.992 1064.96
-73.809 9.18944 954.016
98.7964 -167.705 957.676
-25.7805 -124.205 904.96
-6.08613 -9.01088 929.898
52.5585 149.323 893.674
104.179 40.0363 942.924
-6.51136 -45.0375 945.496
93.4784 40.6255 932.052
-2.58235 -132.014 891.945
27.062 -175.647 879.914
42.8764 -110.768 918.466
178.927 174.666 875.695
-49.8505 50.0497 951.46
-42.8765 35.8913 949.143
-63.7433 26.8501 948.154
-74.0673 19.3605 949.897
71.0161 12.4279 936.796
71.9826 8.46901 935.925
177.315 -6.28801 989.921
-26.1826 -19.8793 933.697
16.2574 -36.8627 950.338
38.1344 -39.3417 948.852
92.7668 166.107 857.094
-45.74 34.6961 948.786
54.6148 30.1995 923.366
-64.1172 30.7144 948.371
42.9184 -43.9739 946.754
35.2822 125.381 891.308
-84.2174 61.1919 955.396
-29.9183 -21.1593 933.196
-82.0957 63.908 954.347
-85.161 61.351 954.636
-83.226 44.4002 952.205
199.736 28.75 1004.82
-59.5318 31.8022 947.864
59.4512 14.4038 936.103
40.3632 14.6204 935.704
22.6984 -176.996 878.571
-0.923622 9.72434 928.457
-17.773 28.8808 926.525
10.0254 123.525 897.175
109.088 157.25 855.577
-12.2311 -17.9093 933.467
59.0975 -10.2296 940.636
164.636 14.3505 987.666
66.8567 130.2 895.241
34.3227 -20.5473 941.435
85.2213 14.926 941.919
47.2604 118.096 891.862
-28.1291 -96.8922 916.104
168.987 -74.9663 1000.09
163.757 -20.099 974.821
-8.40837 18.9838 932.733
180.992 45.8712 1004.46
11.5035 125.292 896.96
123.922 147.888 860.239
20.9912 -173.506 879.564
118.083 -44.0874 916.82
43.2476 -23.9092 940.754
195.912 5.46262 1004.77
96.9964 20.0843 943.507
27.9034 -3.84574 936.896
72.7083 6.48601 936.517
21.7483 -109.187 912.26
30.9262 46.2616 912.751
18.916 154.405 871.273
15.576 180.285 873.954
192.623 45.7143 1004.34
68.0928 -128.568 943.641
26.449 -182.433 877.197
23.519 -170.604 888.001
-12.2541 -51.4418 950.699
157.585 -2.07033 973.61
86.9362 39.6057 930.045
103.462 -153.867 932.982
28.1741 51.1288 896.392
59.4982 -175.512 912.883
-28.1695 -177.042 914.706
69.2799 -125.141 944.278
-11.4711 -9.95762 933.29
158.215 -8.75491 973.411
62.0711 13.5945 936.291
-46.333 37.9283 948.655
70.2567 39.9074 923.975
-88.3889 55.7759 953.532
202.326 59.9112 1014.25
-78.61 66.4906 953.642
-64.3221 0.267239 951.353
194.87 8.47366 1003.72
84.9507 22.8612 936.933
33.1764 -66.6351 937.476
183.586 -20.4706 991.278
144.383 3.05118 962.424
-48.4092 39.1086 948.497
-33.0467 -9.17771 932.776
-32.7872 -5.04017 932.611
28.4592 -4.61976 935.163
1.68238 6.61079 927.435
174.912 8.83484 993.979
189.655 43.4195 1005.33
57.725 39.1336 917.408
-38.9896 -42.4587 937.166
155.6 -32.147 977.751
-23.9185 -30.219 940.98
26.9391 -11.5547 938.783
74.1841 4.13407 937.467
-10.0007 7.60535 933.125
123.67 -116.823 966.494
110.423 -95.4141 976.799
96.1195 -87.3403 983.797
125.601 -82.6101 974.037
92.9998 -35.5341 938.577
1.01363 -28.2383 940.004
-56.6649 -17.9486 952.493
220.124 14.1175 1025
-31.1473 25.9361 940.762
-53.9748 36.8045 945.774
-51.07 81.7581 945.648
190.25 26.6364 1001.03
-78.6157 25.2133 952.138
-30.643 62.3717 928.885
171.1 211.099 885.388
15.119 200.107 875.297
7.03847 -190.996 891.262
107.749 -155.457 934.056
100.865 -145.717 940.08
80.5553 193.932 868.063
29.1527 -181.927 886.992
12.1619 -34.5931 947.25
129.633 -104.368 952.003
88.0537 -163.797 920.736
22.704 125.712 896.861
85.6067 124.869 901.474
157.302 128.312 969.628
63.9344 41.88 921.636
185.819 -13.2498 998.374
62.4432 -93.0299 934.365
7.49933 159.729 881.833
376.524 166.694 1131.42
17.0772 129.472 924.385
169.642 -13.52 983.473
140.111 -41.3882 961.471
-19.8665 -53.9562 955.459
-39.5842 -160.602 915.007
19.4447 -147.032 895.189
16.3728 37.3008 921.927
106.41 -7.48133 912.027
-38.2771 -130.727 915.204
185.887 199.13 891.831
106.642 126.087 909.814
169.323 39.3182 990.675
-32.0812 -157.209 907.013
52.4938 -177.316 886.783
182.255 176.344 879.863
-81.9148 31.3582 951.216
238.464 23.2482 1044.64
156.912 -41.0988 977.012
105.392 -146.996 940.821
-43.8924 -164.098 923.31
98.2958 205.368 866.428
21.1994 123.046 894.669
98.4258 37.7102 940.925
-15.5857 23.9186 934.824
113.455 -83.7078 975.181
133.16 -131.37 965.697
-109.796 72.4724 972.254
-43.463 38.1264 949.168
191.213 42.2225 1003.16
-10.7361 29.2651 932.024
1.9686 14.3999 925.881
77.181 -76.105 960.141
62.5974 204.642 863.495
35.834 197.038 880.062
18.3696 188.508 870.709
181.063 36.2223 998.905
66.0063 13.713 936.913
194.435 -2.18604 1008.03
-9.57419 -20.6333 931.701
39.8717 -25.4044 942.945
101.975 168.226 856.266
179.352 -45.9481 989.56
109.375 38.0604 944.776
-38.2213 -163.474 916.685
37.7814 25.9847 930.453
7.16233 153.786 881.022
79.6456 46.0401 928.291
64.4686 9.90395 937.638
169.099 -19.1383 981.034
183.612 -24.1774 991.588
163.28 -41.3732 978.026
152.957 -35.6562 973.285
116.59 -22.2878 919.763
161.28 -0.278007 981.22
87.5781 18.2279 936.236
213.825 20.3613 1016.94
88.3602 199.611 856.492
57.8515 203.101 865.515
25.2252 201.828 851.454
21.529 211.891 868.13
74.4637 211.774 859.618
77.7997 209.459 852.2
3.27357 -165.976 884.691
41.193 -163.933 901.351
142.521 -65.9074 949.809
-26.123 -29.706 934.904
29.3389 38.4984 916.449
17.3128 125.65 898.184
115.853 145.381 909.168
9.65122 153.74 879.061
145.675 151.856 843.708
56.1513 193.203 880.984
23.4784 207.055 862.306
26.8287 210.98 863.518
79.0088 209.267 856.474
182.127 -31.7873 990.738
74.2961 -23.0197 953.59
34.2348 9.03811 937.819
93.63 19.127 943.075
-85.06 37.8354 951.845
18.8624 163.551 868.264
47.6304 -159.128 906.54
-14.1287 -113.874 902.813
40.2771 12.0838 936.48
-32.6798 -82.0846 937.447
75.2268 -180.849 883.37
122.519 -16.596 922.389
145.513 148.782 897.731
76.4145 187.432 877.169
-136.373 72.8224 1008.8
160.601 188.402 853.095
-44.0994 -30.3904 926.414
60.0545 -16.9434 941.402
-16.4539 0.665918 934.367
91.2272 32.0583 939.396
-51.6292 33.6007 947.549
16.3663 -166.517 879.356
45.4756 -45.0386 947.063
14.9716 -163.416 879.22
49.4458 -20.4908 940.466
65.3586 -8.79214 941.42
30.4992 -3.22335 936.246
83.9111 17.2165 938.218
130.139 28.3824 957.081
-21.145 -20.5859 934.259
71.336 4.68625 935.882
192.442 14.4195 1000.7
182.987 25.4996 998.88
79.5895 28.033 937.533
-6.5375 -22.5321 933.259
61.3396 -12.7468 941.432
-18.6869 1.17723 934.845
81.838 16.0034 938.085
39.6033 39.7194 917.536
41.2905 -116.192 920.889
55.1781 -23.6456 941.667
51.3607 8.4708 934.962
57.5988 8.76091 936.364
73.5031 12.8308 936.036
193.982 21.2239 1000.69
-68.1299 20.972 947.833
187.016 31.8686 1000.19
-50.3484 36.661 948.916
-8.57518 153.082 884.34
-36.6331 -30.0074 934.01
56.6979 -15.2702 941.138
-3.20857 35.1128 932.724
182.746 39.5777 1001.7
-81.7986 56.9013 952.322
-84.7929 65.8205 954.233
22.2124 121.198 893.136
-12.7741 124.11 906.694
38.0087 125.916 893.978
102.959 160.993 856.686
62.3273 -63.0348 947.381
-3.21575 149.674 884.338
-20.422 33.719 936.758
24.1557 168.823 871.035
-26.9168 -27.7678 939.239
45.8487 37.1894 909.995
186.073 25.1041 998.916
76.7371 27.2055 936.585
25.7863 -184.07 884.806
-6.4339 30.1193 933.75
12.468 -184.573 888.855
-87.2924 41.8834 952.538
-3.9227 -164.928 892.083
-38.8389 45.7086 952.088
-18.1852 -125.043 904.163
32.6011 -123.727 926.743
33.6102 -157.016 899.072
0.89278 -2.84255 929.204
-34.3668 -24.7226 932.643
-14.8424 -31.1521 935.251
93.8451 137.063 909.774
-16.969 -188.703 922.802
185.234 -17.3085 995.879
73.6953 49.0452 917.838
80.2142 23.9168 939.633
173.326 -4.25897 985.904
85.2288 210.635 866.95
-6.68988 -196.001 925.474
211.395 32.4774 1019.81
44.9574 -52.3294 946.33
45.4208 -38.4439 949.471
73.759 6.97257 936.047
-48.9256 36.2763 948.024
-87.2832 48.1468 952.939
69.005 -67.9028 951.738
67.4988 201.082 856.2
70.9324 214.022 858.971
28.3488 -182.772 881.908
-32.6518 -18.3071 931.891
12.3607 -160.872 879.222
-22.6781 -187.919 922.008
71.4656 -42.5935 956.453
34.0724 197.663 875.608
68.8145 -16.6078 943.482
-71.3348 8.3019 951.209
215.144 23.2106 1021.78
190.274 36.9987 1000.85
35.597 -119.077 921.12
-4.79023 41.4715 931.551
61.3387 -120.409 936.123
33.2482 123.071 891.906
74.9399 -128.452 954.965
-32.4592 -11.4689 934.057
-73.8983 11.1255 951.954
68.3379 210.066 859.577
46.6809 -180.049 885.288
21.398 189.482 876.665
-25.414 -43.3973 941.869
171.022 27.6721 990.88
-2.25814 2.04946 929.018
101.451 -93.296 980.767
43.4848 -59.1555 942.317
-26.3363 -203.453 938.584
31.2495 -27.8155 942.812
15.3706 182.148 871.316
131.456 -12.5887 947.202
27.1468 -175.801 878.246
16.6593 184.889 871.977
22.1317 -25.9228 945.854
-22.8916 191.934 859.18
-39.3867 32.3731 949.583
197.042 13.8201 1003.87
61.4584 -8.81209 940.226
164.478 33.7108 986.952
94.5535 15.2673 940.022
142.512 4.62022 961.874
-3.99514 -166.923 897.611
148.322 -16.4019 964.656
-4.19824 24.791 930.842
21.1367 -211.041 938.483
-55.8544 -42.5697 942.61
27.8995 -160.28 893.753
22.6476 -150.683 890.898
-33.6551 -51.0828 954.123
200.291 3.25714 1008.7
228.47 23.7843 1045.21
-36.2619 -10.8173 933.451
171.55 -71.5722 996.086
234.622 76.1819 1041.98
159.071 -6.97498 971.351
121.979 8.49177 930.967
31.0513 174.686 865.09
-92.4107 53.3521 953.436
243.051 69.7545 1048.03
185.343 21.8653 998.69
148.768 22.4623 986.834
173.552 -54.1154 989.458
152.983 -2.81372 965.755
100.728 20.5719 944.01
-51.6283 36.8049 948.374
208.494 11.305 1010.91
70.826 115.819 894.082
-32.4882 -11.964 933.316
137.448 143.33 916.585
-35.8831 -35.7411 935.547
103.192 130.954 912.041
168.458 211.44 880.764
50.3544 16.3396 933.58
-51.288 -32.8902 930.573
136.193 -104.279 949.755
62.9765 -21.0862 941.628
125.459 -2.37177 933.043
106.959 125.91 910.738
135.716 -94.0999 957.848
37.5807 200.107 879.56
69.0211 -194.081 903.997
68.9417 -61.4552 952.231
-50.9689 -46.1461 937.689
-69.81 73.3058 958.576
-51.108 -38.233 934.598
102.417 148.927 887.578
-25.7765 -40.3592 944.185
29.2583 -1.2665 935.903
238.254 41.0865 1049.49
221.22 55.3345 1030.59
90.092 26.3435 940.427
141.892 8.09185 961.954
87.4485 183.116 859.119
33.5351 -115.331 915.832
228.376 16.5472 1051.14
216.611 89.0238 1093.82
127.267 191.057 878.883
50.6222 -196.091 892.323
31.6757 0.440259 935.719
164.21 154.446 880.57
14.3338 -5.21159 928.744
25.6949 205.48 869.686
75.8405 207.562 855.228
71.0947 115.62 893.276
56.8598 -91.1195 921.866
56.6652 -158.848 908.545
111.318 146.704 854.441
137.36 -58.9812 957.614
-109.653 -44.79 971.882
56.2802 -152.289 901.612
163.221 214.281 878.792
168.024 166.261 873.061
197.777 58.7984 1017.02
34.5228 -59.7406 939.167
74.3214 -130.744 954.649
-72.0164 73.3223 958.616
167.312 29.2543 988.864
-46.1427 -27.0123 927.451
141.57 -60.0434 950.623
105.455 139.17 912.849
52.0527 134.298 894.3
41.4495 51.2807 907.366
-10.7674 -100.771 922.073
-74.7538 -34.8983 963.341
171.577 212.861 889.089
143.21 -4.58612 961.352
46.2327 8.71376 938.49
128.431 148.58 867.422
161.829 -79.5993 1006.49
92.1397 -56.4314 950.262
-68.5736 23.8856 946.273
157.384 149.05 890.576
168.998 -59.3857 987.417
34.0142 26.4478 931.367
-25.7478 -106.994 910.927
166.494 16.8758 990.632
136.781 -85.4755 949.746
138.64 -91.2108 959.801
176.361 169.8 879.107
67.216 -8.1967 941.834
33.4231 -211.237 949.13
84.0043 121.424 895.346
114.07 23.8976 947.099
82.6433 25.2749 937.93
-32.2173 45.7645 890.985
30.5354 213.206 881.123
196.623 10.6329 1003.74
100.94 -155.113 941.334
-21.0235 -103.193 912.699
-20.0651 -15.6142 934.334
173.857 216.436 886.787
60.0049 206.425 865.353
-14.4766 -74.1035 945.145
145.559 -52.9148 955.038
165.984 -72.609 998.124
120.569 -73.6379 971.743
-14.8725 30.313 935.777
92.6297 53.7788 919.078
97.5155 155.281 889.879
72.4357 3.26341 938.575
24.9889 -24.6869 945.317
80.6823 150.475 920.145
146.857 147.911 864.685
-4.98807 156.668 882.026
-21.9291 -34.8931 938.727
33.9435 121.472 891.594
53.2687 -181.931 888.694
139.581 34.801 958.381
-46.113 -29.9432 933.354
29.5965 214.504 883.288
114.611 141.775 926.026
66.2525 -123.941 944.031
33.1031 207.981 890.457
176.601 -43.8473 985.856
197.858 43.7482 1009.89
-39.3292 -85.9523 942.589
68.4177 188.464 882.886
10.3217 -17.7681 943.517
55.8279 -192.349 891.973
179.939 -18.1311 994.116
165.215 -40.8805 976.841
164.366 158.141 870.78
-20.8671 1.53828 935.605
-1.16246 -201.269 926.765
-115.369 -61.0079 982.027
174.53 -62.6743 992.129
178.364 -39.8291 987.844
77.993 -79.5982 968.385
58.0856 -22.1342 941.446
-35.2346 -40.1854 938.26
-54.0616 74.3569 951.678
168.51 220.505 892.517
-13.1486 -117.918 896.065
162.393 -1.73446 982.279
-6.3621 -203.839 928.58
-70.9371 66.1398 954.732
97.146 23.2602 942.578
175.419 -18.7001 985.35
-53.9777 63.1643 955.458
78.983 214.586 867.658
-106.89 67.9794 965.754
126.307 -115.286 964.062
172.112 160.772 903.666
32.0254 -31.0276 941.025
-56.0174 -30.2005 938.376
15.775 149.469 878.462
66.0644 -120.05 941.741
68.8796 203.376 857.231
-25.3551 -88.5194 926.067
-83.9441 -46.5163 957.938
197.283 28.6894 1003.11
32.5447 19.1789 935.258
28.9528 -10.0445 938.038
23.8285 193.471 879.232
-27.4808 -21.7673 933.072
100.473 211.913 862.444
62.2513 -6.87737 943.572
-16.2455 -105.366 912.45
199.895 7.61513 1006.42
228.734 75.7217 1032.36
93.2464 127.402 904.642
73.917 29.7327 933.11
-35.8773 -127.118 912.441
240.236 29.1433 1050.49
-77.4808 68.386 953.538
-20.2308 43.9372 920.664
-97.1557 77.5229 968.687
119.89 -128.951 969.856
135.594 -110.646 951.211
28.3059 -13.5109 940.403
29.0056 -190.49 887.309
78.6917 125.047 899.375
43.0767 -158.601 899.659
145.287 -34.918 964.829
155.865 -41.3697 980.546
-45.0266 -24.5393 929.739
190.756 32.6404 1000.35
116.272 -135.193 948.09
69.6298 206.649 861.325
-103.957 -30.3177 989.736
94.5562 -30.359 935.72
-11.6901 -8.89732 932.856
77.5174 16.8109 936.094
133.827 -106.763 952.47
-44.1306 43.2002 952.103
-41.5781 -136.419 912.64
159.026 8.22497 985.249
-36.9518 -149.044 905.203
33.9472 37.3264 918.666
196.706 -4.41479 1012.84
140.641 146.752 873.892
124.239 147.183 869.299
45.9412 -193.512 891.064
117.267 142.231 914.155
21.4377 107.729 893.647
74.6138 -39.5065 953.816
67.2889 201.288 857.03
207.436 30.0444 1018.35
92.4719 -103.201 993.384
47.3775 121.733 890.636
-39.2433 -7.97162 927.677
43.4329 206.496 887.856
78.943 -46.3915 954.621
53.123 208.363 868.242
102.65 23.8485 946.202
41.8899 180.465 878.338
75.2934 23.7652 936.564
206.756 69.9689 1016.82
164.535 47.2672 1001.93
10.3765 -149.688 891.477
51.8926 -155.067 905.891
268.101 -221.833 1059.14
190.392 -13.802 1006.28
101.424 -88.6036 977.751
32.2889 12.6246 937.975
177.742 -18.7709 987.387
130.062 -17.0245 944.004
58.731 121.13 893.623
-60.1371 29.4533 947.602
173.836 175.227 876.935
16.3095 188.366 872.122
74.6943 130.865 902.124
-38.8738 20.0419 949.52
0.300799 -169.679 885.667
-116.153 -53.0322 967.107
42.8154 -49.1153 944.747
163.923 23.0205 990.303
-7.68783 38.3675 930.457
16.134 180.03 871.775
-34.7467 -3.06628 910.79
-74.739 71.1821 958.731
169.723 -5.42776 986.618
178.228 13.6897 996.298
-57.1456 31.8347 948.384
2.77635 -30.6001 948.827
56.7777 -90.2191 923.583
-39.1264 13.4054 945.558
63.1055 109.804 893.814
21.1092 -16.8597 945.883
-35.9711 -50.6428 946.828
-32.931 -91.9449 921.502
-37.0524 -18.3956 933.044
181.367 32.2367 999.579
63.4984 -23.7466 942.898
87.7365 -180.571 934.66
66.1932 -4.76683 940.781
-49.818 49.8736 951.356
-35.0462 -30.1915 933.175
15.6126 -16.8308 950.944
236.738 25.8131 1046.77
105.967 21.6992 947.685
146.201 -64.0332 955.9
201.517 2.95861 1012.1
148.22 126.745 959.71
62.2017 -190.993 895.508
182.033 -22.6302 990.764
140.447 34.5544 979.987
82.8257 -42.4622 950.016
166.658 142.267 1007.62
130.272 -35.5055 941.036
25.3411 21.3592 924.616
25.9586 12.8286 939.187
-25.0006 -126.935 904.764
174.994 175.474 933.258
31.0818 162.828 864.803
30.6239 30.464 926.063
206.729 65.3986 1017.62
68.2554 -95.5031 934.14
-95.7932 66.9361 962.121
63.2539 108.982 890.843
152.554 -39.5229 979.423
13.1705 -152.525 874.63
149.612 -45.9577 981.403
49.7011 193.934 882.891
-1.49257 -144.912 885.341
115.948 140.003 922.809
59.8103 -123.989 933.473
51.3925 -31.6562 952.182
-2.45701 22.1409 930.907
-17.294 -23.7288 933.682
101.88 -85.1078 976.452
34.5354 192.316 874.519
-49.4495 33.6235 948.184
164.971 19.0728 989.748
191.692 53.2382 1017.1
32.3351 21.0937 933.488
23.5901 172.516 872.488
62.7841 -124.283 938.041
126.331 43.8223 954.782
-69.1037 23.9629 947.686
-58.2776 25.901 946.921
166.777 18.7408 993.499
70.4052 -121.553 943.018
50.1487 -43.5458 948.713
-33.3825 -2.81466 935.527
16.9974 -145.06 896.728
12.5625 -35.8822 944.126
41.488 51.4584 909.322
127.466 -6.34956 937.069
120.427 148.066 857.025
1.09739 -140.066 889.538
118.937 -28.0109 919.42
-39.6712 39.9797 950.28
27.5403 -8.28374 937.61
23.3257 -3.97435 939.129
36.2687 27.9666 930.264
36.7158 151.336 884.862
55.733 -33.5514 952.812
3.81395 -29.1894 942.095
128.074 44.2922 960.918
138.531 27.5499 965.745
196.135 46.486 1009.82
80.3752 41.5102 926.569
75.1989 -53.6803 960.86
-93.7775 47.0335 955.128
91.116 125.056 904.769
-4.31145 -197.626 926.14
50.221 31.0998 927.663
111.661 -92.4842 974.049
35.1581 13.2705 935.241
112.187 153.466 855.321
-0.253036 30.2042 930.542
127.143 -42.4752 943.809
-103.414 -30.5235 987.152
90.8677 -181.762 935.873
-19.5615 -117.584 902.167
160.686 -3.29847 981.055
98.0751 166.122 855.991
-96.288 -60.9691 960.5
74.6861 19.7544 937.132
25.6897 167.044 873.156
23.2403 205.537 883.677
140.281 -6.58916 959.235
15.7909 -29.4598 944.846
13.6008 41.7284 919.85
-77.5258 71.8552 955.382
-63.0823 76.8945 963.364
-49.3156 55.228 953.701
114.363 -122.194 967.048
146.271 -29.0916 959.151
17.165 -0.317668 935.483
78.1377 -83.5068 971.783
-2.01641 -135.733 889.563
29.8884 -1.40358 934.047
-68.9547 23.4832 948.608
-1.72708 -3.36703 929.594
23.1297 -141.971 892.694
1.94999 -170.911 891.631
-7.8042 -168.951 894.993
172.308 123.384 1005.95
45.8471 -165.208 894.972
-63.8135 23.507 946.942
34.8302 63.6513 891.819
129.989 -8.25622 942.704
76.5807 11.0427 937.165
-25.6314 -23.8196 933.725
81.0232 -83.1074 973.748
113.489 -155.321 954.224
112.562 39.3121 943.526
70.8584 -67.4756 959.679
75.7758 -83.298 960.746
161.852 -17.2501 973.625
50.0161 -17.3617 940.951
-63.4296 26.8409 946.881
187.623 18.3883 999.029
-68.5683 7.26899 950.863
202.39 -0.137795 1015.26
-12.9625 -10.6999 933.245
-37.774 -139.528 910.075
18.1904 -30.7006 945.531
-8.63836 -44.8747 944.543
-24.7204 -18.8126 934.981
25.7038 26.4033 925.389
-73.6266 66.2946 954.63
-78.0972 31.0574 949.942
105.63 -146.904 939.741
26.1027 -1.01091 939.576
-43.1667 -157.562 920.567
5.34984 -35.0438 943.587
164.067 -58.0319 985.11
-98.1173 53.9495 957.729
164.626 207.095 873.113
-34.3793 38.1644 952.302
190.446 18.5226 1000.58
146.292 30.8162 991.815
-83.0272 28.7634 950.424
-4.71064 -2.63788 930.497
-40.6974 32.7332 950.588
169.233 29.2863 989.693
-56.7377 33.7885 948.392
141.474 27.4154 980.69
116.785 -28.5177 921.851
9.99349 47.4699 911.801
177.303 7.94051 995.203
-11.7301 153.632 883.422
-37.8469 -13.4147 932.711
192.948 -0.570966 1005.63
157.717 -6.13637 973.305
141.12 -127.453 974.82
4.27657 -156.575 882.168
-94.4945 -60.5751 970.819
60.823 -12.806 941.762
-27.7824 -178.587 914.661
48.8886 -18.8674 935.693
33.1146 -115.461 915.357
40.991 -64.4624 940.013
99.6339 135.136 913.127
22.7779 -113.204 912.916
-89.4918 53.5011 953.741
163.792 -0.62301 984.788
165.271 -9.65583 983.348
148.686 -36.6431 971.17
93.0381 -83.9052 981.48
-1.35319 -139.381 887.748
146.081 -12.2796 960.655
16.3232 -175.533 882.007
53.7867 198.07 869.509
22.9353 190.241 875.756
107.823 218.849 876.4
135.404 -127.295 965.37
177.979 40.122 1002.95
-33.2981 -9.57056 933.915
105.393 -125.175 966.899
-47.1074 44.8957 950.155
20.3083 -27.4776 944.458
99.4071 216.849 866.071
22.5155 143.369 885.038
-53.8363 22.2779 947.205
116.491 -28.5906 920.105
-13.0737 -166.781 899.394
78.1906 20.5322 936.647
153.026 -41.825 979.606
184.497 62.6333 1029.27
-25.9399 -100.937 911.803
-33.7765 -134.281 910.008
164.985 -64.3906 989.549
133.788 153.894 851.229
174.095 -6.364 986.983
99.6414 135.004 912.557
65.5333 -64.651 951.405
48.7604 -111.421 922.117
-43.6711 -46.1139 945.103
148.23 146.412 871.613
131.313 -52.1566 950.864
109.589 -55.753 954.315
159.686 3.8341 982.263
78.016 -79.6856 967.852
-69.4633 21.5328 948.107
107.501 -83.0849 973.551
18.3727 -187.898 888.173
131.839 -22.443 944.372
22.6022 208.024 866.877
34.6608 206.385 879.937
112.28 221.684 876.444
23.5562 -22.2826 945.599
183.475 -24.0638 992.977
-102.407 89.8939 974.387
-21.9407 -16.314 933.667
105.742 144.678 902.009
36.2477 205.682 883.95
-41.5352 -30.7924 932.37
-15.4 -42.5315 948.028
52.246 206.318 866.742
-31.9515 -14.5484 934.003
-3.09989 -169.492 887.875
156.077 -13.1272 969.422
-3.58611 -157.231 892.049
56.5672 117.301 889.822
144.603 42.0311 966.825
185.254 0.64864 996.394
43.4005 15.7304 931.903
67.711 39.2887 922.804
80.5193 143.01 918.515
39.531 -36.5884 950.376
2.74421 39.78 930.329
37.8098 -191.15 884.634
151.781 31.8614 993.558
-40.7821 -44.9995 943.318
166.676 -72.6305 999.323
36.2361 171.992 862.997
180.62 0.253222 990.409
-7.11541 -28.1429 935.034
139.674 -85.3054 957.461
9.29636 47.6496 915.553
84.0674 -50.9347 954.723
-26.7667 -5.48256 936.086
-53.5194 -11.0028 954.695
-8.94362 -24.0995 933.412
116.637 -151.624 962.758
130.624 -140.006 966.175
-81.5736 25.857 952.391
124.63 -130.65 957.71
10.3762 -152.163 892.548
174.82 154.381 988.547
137.448 157.128 847.644
38.0412 200.582 878.925
161.643 -7.6774 978.052
80.2914 41.0734 928.273
-9.34622 -168.029 896.196
164.227 47.7145 996.427
58.4673 -50.8499 950.048
34.8736 30.1244 929.804
-51.5642 -26.3347 932.476
83.4047 119.843 891.611
166.638 -17.0194 978.876
161.33 208.119 865.894
-77.9264 68.8886 955.988
-42.7015 -43.8229 941.327
177.583 39.0977 1002.77
91.0694 -90.5342 989.55
20.763 -161.367 882.528
-15.8425 -169.575 900.78
192.281 45.4559 1005.39
53.4711 -17.624 942.536
91.4526 200.872 859.202
74.4411 -45.2332 949.601
79.182 123.481 888.524
101.548 125.377 909.192
232.459 22.5212 1048.57
1.31029 31.2772 927.33
122.908 34.4001 938.474
-3.72903 12.0841 928.307
58.7469 -23.9527 942.146
70.1863 155.461 899.947
43.0136 41.4616 917.768
207.174 36.1911 1012.06
-38.6821 -136.047 912.419
-59.4627 29.0149 947.691
96.7476 145.543 912.499
160.367 -48.576 975.5
-38.9503 28.2842 948.88
179.392 47.283 1005.02
9.7082 25.1376 924.551
-25.1448 -37.7649 936.752
-39.0153 -49.7853 957.371
8.7625 -153.405 879.505
5.93444 -167.485 884.437
-65.5141 -41.0415 950.581
47.1287 197.429 880.703
142.134 125.391 945.39
194.527 54.9697 1017.26
-67.819 73.3793 958.076
133.075 123.479 928.864
152.228 -12.8867 966.938
136.018 33.187 948.767
21.3653 -149.525 889.98
209.229 17.7996 1012.49
174.721 3.67828 990.24
193.572 0.477403 1003.81
13.6926 -181.946 884.471
67.555 -19.1935 949.181
18.3877 -164.896 879.652
-7.14413 -129.382 893.574
166.083 -80.1061 1007.41
133.565 -56.3425 957.922
-20.9945 150.018 893.913
156.166 19.8139 978.089
207.237 70.2738 1017.04
-78.4217 24.9863 951.783
60.5469 149.746 896.55
-26.5448 -148.699 897.905
3.36327 46.2903 914.004
-25.1503 130.488 886.988
211.566 19.1237 1013.56
163.461 -80.9277 1008.07
198.15 44.0357 1011
93.2981 47.2038 924.243
105.048 -140.669 945.069
-50.4415 -31.6155 932.152
81.8141 131.069 903.599
89.2121 46.494 930.886
94.3314 124.685 904.91
128.973 112.233 915.996
59.7379 43.6815 918.342
147.218 6.09342 967.657
25.9139 -143.927 889.959
-12.8913 -5.77116 933.576
-22.2652 -181.099 917.456
134.113 -136.459 965.846
39.1557 -188.51 884.757
87.6206 219.487 857.548
159.049 -27.6524 979.932
113.18 156.901 854.406
118.902 155.21 857.27
127.83 152.91 861.382
-19.7466 -133.484 899.92
-0.74603 156.376 882.758
107.372 132.207 915.384
186.008 48.1198 1007.18
-44.5264 41.1343 950.448
65.9436 10.0047 934.792
96.3095 36.3786 941.002
185.625 27.6763 999.003
155.188 -54.5086 976.131
65.9364 29.919 928.678
34.7203 26.3914 932.141
161.502 -10.48 976.927
-73.529 16.0066 951.362
87.8286 127.965 911.39
-66.6834 20.7872 948.07
156.256 -3.03431 972.831
114.937 -20.7446 914.971
-4.72859 156.376 881.147
164.199 40.4373 982.784
18.7494 -23.7102 948.979
143.889 -33.3131 955.413
13.9599 -25.7849 940.586
47.5217 -41.4144 948.511
-73.6595 40.7764 943.972
-42.8047 43.8296 950.85
72.1747 -51.0825 955.554
26.4327 -149.596 893.521
133.906 -116.94 954.785
202.84 39.295 1009.67
63.7513 -62.5525 947.634
-23.5583 -125.773 903.439
-23.9537 -14.9466 935.685
-13.6061 -194.632 921.263
18.6275 42.5175 918.1
30.2014 41.2737 916.455
-11.3306 38.0579 927.24
12.8508 -171.584 882.563
211.809 35.5902 1014.33
-26.8941 147.822 896.881
8.87732 162.859 883.223
175.923 26.4513 997.853
-9.91126 -35.184 938.953
189.307 20.7779 999.259
197.814 0.452252 1010.07
200.286 -6.33008 1017.96
77.0484 101.094 921.075
-30.4264 -10.4094 934.959
26.1839 39.4714 917.62
65.0237 -15.5848 942.083
-35.0265 -15.1952 932.356
155.235 14.3786 984.683
-49.5298 -16.8649 926.956
162.966 -16.9487 974.855
139.122 -47.1137 947.658
10.3388 -164.598 882.484
72.117 -116.752 944.864
166.803 22.0664 993.595
195.049 8.28511 1003.94
145.473 4.78225 964.087
203.697 2.711 1011.95
-6.91876 -32.3803 936.66
170.648 -45.9376 981.862
-58.6906 -40.9869 940.062
73.4757 -58.4057 960.18
155.495 10.1511 984.017
-10.6239 -122.609 895.493
114.922 -141.173 945.84
8.60589 -156.987 878.885
-1.08472 28.4507 928.432
21.1286 -172.395 879.529
73.103 -61.2132 960.541
40.3708 -191.765 885.486
56.4622 -148.635 900.394
-55.2756 28.7579 947.552
162.158 34.61 987.514
204.147 11.1195 1007.52
0.284707 32.6684 931.958
209.146 8.75221 1016.78
-17.7022 -56.7911 961.284
2.07003 29.424 930.043
180.671 -5.1042 991.673
64.9391 -20.3197 942.331
193.497 -7.23144 1012.32
-26.8547 -14.1999 935.121
41.6712 -45.6843 946.101
58.0521 -37.8379 955.901
57.5824 -18.3113 941.686
-49.4973 28.7594 940.571
-9.43779 -51.236 952.315
-29.3865 -23.6785 932.952
-35.7653 -146.758 905.77
-17.9518 -184.37 918.98
-33.6117 -33.855 934.25
64.5011 -13.0079 942.646
75.6906 -36.1159 955.052
155.716 -51.8699 976.558
115.064 -26.3377 916.486
121.515 -20.2557 922.553
-3.79691 -201.764 926.63
68.3808 127.728 894.607
66.4603 42.0819 923.685
56.261 42.0586 920.053
154.569 8.68232 981.718
154.69 -3.33488 971.992
179.294 -3.10226 988.649
152.503 -16.3016 967.781
22.5233 -24.1959 947.356
-39.5943 5.1104 946.441
79.7036 194.197 867.79
89.4189 219.146 874.208
141.679 148.867 863.4
91.7867 154.483 892.817
13.1523 -25.4225 945.848
-43.4745 47.9244 951.943
-33.9299 -28.7273 933.624
140.72 142.691 895.798
34.3343 49.233 913.001
72.7007 -73.6417 957.573
175.481 5.59547 987.818
117.299 -138.748 948.117
37.6102 -54.3807 945.601
23.2777 -108.104 913.046
-49.9244 -182.127 943.3
-22.5703 -186.447 916.352
21.3196 116.778 897.27
32.2938 141.037 895.979
-9.13284 -195.121 925.354
71.0564 15.9725 936.439
177.799 -12.1037 987.395
140.848 -123.036 971.733
-119.737 78.2237 975.708
172.998 40.7008 1006.49
21.4792 41.3142 918.686
-3.99664 36.5692 933.126
165.327 -20.2604 973.352
-28.5812 31.563 940.08
24.1834 20.5927 921.941
34.3279 15.1001 934.3
141.508 -3.04455 958.361
-52.2915 31.0375 947.314
-51.1826 -20.9154 924.064
4.9864 -24.1281 940.437
-43.227 -28.1387 931.912
53.1665 -33.92 952.537
39.6438 -42.2747 947.181
-39.3367 -42.7783 940.168
143.488 -21.2067 963.082
9.80369 145.258 879.554
76.4561 -73.1783 959.718
-47.6442 52.002 953.606
-29.1878 -43.5272 942.02
92.7163 126.587 906.38
44.5637 -117.003 922.577
187.858 37.1599 1000.27
158.918 29.6625 991.628
-60.7083 26.0455 946.968
75.514 -18.8135 942.44
225.853 76.2987 1035.46
154.399 15.7844 984.119
196.283 10.6028 1004.08
153.492 -39.1279 975.32
192.264 8.75407 1001.41
164.975 29.105 988.703
-21.9253 -1.02969 913.975
-19.3725 -6.21679 934.456
60.1707 -19.6494 942.231
45.3198 -44.8937 947.863
5.94706 -65.2153 956.619
205.455 8.50656 1009.45
165.675 -72.4121 994.521
34.6908 20.677 933.236
-18.629 -36.1976 937.043
10.9134 -182.385 885.475
26.0679 -111.069 913.103
37.4021 -182.422 881.7
93.9932 171.069 857.563
-49.288 42.3985 949.248
-17.8169 -209.503 933.499
78.965 19.4651 935.747
43.8901 -47.5253 945.373
-73.1503 23.5369 949.748
58.8248 15.8199 935.14
176.367 19.1215 991.527
43.9265 -43.6877 946.653
79.0259 -18.7498 945.084
94.6512 22.5742 942.581
-2.83488 -15.0232 931.275
53.3312 12.3068 934.837
197.5 55.6281 1016.43
206.502 13.8949 1010.56
164.161 33.6018 987.26
-24.7185 123.021 911.078
77.1195 22.0793 937.386
60.6339 9.57051 936.405
32.5043 4.35309 936.852
-18.0437 4.49494 935.155
-39.0029 -20.5872 932.816
102.755 153.644 865.511
40.3863 -23.1408 939.524
135.25 -90.1742 943.331
144.93 14.0439 970.086
-32.5722 -31.7948 933.62
-4.03006 -197.649 925.172
-11.969 150.195 886.988
43.6465 -112.287 941.093
15.3398 -51.3695 951.09
63.8963 -171.419 899.049
32.4982 24.6479 933.412
-62.4379 116.311 933.326
83.2466 29.5535 937.092
172.181 24.9194 997.261
82.34 27.5098 937.294
-66.1314 82.0216 957.582
56.1579 -11.2773 933.531
68.3098 -42.18 956.023
160.027 148.216 885.842
-27.9505 47.8493 953.091
-17.4276 -234.438 1003.35
180.674 194.693 888.721
-6.99527 -19.2045 932.114
79.9823 213.578 864.947
-10.0002 132.023 888.059
-6.29857 12.5298 932.871
-79.7386 22.3385 953.954
-25.1662 139.352 893.623
108.111 56.4761 934.72
13.2927 170.212 874.209
96.1328 22.5458 943.051
-33.9604 1.0082 930.582
101.18 -153.717 926.505
89.8298 32.618 932.19
-78.6176 10.3438 955.863
107.891 209.029 879.566
-26.7895 -17.5092 933.908
60.4319 190.936 895.146
33.4392 185.061 869.357
18.7866 184.959 870.376
0.385637 168.632 869.959
4.70443 120.034 894.704
125.467 16.1314 934.256
74.7837 188.862 888.304
25.5508 67.2912 889.985
-5.92632 -170.34 895.202
205.348 47.8373 1016.13
-41.3211 -25.2909 932.031
-27.007 -186.357 916.641
74.5418 -17.9213 945.239
143.53 214.203 850.936
38.4824 -155.564 895.977
8.25429 164.542 875.461
-85.655 58.663 957.938
102.185 149.438 888.411
62.9301 145.399 899.876
162.424 148.526 960.533
-105.926 69.3493 966.01
-67.0325 4.28376 953.183
93.6807 56.6278 914.05
-57.0916 66.8477 960.616
41.1682 29.0739 932.002
69.4038 28.0602 931.839
172.816 5.96192 987.683
207.621 28.391 1011.8
-67.5211 -31.2545 973.631
-49.944 -47.7139 946.371
9.77773 -48.8119 960.506
14.287 128.271 898.61
-2.64941 -208.226 890.302
19.2462 207.323 881.867
23.3817 171.544 868.978
166.479 158.302 871.4
160.287 152.97 879.222
79.5637 -57.5882 969.384
-32.8405 29.2209 944.243
8.65892 144.941 881.473
-98.5655 77.1312 967.194
60.2157 9.3902 934.834
-25.0588 33.9837 939.428
219.165 76.0183 1029.37
30.4968 31.1671 924.556
-40.5654 -47.0953 944.997
