-2.0119 3.84744 1.16843
1.22582 9.74658 1.38029
0.883357 4.54229 1.45591
-1.97325 4.62852 -0.591631
1.76013 6.65733 1.09973
2.43845 3.36537 0.911466
-0.105696 9.40401 1.81496
0.488273 4.01204 -3.94035
-0.609121 7.19648 1.78175
2.26188 5.85359 -2.76879
-3.60846 5.40669 -0.957797
-0.778816 3.3055 1.5485
0.518641 7.91439 1.62585
0.109274 4.99751 -3.93435
-1.3679 3.84777 -3.54627
0.730486 4.25171 1.50965
-0.97011 7.85663 1.72635
-2.43348 8.25367 1.04851
1.84978 9.14529 1.03325
-1.70415 2.69381 -1.61095
-2.44814 9.44443 0.24059
1.26001 7.46864 -4.44616
0.169429 6.55332 1.6799
-3.18393 6.23368 0.687807
2.74224 4.16555 0.757324
1.46541 7.98956 1.23929
-1.79622 3.82406 -2.68009
-0.0831429 7.61704 1.74659
0.590496 8.22037 1.62124
1.77839 7.89857 1.06783
1.47227 7.26771 1.23641
2.83278 7.58743 0.440054
2.19868 7.07794 -2.81075
-3.48776 5.3131 -1.43311
-3.67819 7.31938 -2.63535
1.1027 4.30651 0.127032
-1.09283 4.235 -3.60447
0.120195 7.94796 1.71363
-0.637443 8.90106 1.81603
1.15283 4.33428 1.34964
2.26886 7.21783 0.922509
1.36735 6.58296 1.28822
-3.73866 6.26797 -0.468343
-1.74653 2.73794 -1.14125
-1.01348 8.74486 -3.98879
-1.17268 3.55055 1.49713
0.833533 8.44749 1.55703
-0.0732928 8.28018 1.7682
-0.53062 3.85219 1.60138
0.649033 8.4414 -4.42199
-0.596676 7.8419 1.7913
2.49847 2.7169 0.226558
0.235713 4.80168 1.6291
-2.00116 2.92212 0.579618
1.76486 5.99915 1.11277
0.831585 5.16366 1.48855
-1.19971 4.85748 1.54061
-0.775858 8.19124 1.7768
-0.113425 5.92873 -3.94745
0.439814 2.8415 1.31861
-1.89601 4.90193 -1.80735
2.83849 4.72395 0.732387
0.173471 8.54209 1.72545
-1.93028 4.62319 1.26634
1.05635 3.10336 1.32399
-0.625388 7.28413 -3.91361
0.624454 7.60527 1.59343
1.02866 8.65027 -1.61829
0.457565 3.26382 1.5298
-3.19536 7.25707 0.582738
1.26545 5.37369 -2.50516
-2.33893 9.39234 -2.61323
-3.67544 5.90172 -0.850793
-0.516989 7.86383 -3.97779
-0.428706 8.21872 1.81343
-1.32277 3.35109 -3.51061
-0.611719 2.7324 -3.4305
-0.0130174 5.09508 1.65642
1.17186 7.11437 1.39431
-1.42833 4.14654 1.44738
-0.429323 7.52994 1.79284
2.36479 3.60433 -2.61842
-2.42399 8.74815 -0.207896
-3.66571 6.28952 -1.10904
-1.85766 4.19201 -1.70154
0.853037 5.84869 -4.25722
-1.60811 7.57564 1.58048
-0.392171 3.18608 1.55507
0.876614 3.75712 -4.10103
-1.23594 6.7721 1.65269
-1.03743 7.58044 -3.85318
-1.88804 2.83828 0.196886
-1.89457 3.47419 1.22615
2.0535 3.59544 1.03268
1.49105 9.06745 1.22908
-1.7566 8.77304 -3.84278
-0.201309 3.88649 1.6221
-0.736243 3.98324 -3.66466
-0.23532 7.92575 1.78526
-1.68268 2.69579 -2.80103
-0.459942 5.05966 1.64802
1.33972 3.38509 1.28002
-3.48763 5.30375 -2.02349
1.26545 5.37373 -2.50516
1.79211 7.44684 1.07931
0.911235 7.72605 1.51089
2.05789 6.47778 -2.85895
-1.23075 3.44065 -1.00601
0.852965 7.01036 1.51354
2.68445 6.54656 0.660051
1.09619 6.37549 -4.4937
2.67279 6.67967 0.21836
-3.0027 6.84949 -3.2647
2.45424 5.5326 0.881242
-2.77218 6.20293 -3.28733
1.12086 5.33202 1.38481
1.19355 7.87222 1.40277
0.849821 7.34352 1.52729
0.783859 5.55378 1.51146
-1.62265 6.06973 -3.6336
-0.921379 2.81253 1.25959
0.971021 3.24798 -4.13355
-2.3921 6.64908 1.03716
2.58679 2.90043 0.656552
1.29218 4.62246 -1.5578
1.05939 5.70561 1.41632
-1.84892 2.76488 -0.201422
0.539318 7.07196 1.61257
-0.721291 6.82055 1.748
-3.70169 6.00808 0.422359
2.75432 5.72951 0.604077
-3.59163 5.74113 -1.30094
2.39258 6.11718 0.897563
-2.117 3.94984 0.792128
-1.89357 3.1906 0.0125434
-3.38106 4.81665 -1.79407
-0.318525 3.69825 -3.67628
1.26971 2.68808 -4.12195
1.0888 4.30358 -1.55614
-1.52387 7.90357 -3.80541
-2.07642 3.54273 0.766253
-0.325027 2.8804 1.39897
2.41758 5.0357 0.913926
1.51064 4.25451 1.22258
-1.85033 8.96529 1.55094
-1.26037 6.36012 1.62318
2.7023 7.85519 0.739029
1.38012 4.15306 -2.56755
-3.88383 6.46435 0.308196
-1.07431 7.06629 -3.8101
2.71311 3.73234 0.723785
-1.77964 2.71163 -0.663197
0.992016 4.04062 1.41245
-3.32673 6.2889 -3.3098
1.38119 5.59682 1.29691
0.261615 4.60399 -3.89691
1.65482 2.95702 1.04319
1.55444 5.26462 1.21889
-0.00963303 6.49133 -4.02775
1.09209 8.58318 1.44685
2.3036 6.7315 0.918748
-0.832856 6.18283 1.69954
1.10054 6.73663 1.42019
-2.02203 4.22691 0.0671413
1.00961 9.5406 1.49125
-0.397622 8.82893 -4.11406
-1.5136 4.55646 1.42473
-3.61705 6.24913 -1.62031
-3.36767 5.33484 -2.93866
-1.90183 4.55356 -2.16371
2.0404 2.8137 -2.7168
-1.18194 5.969 1.62606
-0.501208 9.56395 1.83721
-2.25586 8.63179 -3.60982
-1.98916 7.72503 1.42882
1.73054 5.61515 1.14156
-1.3357 8.41187 -3.8816
0.730628 4.46349 -4.06469
-1.83894 2.80584 0.937074
-2.35662 8.81965 -1.07689
1.41641 8.63902 1.27556
-2.68315 5.20817 -2.75908
1.61478 4.90651 1.18457
2.14898 7.66051 0.963532
-1.60053 4.95052 1.41899
1.12282 5.73701 0.120279
-2.41422 9.02773 -0.588639
-1.87274 4.17391 -0.914127
-0.486443 4.67647 1.62807
-2.15129 9.57398 1.4464
-3.81339 7.423 -0.809957
0.484585 8.54511 1.65265
1.53005 3.00114 -3.49142
1.22067 8.192 0.11566
1.21507 8.89072 1.38204
1.12049 4.77583 -4.35669
-0.245354 5.3542 1.67014
0.00292757 3.28888 -3.75027
0.553402 9.11277 1.65799
-3.81991 7.2143 -0.33249
0.695835 6.67437 -4.30804
-1.77379 3.13502 -1.86586
1.46083 8.31906 1.24487
2.7697 6.92244 0.523358
0.0533893 4.19938 1.62084
-0.817293 7.4938 1.74217
-2.28933 8.36019 -2.13462
-0.566687 5.26079 -3.75316
-1.61742 5.08047 -3.57299
-1.83855 3.45307 -0.588684
0.595302 6.16355 1.58548
-1.03284 8.93349 1.78553
1.37814 3.70274 -4.19834
-3.72022 6.91157 -1.28455
-3.63835 6.8752 -2.37088
-2.74599 6.12585 0.731648
1.25149 6.8286 -4.47228
0.885846 6.3852 1.48554
1.26837 8.43853 0.138012
0.939508 8.88485 -4.60368
0.967585 4.79727 -1.57845
-3.46475 4.93032 -2.45705
-2.37272 5.6568 0.68615
-0.753472 4.12989 1.58073
0.64856 4.92825 -4.07513
-1.90154 8.1574 -3.78565
1.47286 6.91734 1.23608
-1.98296 7.02231 -3.58874
-3.71859 7.49765 -2.27882
-1.35003 2.84205 1.19315
1.86539 7.0436 1.0586
-0.786035 9.26003 1.81814
-2.23981 7.88869 -2.60136
-3.55066 4.98279 -0.770562
-0.412873 5.78796 1.6898
0.412712 4.15944 1.58442
1.56461 6.29416 1.1875
-3.78617 5.50795 0.123515
-2.19691 8.72111 1.38161
0.383115 5.81221 -4.0828
1.57144 3.67053 1.19443
-1.80015 5.74939 1.41777
0.490186 3.38383 -3.87838
-2.45814 5.66819 -3.03577
0.353511 2.90494 -3.78806
-0.277111 4.7988 -3.76616
0.736119 3.86714 1.51184
2.11274 8.1588 0.971591
1.72175 4.53843 1.14843
0.435253 7.34992 1.63936
-3.53105 5.54295 -2.41404
-0.90469 5.0077 -3.67865
-1.76898 3.11433 -0.85981
-1.84391 4.39964 -2.71751
-2.49155 9.54684 0.684651
-1.39184 7.9136 1.64598
-2.05385 4.55291 -0.102329
0.294001 9.37403 1.73984
2.38174 3.07846 -2.56407
2.09341 4.30953 1.04348
0.944236 6.02087 1.45434
-1.80376 8.06936 1.52987
0.200863 6.92746 -4.13147
-2.46317 6.92611 -3.31082
-2.29936 8.93243 -3.23226
0.707908 3.09836 1.42975
0.124077 9.66519 1.78552
-1.8067 8.56476 1.554
-2.37313 8.573 -0.662002
-1.87631 7.28604 1.46474
-2.15425 8.27535 1.38071
1.01951 5.38717 -4.33789
-2.16277 7.43274 -3.16986
0.439672 9.71786 1.71006
-3.5538 6.90216 -3.14938
-0.963311 8.56919 1.77482
1.30618 4.64717 1.30038
-2.25627 9.15401 1.3756
-2.41507 9.27044 -0.916679
-0.446954 3.20618 -3.58605
-2.33765 7.87335 1.20384
2.67674 7.18794 0.174986
-2.09147 6.01033 -3.37823
-0.0587375 3.20485 1.56218
-2.03354 7.60492 -3.6968
0.800455 7.89375 -4.49186
-2.40931 8.17793 0.645914
-1.13736 4.44243 1.53437
0.619916 4.84715 1.56203
-0.554782 5.72676 -3.79956
0.603091 9.45175 1.65365
-1.56844 3.76468 1.39389
1.02884 8.6448 -1.61829
2.78572 8.84459 0.621019
2.3768 3.94233 0.936217
-2.06945 4.90517 -0.23187
-0.984318 8.09589 -3.9203
0.080676 9.13685 1.77569
-1.62927 5.52714 -3.62289
-0.275139 8.95438 1.82176
1.14093 5.12821 0.133982
1.26201 9.25164 0.126822
0.675564 8.77925 1.60707
1.98934 5.27859 1.04202
-1.65031 3.06506 -3.3258
-0.170648 2.80785 -3.58478
-1.81145 3.94663 -2.22592
-3.49202 6.79156 0.618527
-1.62941 6.53512 1.51704
-2.34573 9.06259 -2.26037
-2.45615 8.67906 1.07224
-1.97632 4.25651 -0.443967
-2.51717 7.28893 0.834847
2.33499 6.75505 -2.75844
-2.45997 9.60563 -0.139818
-1.90979 3.52643 -0.172949
0.274785 7.66993 1.67365
-3.93518 7.08081 0.294624
-2.26003 5.82372 1.0447
-0.203345 4.46593 1.63308
-1.83689 3.60381 -1.76162
1.73469 3.3148 1.13511
-2.13161 4.335 0.934624
0.0389734 4.19103 -3.79665
2.02493 8.76851 0.977167
2.70128 3.27754 0.576698
0.951873 4.85312 1.4366
-0.988939 7.09191 1.717
-0.0381416 7.47409 -4.07535
-1.71405 3.56406 -3.29162
-0.822247 3.66629 1.55666
1.46568 7.63038 1.23682
2.35219 7.50721 -2.76169
-1.84591 3.08795 -0.410569
-1.23517 2.76227 -3.34682
2.68618 7.29052 0.661281
0.392472 5.62191 1.64238
2.12163 5.76559 0.98509
-0.837465 6.11301 -3.78993
0.115347 3.70307 -3.8096
-1.48357 6.84732 -3.72416
0.0608843 8.6713 -4.23615
-0.829957 9.62898 1.82881
-2.03601 6.07946 1.3201
-2.44273 8.93724 0.189468
-2.20256 8.42136 -2.96167
-0.107846 6.01743 1.69636
2.50243 3.14572 0.221061
1.25158 5.00956 1.32771
0.146033 4.50574 1.62721
-1.19386 7.53191 1.68167
1.17054 7.48042 1.40265
-3.65422 6.73396 -1.73909
-3.7862 7.79476 -1.65253
-1.49754 8.33092 1.63913
-0.675518 2.98118 1.44398
-0.637299 8.29472 -4.02254
2.03449 4.82464 1.0462
-0.069392 5.66597 1.68518
1.97719 9.59256 0.963463
0.675401 3.52678 1.53603
-1.78104 3.17356 -1.38757
-2.34832 8.9715 -1.72386
-3.50735 4.84028 -1.18788
-2.0516 4.08411 0.423546
-1.52439 9.48274 1.69824
-1.6702 2.77193 -2.28906
-0.412338 9.24464 1.82858
-1.82533 4.19191 1.28502
-2.00409 5.17154 -3.03632
1.92474 6.78388 -2.91108
0.236316 6.21579 1.67677
-2.05008 5.05482 1.23699
-1.35144 8.68199 1.70667
1.58016 9.74347 1.16053
-0.133887 6.3609 1.70756
-2.34447 8.6033 -1.49009
-3.68153 5.22922 -0.248549
2.34306 5.47829 -2.6331
-2.45962 9.10826 0.573519
0.781709 9.73301 1.59164
0.333631 8.89577 1.70806
-1.85327 3.98551 -1.33955
-1.27706 4.70016 -3.5841
0.427766 3.79016 1.5867
0.559467 5.32541 1.59174
-3.73814 7.36163 -1.30767
2.12586 3.04463 0.987242
-1.97491 3.30406 0.407807
-1.6358 6.93384 1.54464
-0.261325 8.58032 1.80847
0.0115463 8.80182 1.77565
-0.580377 5.46404 1.66839
0.844989 2.82393 1.21621
-0.468653 6.53201 1.73534
1.19271 6.2803 1.3651
-2.19365 7.9023 -3.41041
-1.36182 7.19112 1.64275
0.501882 4.51915 1.57764
1.34396 3.93826 1.28536
-1.40583 5.65725 1.5491
-2.50214 9.49786 1.15343
-2.40238 9.25567 -1.42466
-2.83972 7.39258 -3.04954
0.415115 5.4376 -4.07605
-2.35438 8.35594 -0.129885
-1.09906 3.97218 1.51547
-3.53581 5.73171 -1.92876
-2.44998 9.54654 -0.62668
0.272626 8.22222 1.69366
1.37999 4.15495 -2.5672
1.09377 3.68939 1.38239
0.48773 9.11962 -4.41093
2.86446 8.36852 0.553222
-1.92763 4.60978 -1.01624
1.68813 8.76384 1.11684
0.00715722 2.86201 1.38041
2.0368 6.3611 1.00547
1.77816 8.36084 1.07161
1.07517 8.37676 -4.60885
1.35362 9.44618 1.31436
-2.16547 5.3057 0.392691
1.36516 5.96264 1.29312
-3.54416 6.06995 -2.34363
-0.433121 3.51498 1.60811
-3.50788 5.92247 -2.98247
-0.365873 6.91552 1.7651
0.122875 3.87842 1.61689
-0.760333 4.46783 1.58824
0.117947 7.33792 1.70043
-1.47592 9.13839 -3.91394
-1.52742 7.32747 -3.72944
-0.0954569 6.7405 1.71385
1.03614 3.5788 0.067266
-0.82255 4.84014 1.60094
-0.11416 5.45931 -3.89908
-2.42245 9.58377 -1.95952
1.6356 9.40052 1.14418
1.81412 3.98324 1.11074
-1.10398 5.34067 -3.65433
-2.14885 4.93662 0.587082
-3.7857 6.75849 -0.141508
0.232726 5.89668 1.67429
-1.15337 5.86883 -3.70411
-2.45933 9.20849 -0.173226
-0.717395 4.54329 -3.71564
0.129662 7.00654 1.69081
-0.267365 6.89905 -3.96763
0.512003 6.46975 1.61294
-0.0836836 3.54393 1.61885
1.32769 4.50608 -4.10722
-2.39678 8.49628 0.256392
-2.10204 4.51793 0.44598
-1.70252 5.33821 1.42666
-1.90381 4.86989 -2.46924
-1.16627 9.28474 1.77758
-2.04969 3.17553 0.949326
-1.75831 3.45857 -2.21985
-1.92296 4.53137 -1.45903
-2.94216 5.7686 -3.19145
2.72644 6.11994 0.623992
1.4088 3.12017 -4.14473
1.13314 6.09423 0.0895177
0.954948 3.39436 1.43133
-1.97005 3.69548 0.259535
-2.21385 6.41013 -3.37796
0.37929 7.47334 -4.21428
-2.03188 6.48793 1.33183
-0.895373 6.52998 1.69326
-1.60187 6.11648 1.51047
0.385412 7.91365 -4.26654
-1.92412 3.86495 -0.587022
-2.34392 7.05379 1.12517
1.15705 9.21607 1.41404
0.628971 5.85649 1.57095
-2.44405 8.65298 0.642572
-0.214585 9.71682 1.83325
-2.24578 5.27345 0.884557
1.0223 4.68699 0.119266
-0.397774 6.36986 -3.90885
-0.378181 4.20158 1.6186
0.751451 6.69686 1.54047
-0.802967 6.72406 -3.87637
-2.30834 8.6635 -2.61874
-1.8765 6.46483 -3.62231
2.44125 4.5392 0.923843
-1.77667 3.6478 -0.969995
-1.46236 3.33936 1.39226
0.914325 8.93332 1.52454
-2.13272 9.17685 -3.75972
2.67997 6.24827 0.247599
1.16793 8.24031 1.4224
1.27827 8.91072 0.142959
-1.28436 5.24532 1.55716
1.17069 5.06136 -1.57515
-3.74755 6.89851 -0.662247
-0.468302 6.1649 1.70888
-0.791336 9.25309 -4.0564
-2.31887 6.25063 1.02582
-3.81999 7.95429 -1.03594
-2.26392 7.44487 1.21774
-0.382361 4.2698 -3.73288
1.14857 5.43506 0.149746
-1.13726 8.2356 1.71736
-0.926932 3.07259 -3.48977
0.22225 3.06849 1.48314
2.78149 5.20569 0.719312
-1.11453 3.11895 1.43668
-3.72842 5.63633 -0.374433
0.844682 9.26788 1.55677
-2.11024 5.4935 1.22675
1.35233 5.7017 -4.51307
-1.80727 4.09505 -3.1898
-1.87069 4.71662 -3.30548
-2.08343 4.88894 0.178118
-2.35587 8.04756 0.27347
0.148377 5.39809 1.6719
0.363098 5.09276 1.62787
1.65411 6.54468 -3.19716
-1.01518 5.53568 1.6353
-2.3961 7.73853 0.793416
0.464446 6.34076 -4.17834
-2.1859 4.74701 0.947653
-1.4804 9.0471 1.69088
-0.156738 4.81059 1.64534
1.32121 2.99896 1.16202
-0.788418 5.81982 1.68627
-0.156027 8.17431 -4.12922
-1.19097 9.6435 1.78457
-1.70141 3.18994 -2.75753
-1.20191 6.37457 -3.76499
-1.57455 4.33758 -3.49989
-3.69879 7.24169 -1.83999
-0.186395 9.2143 -4.20015
1.27196 9.56613 0.12227
-2.49055 9.09935 1.00539
0.833928 7.24211 -4.46989
1.01499 5.52286 -1.61242
-3.92522 7.83339 -0.548804
-3.60379 6.47205 -2.90648
-0.849983 3.54019 -3.5574
-3.81043 6.02939 -0.0092929
0.241278 3.49213 1.60016
0.396645 6.79841 1.64024
-1.95102 3.9065 -0.143086
2.37767 8.31611 -2.75456
-0.60086 8.55134 1.80904
0.882716 8.06659 1.53683
-2.91099 6.73963 0.784014
1.0822 3.96952 0.143013
-2.92105 5.69138 0.502627
-1.96945 5.45958 -3.30114
-0.837895 5.19529 1.62453
2.26159 6.2156 -2.76276
-1.8485 9.36731 1.57781
0.739677 2.83925 -3.89663
1.11642 4.09282 -4.31003
1.27567 9.92759 0.0888299
-0.201214 7.22535 1.75808
-3.74202 8.00446 -2.0566
1.10721 3.83859 -1.55833
-3.91594 7.55816 0.0252642
-1.70241 3.08456 1.22063
-2.04857 6.90064 1.3719
