1.98753 7.8345 0.93526
1.98753 7.82157 0.93526
1.98753 7.80864 0.93526
2.00961 7.79078 0.945652
2.00961 7.77786 0.945652
2.0757 7.75024 0.976749
2.03167 7.74712 0.956031
2.0757 7.72445 0.976749
2.09767 7.70669 0.987087
2.09767 7.6938 0.987087
2.14152 7.67125 1.00772
2.14152 7.65838 1.00772
2.16341 7.6407 1.01802
2.14152 7.63263 1.00772
2.16341 7.61497 1.01802
2.14152 7.60689 1.00772
2.11961 7.5988 0.997412
2.14152 7.58115 1.00772
2.14152 7.56828 1.00772
2.14152 7.55541 1.00772
2.00961 7.57114 0.945652
2.03167 7.55344 0.956031
2.14152 7.51679 1.00772
2.14152 7.50392 1.00772
2.14152 7.49105 1.00772
2.11961 7.48289 0.997412
2.09767 7.47472 0.987087
2.0757 7.46654 0.976749
2.0537 7.45834 0.966397
2.0537 7.44544 0.966397
2.0537 7.43254 0.966397
2.0537 7.41963 0.966397
2.0757 7.40206 0.976749
2.0757 7.38916 0.976749
2.0757 7.37627 0.976749
2.0757 7.36337 0.976749
2.0757 7.35047 0.976749
2.00961 7.3515 0.945652
2.00961 7.33858 0.945652
2.09767 7.30718 0.987087
2.11961 7.2897 0.997412
2.11961 7.27682 0.997412
2.11961 7.26394 0.997412
2.09767 7.25563 0.987087
2.09767 7.24274 0.987087
2.0757 7.23442 0.976749
2.09767 7.21697 0.987087
2.0757 7.20862 0.976749
2.0537 7.20027 0.966397
2.0537 7.18737 0.966397
2.0537 7.17446 0.966397
2.0537 7.16156 0.966397
2.0537 7.14866 0.966397
2.14152 7.11779 1.00772
2.14152 7.10491 1.00772
2.11961 7.09651 0.997412
2.11961 7.08363 0.997412
2.11961 7.07075 0.997412
2.11961 7.05787 0.997412
2.11961 7.04499 0.997412
2.03167 7.04988 0.956031
2.03167 7.03697 0.956031
2.03167 7.02405 0.956031
2.0537 7.00672 0.966397
2.0757 6.9894 0.976749
2.09767 6.97211 0.987087
2.09767 6.95922 0.987087
2.0537 6.9551 0.966397
2.0537 6.9422 0.966397
2.0537 6.92929 0.966397
2.0757 6.91203 0.976749
2.09767 6.89478 0.987087
2.09767 6.88189 0.987087
2.0757 6.87334 0.976749
2.0537 6.86477 0.966397
2.14152 6.83462 1.00772
2.14152 6.82175 1.00772
2.03167 6.83038 0.956031
2.16341 6.79173 1.01802
2.16341 6.77887 1.01802
2.16341 6.76601 1.01802
2.16341 6.75314 1.01802
2.16341 6.74028 1.01802
2.16341 6.72742 1.01802
2.16341 6.71455 1.01802
2.16341 6.70169 1.01802
2.09767 6.70147 0.987087
2.09767 6.68858 0.987087
2.09767 6.67569 0.987087
2.09767 6.66281 0.987087
2.16341 6.63738 1.01802
2.16341 6.62451 1.01802
2.0757 6.62832 0.976749
2.0757 6.61543 0.976749
2.0757 6.60253 0.976749
2.0537 6.5938 0.966397
2.0537 6.58089 0.966397
2.0537 6.56799 0.966397
2.0537 6.55509 0.966397
2.0537 6.54218 0.966397
2.0537 6.52928 0.966397
2.0537 6.51637 0.966397
2.0537 6.50347 0.966397
2.0537 6.49057 0.966397
2.0537 6.47766 0.966397
2.0537 6.46476 0.966397
2.0537 6.45186 0.966397
2.0757 6.43489 0.976749
2.0757 6.42199 0.976749
2.09767 6.40506 0.987087
2.0537 6.40024 0.966397
2.09767 6.37928 0.987087
2.09767 6.3664 0.987087
2.11961 6.34951 0.997412
2.11961 6.33663 0.997412
2.11961 6.32375 0.997412
2.0537 6.32282 0.966397
2.0537 6.30992 0.966397
2.09767 6.28907 0.987087
2.09767 6.27618 0.987087
2.09767 6.2633 0.987087
2.16341 6.23862 1.01802
2.16341 6.22576 1.01802
2.16341 6.21289 1.01802
2.16341 6.20003 1.01802
2.16341 6.18717 1.01802
2.14152 6.17819 1.00772
2.14152 6.16532 1.00772
2.0537 6.16797 0.966397
2.0537 6.15507 0.966397
2.0537 6.14217 0.966397
2.16341 6.10999 1.01802
2.14152 6.10096 1.00772
2.14152 6.08809 1.00772
2.16341 6.0714 1.01802
2.11961 6.06616 0.997412
2.14152 6.04947 1.00772
2.14152 6.0366 1.00772
2.14152 6.02373 1.00772
2.2071 5.99954 1.03858
2.16341 5.99422 1.01802
2.14152 5.98512 1.00772
2.16341 5.96849 1.01802
2.14152 5.95938 1.00772
2.14152 5.9465 1.00772
2.11961 5.93737 0.997412
2.11961 5.92449 0.997412
2.11961 5.91161 0.997412
2.11961 5.89873 0.997412
2.14152 5.88215 1.00772
2.03167 5.88781 0.956031
2.03167 5.8749 0.956031
2.14152 5.84353 1.00772
2.14152 5.83066 1.00772
2.16341 5.81414 1.01802
2.16341 5.80127 1.01802
2.16341 5.78841 1.01802
2.0537 5.79377 0.966397
2.0537 5.78086 0.966397
2.03167 5.7716 0.956031
2.03167 5.75869 0.956031
2.03167 5.74578 0.956031
2.11961 5.71842 0.997412
2.11961 5.70554 0.997412
2.14152 5.68908 1.00772
2.14152 5.67621 1.00772
2.14152 5.66334 1.00772
2.14152 5.65047 1.00772
2.11961 5.64114 0.997412
2.18527 5.61766 1.02831
2.0537 5.62602 0.966397
2.0537 5.61311 0.966397
2.0537 5.60021 0.966397
2.0537 5.58731 0.966397
2.03167 5.57793 0.956031
2.0537 5.5615 0.966397
2.16341 5.53115 1.01802
2.16341 5.51828 1.01802
2.16341 5.50542 1.01802
2.16341 5.49256 1.01802
2.0537 5.49698 0.966397
2.0537 5.48408 0.966397
2.0537 5.47117 0.966397
2.0537 5.45827 0.966397
2.0537 5.44537 0.966397
2.0537 5.43246 0.966397
2.0537 5.41956 0.966397
2.14152 5.39304 1.00772
2.14152 5.38017 1.00772
2.14152 5.3673 1.00772
2.2071 5.34435 1.03858
2.2071 5.3315 1.03858
2.2289 5.31532 1.04884
2.2289 5.30248 1.04884
2.2289 5.28964 1.04884
2.2289 5.2768 1.04884
2.0537 5.29052 0.966397
2.0537 5.27762 0.966397
2.0537 5.26471 0.966397
2.0537 5.25181 0.966397
2.11961 5.22901 0.997412
2.14152 5.21284 1.00772
2.14152 5.19997 1.00772
2.14152 5.1871 1.00772
2.14152 5.17423 1.00772
2.14152 5.16136 1.00772
2.14152 5.14849 1.00772
2.16341 5.13239 1.01802
2.16341 5.11953 1.01802
2.16341 5.10666 1.01802
2.0757 5.10665 0.976749
2.0757 5.09375 0.976749
2.03167 5.08727 0.956031
2.03167 5.07436 0.956031
2.2289 5.03286 1.04884
2.2289 5.02002 1.04884
2.2289 5.00718 1.04884
2.2289 4.99434 1.04884
2.2289 4.9815 1.04884
2.2289 4.96867 1.04884
2.2289 4.95583 1.04884
2.2289 4.94299 1.04884
2.2289 4.93015 1.04884
2.2289 4.91731 1.04884
2.2071 4.90755 1.03858
2.2071 4.8947 1.03858
2.2071 4.88185 1.03858
2.2071 4.86901 1.03858
2.11961 4.86838 0.997412
2.11961 4.85551 0.997412
2.0537 4.8518 0.966397
2.2071 4.81762 1.03858
2.2071 4.80477 1.03858
2.18527 4.79493 1.02831
2.18527 4.78208 1.02831
2.16341 4.77222 1.01802
2.14152 4.76235 1.00772
2.14152 4.74948 1.00772
2.11961 4.73959 0.997412
2.09767 4.72969 0.987087
2.09767 4.7168 0.987087
2.0757 4.70688 0.976749
2.2071 4.6763 1.03858
2.2071 4.66346 1.03858
2.2289 4.64769 1.04884
2.2289 4.63485 1.04884
2.2289 4.62201 1.04884
2.2289 4.60918 1.04884
2.2289 4.59634 1.04884
2.2289 4.5835 1.04884
2.2289 4.57066 1.04884
2.2289 4.55782 1.04884
2.2289 4.54498 1.04884
2.2289 4.53214 1.04884
2.18527 4.52498 1.02831
2.16341 4.51496 1.01802
2.16341 4.5021 1.01802
2.16341 4.48923 1.01802
2.09767 4.48483 0.987087
2.09767 4.47194 0.987087
2.16341 4.45064 1.01802
2.16341 4.43778 1.01802
2.18527 4.42214 1.02831
2.16341 4.41205 1.01802
2.16341 4.39919 1.01802
2.14152 4.38909 1.00772
2.16341 4.37346 1.01802
2.18527 4.35786 1.02831
2.2071 4.34228 1.03858
2.2071 4.32943 1.03858
2.03167 4.33839 0.956031
2.14152 4.31186 1.00772
2.11961 4.30169 0.997412
2.11961 4.28882 0.997412
2.2289 4.26252 1.04884
2.2289 4.24969 1.04884
2.2289 4.23685 1.04884
2.2289 4.22401 1.04884
2.16341 4.21911 1.01802
2.16341 4.20624 1.01802
2.16341 4.19338 1.01802
2.2289 4.17265 1.04884
2.2289 4.15981 1.04884
2.2289 4.14697 1.04884
2.2289 4.13414 1.04884
2.2071 4.12388 1.03858
2.14152 4.11879 1.00772
2.16341 4.10334 1.01802
2.2071 4.08534 1.03858
2.2071 4.07249 1.03858
2.2071 4.05965 1.03858
2.2071 4.0468 1.03858
2.2289 4.03142 1.04884
2.2289 4.01859 1.04884
2.2289 4.00575 1.04884
2.03167 4.01559 0.956031
2.16341 3.98757 1.01802
2.16341 3.97471 1.01802
2.16341 3.96184 1.01802
2.14152 3.95147 1.00772
2.0537 3.94854 0.966397
2.2289 3.91587 1.04884
2.16341 3.91039 1.01802
2.16341 3.89753 1.01802
2.16341 3.88467 1.01802
2.16341 3.8718 1.01802
2.2289 3.85168 1.04884
2.2289 3.83884 1.04884
2.2289 3.826 1.04884
2.2289 3.81316 1.04884
2.2289 3.80032 1.04884
2.2289 3.78748 1.04884
2.2289 3.77465 1.04884
2.16341 3.7689 1.01802
2.16341 3.75603 1.01802
2.16341 3.74317 1.01802
2.16341 3.73031 1.01802
2.16341 3.71744 1.01802
2.03167 3.71862 0.956031
2.0537 3.70337 0.966397
2.0537 3.69046 0.966397
2.0537 3.67756 0.966397
2.0537 3.66465 0.966397
2.0537 3.65175 0.966397
2.2289 3.62058 1.04884
2.2289 3.60774 1.04884
2.2289 3.5949 1.04884
2.0537 3.60014 0.966397
2.0537 3.58723 0.966397
2.0537 3.57433 0.966397
2.0537 3.56142 0.966397
2.2289 3.53071 1.04884
2.2289 3.51787 1.04884
2.14152 3.51384 1.00772
2.16341 3.49877 1.01802
2.16341 3.48591 1.01802
2.16341 3.47305 1.01802
2.2071 3.45584 1.03858
2.2071 3.44299 1.03858
2.18527 3.4323 1.02831
2.16341 3.42159 1.01802
2.16341 3.40873 1.01802
2.14152 3.398 1.00772
2.11961 3.38726 0.997412
2.14152 3.37226 1.00772
2.14152 3.35939 1.00772
2.2289 3.33812 1.04884
2.2289 3.32528 1.04884
2.14152 3.32078 1.00772
2.14152 3.3079 1.00772
2.14152 3.29503 1.00772
2.11961 3.28423 0.997412
2.14152 3.26929 1.00772
2.11961 3.25847 0.997412
2.11961 3.24559 0.997412
2.11961 3.23271 0.997412
2.14152 3.21781 1.00772
2.11961 3.20695 0.997412
2.0537 3.20012 0.966397
2.0537 3.18722 0.966397
2.09767 3.17031 0.987087
2.11961 3.15543 0.997412
2.11961 3.14256 0.997412
2.2289 3.11986 1.04884
2.2289 3.10702 1.04884
2.2289 3.09418 1.04884
2.2071 3.08328 1.03858
2.2289 3.0685 1.04884
2.2289 3.05567 1.04884
2.2071 3.04474 1.03858
2.16341 3.0357 1.01802
2.16341 3.02284 1.01802
2.14152 3.01187 1.00772
2.11961 3.00088 0.997412
2.14152 2.98612 1.00772
2.14152 2.97325 1.00772
2.11961 2.96224 0.997412
2.0537 2.95495 0.966397
2.0757 2.94019 0.976749
2.0757 2.92729 0.976749
2.0537 2.91624 0.966397
2.0757 2.9015 0.976749
1.94328 2.89959 0.914436
1.87668 2.89215 0.883098
1.87668 2.87918 0.883098
1.87668 2.86621 0.883098
1.94328 2.84781 0.914436
1.94328 2.83487 0.914436
1.92111 2.82371 0.904003
1.87668 2.81434 0.883098
1.92111 2.79781 0.904003
1.92111 2.78486 0.904003
1.85442 2.77719 0.872625
1.91789 9.83166 1.01976
1.91789 9.81873 1.01976
1.91789 9.80579 1.01976
1.89629 9.79907 1.00827
1.89629 9.78612 1.00827
1.87465 9.77938 0.99677
1.80958 9.78507 0.962171
1.80958 9.77209 0.962171
1.89629 9.73434 1.00827
1.91789 9.71524 1.01976
1.91789 9.7023 1.01976
1.89629 9.69551 1.00827
1.80958 9.7072 0.962171
1.80958 9.69423 0.962171
1.91789 9.65055 1.01976
1.91789 9.63762 1.01976
1.91789 9.62468 1.01976
1.91789 9.61175 1.01976
1.91789 9.59881 1.01976
1.91789 9.58587 1.01976
1.89629 9.57901 1.00827
1.89629 9.56606 1.00827
1.89629 9.55312 1.00827
1.89629 9.54017 1.00827
1.93947 9.51516 1.03123
1.93947 9.50223 1.03123
1.85299 9.51341 0.985252
1.80958 9.51254 0.962171
1.80958 9.49956 0.962171
1.80958 9.48659 0.962171
1.80958 9.47361 0.962171
1.80958 9.46063 0.962171
1.93947 9.41174 1.03123
1.93947 9.39881 1.03123
1.93947 9.38588 1.03123
1.93947 9.37295 1.03123
1.91789 9.36595 1.01976
1.91789 9.35302 1.01976
1.91789 9.34008 1.01976
1.91789 9.32714 1.01976
1.93947 9.30831 1.03123
1.93947 9.29538 1.03123
1.93947 9.28245 1.03123
1.93947 9.26953 1.03123
1.93947 9.2566 1.03123
1.93947 9.24367 1.03123
1.93947 9.23074 1.03123
1.93947 9.21781 1.03123
1.93947 9.20489 1.03123
1.93947 9.19196 1.03123
1.93947 9.17903 1.03123
1.93947 9.1661 1.03123
1.91789 9.15897 1.01976
1.91789 9.14604 1.01976
1.98254 9.11578 1.05414
1.98254 9.10287 1.05414
1.98254 9.08995 1.05414
1.8313 9.11741 0.973719
1.8313 9.10444 0.973719
1.8313 9.09147 0.973719
1.89629 9.06122 1.00827
1.89629 9.04828 1.00827
1.89629 9.03533 1.00827
1.89629 9.02239 1.00827
1.85299 9.02089 0.985252
1.87465 9.00221 0.99677
1.87465 8.98926 0.99677
1.80958 8.99344 0.962171
1.80958 8.98046 0.962171
1.80958 8.96748 0.962171
1.80958 8.95451 0.962171
1.80958 8.94153 0.962171
1.87465 8.91154 0.99677
1.91789 8.88731 1.01976
1.93947 8.86875 1.03123
1.93947 8.85582 1.03123
1.89629 8.85411 1.00827
1.89629 8.84116 1.00827
1.89629 8.82822 1.00827
1.91789 8.80969 1.01976
1.93947 8.79118 1.03123
1.93947 8.77825 1.03123
1.93947 8.76533 1.03123
1.91789 8.75794 1.01976
1.91789 8.74501 1.01976
1.93947 8.72654 1.03123
1.93947 8.71361 1.03123
1.93947 8.70068 1.03123
1.98254 8.67677 1.05414
1.98254 8.66386 1.05414
1.93947 8.6619 1.03123
1.91789 8.65445 1.01976
1.89629 8.647 1.00827
1.89629 8.63405 1.00827
1.89629 8.62111 1.00827
1.87465 8.61363 0.99677
1.87465 8.60067 0.99677
1.87465 8.58772 0.99677
1.98254 8.54765 1.05414
1.98254 8.53474 1.05414
1.98254 8.52183 1.05414
1.91789 8.52509 1.01976
1.91789 8.51215 1.01976
1.89629 8.50461 1.00827
1.89629 8.49166 1.00827
1.89629 8.47872 1.00827
1.89629 8.46577 1.00827
1.89629 8.45283 1.00827
1.89629 8.43988 1.00827
1.91789 8.4216 1.01976
1.91789 8.40866 1.01976
1.91789 8.39572 1.01976
1.91789 8.38279 1.01976
1.91789 8.36985 1.01976
1.91789 8.35691 1.01976
1.89629 8.34927 1.00827
1.89629 8.33633 1.00827
1.89629 8.32338 1.00827
1.89629 8.31044 1.00827
2.00404 8.27128 1.06557
2.00404 8.25838 1.06557
1.93947 8.26113 1.03123
1.96102 8.24298 1.04269
1.96102 8.23006 1.04269
1.93947 8.22234 1.03123
1.91789 8.21461 1.01976
1.91789 8.20168 1.01976
1.80958 8.21479 0.962171
1.96102 8.16546 1.04269
1.98254 8.14739 1.05414
1.98254 8.13447 1.05414
2.00404 8.11643 1.06557
2.00404 8.10353 1.06557
2.00404 8.09063 1.06557
1.93947 8.09306 1.03123
2.00404 8.06482 1.06557
1.91789 8.07231 1.01976
1.91789 8.05938 1.01976
1.91789 8.04644 1.01976
2.00404 8.0132 1.06557
1.91789 8.02057 1.01976
1.89629 8.01271 1.00827
1.8313 8.01502 0.973719
1.8313 8.00205 0.973719
1.89629 7.97388 1.00827
1.89629 7.96093 1.00827
1.87465 7.95303 0.99677
1.80958 7.95524 0.962171
2.00404 7.89707 1.06557
1.89629 7.90915 1.00827
1.89629 7.89621 1.00827
1.89629 7.88326 1.00827
1.89629 7.87032 1.00827
1.89629 7.85737 1.00827
1.89629 7.84443 1.00827
1.89629 7.83149 1.00827
1.89629 7.81854 1.00827
1.89629 7.8056 1.00827
1.89629 7.79265 1.00827
1.89629 7.77971 1.00827
1.89629 7.76676 1.00827
1.89629 7.75382 1.00827
1.89629 7.74087 1.00827
1.89629 7.72793 1.00827
1.87465 7.71988 0.99677
1.89629 7.70204 1.00827
1.93947 7.67936 1.03123
1.96102 7.66158 1.04269
1.93947 7.6535 1.03123
1.93947 7.64057 1.03123
1.93947 7.62764 1.03123
1.93947 7.61472 1.03123
1.96102 7.59698 1.04269
1.98254 7.57926 1.05414
1.98254 7.56635 1.05414
2.00404 7.54867 1.06557
1.98254 7.54053 1.05414
1.98254 7.52762 1.05414
1.98254 7.51471 1.05414
1.89629 7.52081 1.00827
1.89629 7.50787 1.00827
1.89629 7.49493 1.00827
1.91789 7.47724 1.01976
1.91789 7.4643 1.01976
1.96102 7.44194 1.04269
1.96102 7.42902 1.04269
1.93947 7.42079 1.03123
1.93947 7.40786 1.03123
1.93947 7.39494 1.03123
1.91789 7.38668 1.01976
1.91789 7.37375 1.01976
1.91789 7.36081 1.01976
1.93947 7.34322 1.03123
1.93947 7.33029 1.03123
1.93947 7.31737 1.03123
1.93947 7.30444 1.03123
1.93947 7.29151 1.03123
1.93947 7.27858 1.03123
1.93947 7.26565 1.03123
2.0255 7.23442 1.07698
2.0255 7.22152 1.07698
1.89629 7.23603 1.00827
1.89629 7.22309 1.00827
1.89629 7.21014 1.00827
1.89629 7.1972 1.00827
1.91789 7.1797 1.01976
1.91789 7.16677 1.01976
1.93947 7.1493 1.03123
1.96102 7.13186 1.04269
1.96102 7.11894 1.04269
2.00404 7.09704 1.06557
2.00404 7.08414 1.06557
2.00404 7.07123 1.06557
1.91789 7.07621 1.01976
1.91789 7.06327 1.01976
1.89629 7.05481 1.00827
1.93947 7.03295 1.03123
1.93947 7.02002 1.03123
1.89629 7.01598 1.00827
1.89629 7.00303 1.00827
1.89629 6.99009 1.00827
1.89629 6.97714 1.00827
1.87465 6.96862 0.99677
1.87465 6.95566 0.99677
1.89629 6.93831 1.00827
1.89629 6.92536 1.00827
1.89629 6.91242 1.00827
1.89629 6.89947 1.00827
1.89629 6.88653 1.00827
1.91789 6.86923 1.01976
1.93947 6.85195 1.03123
1.93947 6.83902 1.03123
1.93947 6.82609 1.03123
1.91789 6.81748 1.01976
1.91789 6.80455 1.01976
1.91789 6.79161 1.01976
1.91789 6.77867 1.01976
1.91789 6.76574 1.01976
1.91789 6.7528 1.01976
1.91789 6.73986 1.01976
1.93947 6.72267 1.03123
1.93947 6.70974 1.03123
1.93947 6.69681 1.03123
1.93947 6.68388 1.03123
1.96102 6.66674 1.04269
1.98254 6.64961 1.05414
1.98254 6.6367 1.05414
1.93947 6.63217 1.03123
1.93947 6.61924 1.03123
1.93947 6.60632 1.03123
1.93947 6.59339 1.03123
1.98254 6.57214 1.05414
1.98254 6.55923 1.05414
1.89629 6.56291 1.00827
1.89629 6.54997 1.00827
1.89629 6.53702 1.00827
1.91789 6.51995 1.01976
1.91789 6.50701 1.01976
1.89629 6.49819 1.00827
1.89629 6.48525 1.00827
1.91789 6.4682 1.01976
1.91789 6.45526 1.01976
1.91789 6.44233 1.01976
1.91789 6.42939 1.01976
1.93947 6.41239 1.03123
1.93947 6.39946 1.03123
1.93947 6.38654 1.03123
1.96102 6.36958 1.04269
1.98254 6.35264 1.05414
2.00404 6.33572 1.06557
1.91789 6.33884 1.01976
1.89629 6.32991 1.00827
2.0255 6.29304 1.07698
1.96102 6.29206 1.04269
1.96102 6.27914 1.04269
1.98254 6.26225 1.05414
2.00404 6.2454 1.06557
2.00404 6.23249 1.06557
2.00404 6.21959 1.06557
2.00404 6.20669 1.06557
1.91789 6.20947 1.01976
1.91789 6.19654 1.01976
1.93947 6.17968 1.03123
2.00404 6.15507 1.06557
2.0255 6.13829 1.07698
2.0255 6.1254 1.07698
1.93947 6.12797 1.03123
1.93947 6.11504 1.03123
1.87465 6.11373 0.99677
1.96102 6.08533 1.04269
2.00404 6.06474 1.06557
2.00404 6.05184 1.06557
2.00404 6.03894 1.06557
1.98254 6.02984 1.05414
1.96102 6.02073 1.04269
1.96102 6.00781 1.04269
1.98254 5.99111 1.05414
1.96102 5.98197 1.04269
2.00404 5.96151 1.06557
2.0255 5.94486 1.07698
2.0255 5.93196 1.07698
2.0255 5.91907 1.07698
1.93947 5.92112 1.03123
1.93947 5.90819 1.03123
1.93947 5.89526 1.03123
1.93947 5.88234 1.03123
1.93947 5.86941 1.03123
1.93947 5.85648 1.03123
1.91789 5.84725 1.01976
1.91789 5.83432 1.01976
1.91789 5.82138 1.01976
1.91789 5.80844 1.01976
1.93947 5.79184 1.03123
1.93947 5.77891 1.03123
1.93947 5.76598 1.03123
1.93947 5.75305 1.03123
1.96102 5.73649 1.04269
1.96102 5.72357 1.04269
2.00404 5.70344 1.06557
1.96102 5.69773 1.04269
2.00404 5.67763 1.06557
1.93947 5.67548 1.03123
1.93947 5.66256 1.03123
1.93947 5.64963 1.03123
1.96102 5.63313 1.04269
1.96102 5.62021 1.04269
1.93947 5.61084 1.03123
1.93947 5.59791 1.03123
1.93947 5.58499 1.03123
2.00404 5.5615 1.06557
2.00404 5.5486 1.06557
2.00404 5.53569 1.06557
2.00404 5.52279 1.06557
1.91789 5.52384 1.01976
1.89629 5.5144 1.00827
1.91789 5.49797 1.01976
1.89629 5.48851 1.00827
1.89629 5.47557 1.00827
2.00404 5.44537 1.06557
1.98254 5.43589 1.05414
1.98254 5.42298 1.05414
1.98254 5.41007 1.05414
1.98254 5.39716 1.05414
1.98254 5.38425 1.05414
1.98254 5.37134 1.05414
1.98254 5.35842 1.05414
1.98254 5.34551 1.05414
1.98254 5.3326 1.05414
2.0255 5.31297 1.07698
2.0255 5.30008 1.07698
1.93947 5.30057 1.03123
1.93947 5.28764 1.03123
1.91789 5.27805 1.01976
1.91789 5.26512 1.01976
1.91789 5.25218 1.01976
1.93947 5.23592 1.03123
1.93947 5.223 1.03123
1.93947 5.21007 1.03123
1.96102 5.19385 1.04269
1.96102 5.18093 1.04269
2.04694 5.15498 1.08838
1.96102 5.15509 1.04269
2.00404 5.13568 1.06557
2.00404 5.12277 1.06557
1.91789 5.12281 1.01976
1.91789 5.10988 1.01976
1.98254 5.08727 1.05414
2.00404 5.07116 1.06557
2.00404 5.05825 1.06557
1.98254 5.04854 1.05414
1.98254 5.03563 1.05414
1.93947 5.02907 1.03123
1.93947 5.01615 1.03123
1.93947 5.00322 1.03123
1.96102 4.98713 1.04269
2.00404 4.96793 1.06557
1.98254 4.95816 1.05414
1.98254 4.94524 1.05414
1.98254 4.93233 1.05414
1.91789 4.92877 1.01976
2.0255 4.90032 1.07698
2.00404 4.89051 1.06557
2.00404 4.8776 1.06557
1.98254 4.86777 1.05414
2.0255 4.84873 1.07698
2.00404 4.83889 1.06557
2.00404 4.82599 1.06557
2.00404 4.81308 1.06557
2.00404 4.80018 1.06557
1.98254 4.7903 1.05414
1.96102 4.78041 1.04269
1.93947 4.77051 1.03123
1.93947 4.75758 1.03123
1.93947 4.74465 1.03123
1.93947 4.73172 1.03123
1.93947 4.7188 1.03123
1.93947 4.70587 1.03123
1.96102 4.68997 1.04269
1.96102 4.67705 1.04269
2.0255 4.6553 1.07698
2.00404 4.64534 1.06557
2.00404 4.63243 1.06557
1.96102 4.62537 1.04269
2.00404 4.60663 1.06557
2.00404 4.59372 1.06557
2.00404 4.58082 1.06557
2.0255 4.56503 1.07698
2.04694 4.54927 1.08838
2.06836 4.53352 1.09976
2.00404 4.5292 1.06557
2.00404 4.5163 1.06557
1.98254 4.50624 1.05414
2.0255 4.48766 1.07698
2.04694 4.47194 1.08838
2.00404 4.46468 1.06557
2.00404 4.45178 1.06557
2.00404 4.43888 1.06557
2.00404 4.42597 1.06557
2.00404 4.41307 1.06557
1.98254 4.40295 1.05414
1.98254 4.39003 1.05414
1.98254 4.37712 1.05414
2.00404 4.36145 1.06557
2.00404 4.34855 1.06557
2.04694 4.33018 1.08838
2.04694 4.31729 1.08838
2.04694 4.30441 1.08838
2.00404 4.29694 1.06557
1.93947 4.29217 1.03123
1.93947 4.27924 1.03123
1.96102 4.26361 1.04269
2.00404 4.24532 1.06557
2.0255 4.22975 1.07698
2.0255 4.21685 1.07698
2.0255 4.20396 1.07698
2.0255 4.19106 1.07698
2.0255 4.17816 1.07698
2.0255 4.16527 1.07698
2.0255 4.15237 1.07698
2.04694 4.13687 1.08838
2.04694 4.12398 1.08838
2.04694 4.11109 1.08838
2.00404 4.10338 1.06557
2.00404 4.09048 1.06557
2.00404 4.07757 1.06557
2.00404 4.06467 1.06557
2.00404 4.05177 1.06557
2.00404 4.03886 1.06557
1.98254 4.0285 1.05414
2.00404 4.01305 1.06557
2.00404 4.00015 1.06557
2.00404 3.98725 1.06557
2.00404 3.97434 1.06557
2.00404 3.96144 1.06557
2.00404 3.94854 1.06557
2.00404 3.93563 1.06557
2.00404 3.92273 1.06557
2.00404 3.90982 1.06557
1.98254 3.89938 1.05414
1.98254 3.88647 1.05414
2.04694 3.86623 1.08838
1.98254 3.86065 1.05414
1.98254 3.84774 1.05414
1.98254 3.83482 1.05414
2.04694 3.81468 1.08838
2.00404 3.80659 1.06557
2.00404 3.79369 1.06557
1.98254 3.78318 1.05414
2.00404 3.76788 1.06557
2.00404 3.75498 1.06557
2.06836 3.735 1.09976
2.00404 3.72917 1.06557
1.98254 3.71862 1.05414
1.98254 3.70571 1.05414
2.04694 3.68581 1.08838
2.04694 3.67292 1.08838
1.98254 3.66697 1.05414
1.98254 3.65406 1.05414
1.98254 3.64115 1.05414
1.98254 3.62823 1.05414
1.98254 3.61532 1.05414
1.98254 3.60241 1.05414
1.98254 3.5895 1.05414
1.98254 3.57659 1.05414
1.98254 3.56367 1.05414
1.98254 3.55076 1.05414
2.00404 3.53562 1.06557
2.04694 3.51827 1.08838
2.00404 3.50981 1.06557
2.00404 3.49691 1.06557
2.00404 3.484 1.06557
2.00404 3.4711 1.06557
1.98254 3.46038 1.05414
1.98254 3.44747 1.05414
1.98254 3.43456 1.05414
1.98254 3.42164 1.05414
2.00404 3.40658 1.06557
2.00404 3.39368 1.06557
2.04694 3.37651 1.08838
2.0255 3.36574 1.07698
2.0255 3.35285 1.07698
2.00404 3.34206 1.06557
2.0255 3.32706 1.07698
2.0255 3.31416 1.07698
2.04694 3.29919 1.08838
2.0255 3.28837 1.07698
2.0255 3.27547 1.07698
1.98254 3.2667 1.05414
1.98254 3.25379 1.05414
2.00404 3.23883 1.06557
2.06836 3.21983 1.09976
2.06836 3.20695 1.09976
1.87465 3.2123 0.99677
1.89629 3.19732 1.00827
1.89629 3.18437 1.00827
1.91789 3.16942 1.01976
2.00404 3.14851 1.06557
1.98254 3.13758 1.05414
2.0255 3.12073 1.07698
1.91789 3.11767 1.01976
1.93947 3.10277 1.03123
1.93947 3.08984 1.03123
1.96102 3.07497 1.04269
1.98254 3.06011 1.05414
1.91789 3.05299 1.01976
1.91789 3.04005 1.01976
1.93947 3.0252 1.03123
1.93947 3.01227 1.03123
1.96102 2.99745 1.04269
2.00404 2.98076 1.06557
1.96102 2.97161 1.04269
1.96102 2.95869 1.04269
1.93947 2.94763 1.03123
1.93947 2.9347 1.03123
1.93947 2.92178 1.03123
1.93947 2.90885 1.03123
1.76606 2.91068 0.93903
1.76606 2.89768 0.93903
1.76606 2.88469 0.93903
1.76606 2.87169 0.93903
1.67868 2.86601 0.892568
1.67868 2.85299 0.892568
1.65676 2.84178 0.880915
1.67868 2.82693 0.892568
1.65676 2.81571 0.880915
1.74426 2.79551 0.927437
1.74426 2.78251 0.927437
1.63481 2.77838 0.869246
1.65676 2.76356 0.880915
1.65676 2.75053 0.880915
1.76042 9.86293 1.04942
1.76042 9.84996 1.04942
1.76042 9.83698 1.04942
1.67563 9.84909 0.998876
1.67563 9.83608 0.998876
1.69687 9.8168 1.01154
1.76042 9.78507 1.04942
1.76042 9.77209 1.04942
1.78155 9.75291 1.06201
1.84477 9.7214 1.0997
1.84477 9.70845 1.0997
1.84477 9.69551 1.0997
1.69687 9.72578 1.01154
1.69687 9.71278 1.01154
1.69687 9.69978 1.01154
1.78155 9.66212 1.06201
1.76042 9.65529 1.04942
1.76042 9.64232 1.04942
1.76042 9.62934 1.04942
1.76042 9.61636 1.04942
1.76042 9.60338 1.04942
1.78155 9.58431 1.06201
1.78155 9.57134 1.06201
1.76042 9.56445 1.04942
1.76042 9.55147 1.04942
1.76042 9.5385 1.04942
1.76042 9.52552 1.04942
1.76042 9.51254 1.04942
1.76042 9.49956 1.04942
1.76042 9.48659 1.04942
1.76042 9.47361 1.04942
1.67563 9.48479 0.998876
1.67563 9.47178 0.998876
1.76042 9.43468 1.04942
1.76042 9.4217 1.04942
1.76042 9.40872 1.04942
1.76042 9.39574 1.04942
1.76042 9.38276 1.04942
1.76042 9.36979 1.04942
1.76042 9.35681 1.04942
1.73926 9.34978 1.03681
1.73926 9.3368 1.03681
1.76042 9.31788 1.04942
1.76042 9.3049 1.04942
1.76042 9.29192 1.04942
1.76042 9.27894 1.04942
1.76042 9.26597 1.04942
1.76042 9.25299 1.04942
1.76042 9.24001 1.04942
1.76042 9.22703 1.04942
1.76042 9.21406 1.04942
1.76042 9.20108 1.04942
1.76042 9.1881 1.04942
1.76042 9.17512 1.04942
1.76042 9.16215 1.04942
1.76042 9.14917 1.04942
1.76042 9.13619 1.04942
1.76042 9.12321 1.04942
1.76042 9.11024 1.04942
1.76042 9.09726 1.04942
1.76042 9.08428 1.04942
1.78155 9.06553 1.06201
1.76042 9.05833 1.04942
1.76042 9.04535 1.04942
1.76042 9.03237 1.04942
1.76042 9.01939 1.04942
1.76042 9.00642 1.04942
1.76042 8.99344 1.04942
1.78155 8.97475 1.06201
1.76042 8.96748 1.04942
1.76042 8.95451 1.04942
1.76042 8.94153 1.04942
1.76042 8.92855 1.04942
1.76042 8.91557 1.04942
1.76042 8.9026 1.04942
1.76042 8.88962 1.04942
1.76042 8.87664 1.04942
1.78155 8.85803 1.06201
1.76042 8.85069 1.04942
1.76042 8.83771 1.04942
1.78155 8.81912 1.06201
1.78155 8.80615 1.06201
1.76042 8.79878 1.04942
1.76042 8.7858 1.04942
1.76042 8.77282 1.04942
1.69687 8.77661 1.01154
1.76042 8.74687 1.04942
1.76042 8.73389 1.04942
1.78155 8.71536 1.06201
1.78155 8.70239 1.06201
1.76042 8.69495 1.04942
1.76042 8.68198 1.04942
1.76042 8.669 1.04942
1.76042 8.65602 1.04942
1.76042 8.64305 1.04942
1.76042 8.63007 1.04942
1.76042 8.61709 1.04942
1.76042 8.60411 1.04942
1.76042 8.59114 1.04942
1.76042 8.57816 1.04942
1.76042 8.56518 1.04942
1.76042 8.5522 1.04942
1.76042 8.53922 1.04942
1.76042 8.52625 1.04942
1.69687 8.52956 1.01154
1.76042 8.50029 1.04942
1.76042 8.48731 1.04942
1.86579 8.44747 1.11223
1.86579 8.43453 1.11223
1.86579 8.4216 1.11223
1.76042 8.4354 1.04942
1.76042 8.42243 1.04942
1.76042 8.40945 1.04942
1.76042 8.39647 1.04942
1.78155 8.37816 1.06201
1.78155 8.36519 1.06201
1.86579 8.33104 1.11223
1.86579 8.31811 1.11223
1.86579 8.30517 1.11223
1.76042 8.31861 1.04942
1.76042 8.30563 1.04942
1.76042 8.29265 1.04942
1.76042 8.27967 1.04942
1.78155 8.26144 1.06201
1.78155 8.24847 1.06201
1.78155 8.2355 1.06201
1.76042 8.22776 1.04942
1.76042 8.21479 1.04942
1.76042 8.20181 1.04942
1.76042 8.18883 1.04942
1.76042 8.17585 1.04942
1.76042 8.16288 1.04942
1.76042 8.1499 1.04942
1.76042 8.13692 1.04942
1.76042 8.12394 1.04942
1.76042 8.11097 1.04942
1.78155 8.09284 1.06201
1.73926 8.09016 1.03681
1.73926 8.07718 1.03681
1.78155 8.05393 1.06201
1.73926 8.0512 1.03681
1.73926 8.03822 1.03681
1.71808 8.03035 1.02418
1.73926 8.01225 1.03681
1.78155 7.98908 1.06201
1.86579 7.95589 1.11223
1.86579 7.94295 1.11223
1.86579 7.93001 1.11223
1.86579 7.91708 1.11223
1.84477 7.90915 1.0997
1.84477 7.89621 1.0997
1.84477 7.88326 1.0997
1.84477 7.87032 1.0997
1.76042 7.87737 1.04942
1.76042 7.86439 1.04942
1.76042 7.85141 1.04942
1.76042 7.83844 1.04942
1.76042 7.82546 1.04942
1.76042 7.81248 1.04942
1.76042 7.7995 1.04942
1.76042 7.78653 1.04942
1.76042 7.77355 1.04942
1.76042 7.76057 1.04942
1.82372 7.73283 1.08716
1.82372 7.71988 1.08716
1.82372 7.70693 1.08716
1.82372 7.69398 1.08716
1.76042 7.69568 1.04942
1.78155 7.67782 1.06201
1.71808 7.67951 1.02418
1.71808 7.66651 1.02418
1.80265 7.63406 1.07459
1.76042 7.6308 1.04942
1.76042 7.61782 1.04942
1.76042 7.60484 1.04942
1.78155 7.58704 1.06201
1.82372 7.56445 1.08716
1.84477 7.5467 1.0997
1.86579 7.52899 1.11223
1.88678 7.51129 1.12475
1.71808 7.53657 1.02418
1.88678 7.48543 1.12475
1.82372 7.48673 1.08716
1.80265 7.47853 1.07459
1.80265 7.46556 1.07459
1.80265 7.4526 1.07459
1.80265 7.43964 1.07459
1.82372 7.42197 1.08716
1.82372 7.40901 1.08716
1.82372 7.39606 1.08716
1.80265 7.3878 1.07459
1.80265 7.37484 1.07459
1.76042 7.37125 1.04942
1.76042 7.35827 1.04942
1.84477 7.32665 1.0997
1.86579 7.30907 1.11223
1.86579 7.29613 1.11223
1.86579 7.28319 1.11223
1.78155 7.28874 1.06201
1.71808 7.28969 1.02418
1.76042 7.26743 1.04942
1.76042 7.25445 1.04942
1.84477 7.22309 1.0997
1.84477 7.21014 1.0997
1.84477 7.1972 1.0997
1.84477 7.18426 1.0997
1.84477 7.17131 1.0997
1.78155 7.17202 1.06201
1.84477 7.14542 1.0997
1.84477 7.13248 1.0997
1.76042 7.13765 1.04942
1.76042 7.12467 1.04942
1.76042 7.11169 1.04942
1.80265 7.08969 1.07459
1.80265 7.07673 1.07459
1.76042 7.07276 1.04942
1.76042 7.05978 1.04942
1.76042 7.04681 1.04942
1.80265 7.02489 1.07459
1.80265 7.01193 1.07459
1.80265 6.99897 1.07459
1.82372 6.98157 1.08716
1.82372 6.96862 1.08716
1.82372 6.95566 1.08716
1.82372 6.94271 1.08716
1.82372 6.92976 1.08716
1.80265 6.9212 1.07459
1.80265 6.90824 1.07459
1.80265 6.89528 1.07459
1.80265 6.88232 1.07459
1.78155 6.87372 1.06201
1.78155 6.86075 1.06201
1.78155 6.84779 1.06201
1.78155 6.83482 1.06201
1.76042 6.82619 1.04942
1.76042 6.81321 1.04942
1.78155 6.79591 1.06201
1.78155 6.78294 1.06201
1.80265 6.76567 1.07459
1.82372 6.74842 1.08716
1.82372 6.73547 1.08716
1.82372 6.72251 1.08716
1.82372 6.70956 1.08716
1.82372 6.69661 1.08716
1.86579 6.67518 1.11223
1.88678 6.65803 1.12475
1.88678 6.6451 1.12475
1.88678 6.63217 1.12475
1.86579 6.62344 1.11223
1.86579 6.6105 1.11223
1.88678 6.59339 1.12475
1.86579 6.58463 1.11223
1.86579 6.57169 1.11223
1.78155 6.57543 1.06201
1.76042 6.56664 1.04942
1.86579 6.53288 1.11223
1.86579 6.51995 1.11223
1.84477 6.51114 1.0997
1.76042 6.51473 1.04942
1.76042 6.50175 1.04942
1.73926 6.49291 1.03681
1.73926 6.47992 1.03681
1.84477 6.44641 1.0997
1.84477 6.43347 1.0997
1.76042 6.43686 1.04942
1.76042 6.42388 1.04942
1.80265 6.40276 1.07459
1.80265 6.3898 1.07459
1.82372 6.37279 1.08716
1.82372 6.35983 1.08716
1.80265 6.35091 1.07459
1.80265 6.33795 1.07459
1.84477 6.31697 1.0997
1.84477 6.30402 1.0997
1.84477 6.29108 1.0997
1.82372 6.28212 1.08716
1.82372 6.26917 1.08716
1.80265 6.26019 1.07459
1.80265 6.24723 1.07459
1.82372 6.23031 1.08716
1.82372 6.21735 1.08716
1.82372 6.2044 1.08716
1.82372 6.19145 1.08716
1.80265 6.18242 1.07459
1.78155 6.17338 1.06201
1.78155 6.16041 1.06201
1.76042 6.15136 1.04942
1.78155 6.13447 1.06201
1.84477 6.10985 1.0997
1.82372 6.10078 1.08716
1.78155 6.09557 1.06201
1.78155 6.0826 1.06201
1.76042 6.07349 1.04942
1.80265 6.05281 1.07459
1.80265 6.03985 1.07459
1.78155 6.03072 1.06201
1.76042 6.02158 1.04942
1.76042 6.0086 1.04942
1.76042 5.99563 1.04942
1.76042 5.98265 1.04942
1.76042 5.96967 1.04942
1.76042 5.95669 1.04942
1.78155 5.93994 1.06201
1.78155 5.92697 1.06201
1.80265 5.91024 1.07459
1.80265 5.89728 1.07459
1.82372 5.88058 1.08716
1.82372 5.86763 1.08716
1.82372 5.85467 1.08716
1.82372 5.84172 1.08716
1.78155 5.83618 1.06201
1.78155 5.82321 1.06201
1.82372 5.80286 1.08716
1.82372 5.78991 1.08716
1.82372 5.77696 1.08716
1.82372 5.76401 1.08716
1.82372 5.75105 1.08716
1.82372 5.7381 1.08716
1.80265 5.72878 1.07459
1.80265 5.71582 1.07459
1.80265 5.70286 1.07459
1.80265 5.6899 1.07459
1.80265 5.67694 1.07459
1.80265 5.66398 1.07459
1.80265 5.65102 1.07459
1.80265 5.63806 1.07459
1.80265 5.6251 1.07459
1.78155 5.6157 1.06201
1.76042 5.6063 1.04942
1.78155 5.58976 1.06201
1.78155 5.5768 1.06201
1.82372 5.55676 1.08716
1.82372 5.54381 1.08716
1.80265 5.53437 1.07459
1.78155 5.52492 1.06201
1.78155 5.51195 1.06201
1.78155 5.49898 1.06201
1.78155 5.48601 1.06201
1.78155 5.47304 1.06201
1.78155 5.46007 1.06201
1.82372 5.44018 1.08716
1.84477 5.42379 1.0997
1.82372 5.41428 1.08716
1.78155 5.40819 1.06201
1.78155 5.39523 1.06201
1.73926 5.38911 1.03681
1.82372 5.36247 1.08716
1.82372 5.34951 1.08716
1.84477 5.33318 1.0997
1.84477 5.32023 1.0997
1.86579 5.30392 1.11223
1.86579 5.29099 1.11223
1.88678 5.27471 1.12475
1.86579 5.26512 1.11223
1.82372 5.25885 1.08716
1.82372 5.24589 1.08716
1.82372 5.23294 1.08716
1.82372 5.21999 1.08716
1.82372 5.20703 1.08716
1.82372 5.19408 1.08716
1.82372 5.18113 1.08716
1.82372 5.16818 1.08716
1.88678 5.14543 1.12475
1.88678 5.1325 1.12475
1.88678 5.11957 1.12475
1.88678 5.10664 1.12475
1.88678 5.09371 1.12475
1.88678 5.08079 1.12475
1.86579 5.07107 1.11223
1.86579 5.05813 1.11223
1.86579 5.0452 1.11223
1.82372 5.03865 1.08716
1.80265 5.02889 1.07459
1.78155 5.01912 1.06201
1.80265 5.00296 1.07459
1.80265 4.99 1.07459
1.82372 4.97388 1.08716
1.80265 4.96408 1.07459
1.80265 4.95112 1.07459
1.86579 4.92877 1.11223
1.86579 4.91583 1.11223
1.86579 4.9029 1.11223
1.82372 4.89617 1.08716
1.80265 4.88632 1.07459
1.88678 4.86101 1.12475
1.80265 4.86039 1.07459
1.80265 4.84743 1.07459
1.82372 4.8314 1.08716
1.86579 4.81234 1.11223
1.86579 4.7994 1.11223
1.82372 4.79254 1.08716
1.82372 4.77959 1.08716
1.80265 4.76967 1.07459
1.88678 4.74465 1.12475
1.88678 4.73172 1.12475
1.86579 4.72179 1.11223
1.82372 4.71483 1.08716
1.82372 4.70187 1.08716
1.82372 4.68892 1.08716
1.86579 4.67004 1.11223
1.86579 4.6571 1.11223
1.82372 4.65006 1.08716
1.80265 4.64006 1.07459
1.80265 4.62709 1.07459
1.78155 4.61707 1.06201
1.80265 4.60117 1.07459
1.80265 4.58821 1.07459
1.76042 4.58107 1.04942
1.78155 4.56519 1.06201
1.84477 4.54356 1.0997
1.84477 4.53061 1.0997
1.84477 4.51767 1.0997
1.84477 4.50472 1.0997
1.84477 4.49178 1.0997
1.84477 4.47883 1.0997
1.84477 4.46589 1.0997
1.82372 4.45577 1.08716
1.82372 4.44282 1.08716
1.82372 4.42986 1.08716
1.82372 4.41691 1.08716
1.82372 4.40396 1.08716
1.82372 4.39101 1.08716
1.82372 4.37805 1.08716
1.73926 4.37622 1.03681
1.84477 4.34939 1.0997
1.80265 4.34195 1.07459
1.80265 4.32899 1.07459
1.80265 4.31603 1.07459
1.80265 4.30307 1.07459
1.80265 4.29011 1.07459
1.84477 4.27172 1.0997
1.84477 4.25877 1.0997
1.86579 4.24314 1.11223
1.86579 4.2302 1.11223
1.80265 4.2253 1.07459
1.80265 4.21234 1.07459
1.80265 4.19938 1.07459
1.80265 4.18642 1.07459
1.80265 4.17346 1.07459
1.80265 4.1605 1.07459
1.88678 4.13703 1.12475
1.88678 4.1241 1.12475
1.88678 4.11117 1.12475
1.82372 4.10604 1.08716
1.86579 4.0879 1.11223
1.84477 4.07755 1.0997
1.86579 4.06203 1.11223
1.84477 4.05166 1.0997
1.78155 4.04642 1.06201
1.78155 4.03345 1.06201
1.78155 4.02048 1.06201
1.86579 3.99735 1.11223
1.86579 3.98441 1.11223
1.86579 3.97147 1.11223
1.86579 3.95854 1.11223
1.86579 3.9456 1.11223
1.82372 3.93766 1.08716
1.82372 3.9247 1.08716
1.82372 3.91175 1.08716
1.82372 3.8988 1.08716
1.88678 3.87846 1.12475
1.80265 3.87535 1.07459
1.78155 3.86485 1.06201
1.78155 3.85188 1.06201
1.78155 3.83891 1.06201
1.82372 3.82108 1.08716
1.82372 3.80813 1.08716
1.82372 3.79518 1.08716
1.78155 3.78703 1.06201
1.78155 3.77406 1.06201
1.78155 3.76109 1.06201
1.84477 3.74099 1.0997
1.84477 3.72805 1.0997
1.84477 3.7151 1.0997
1.82372 3.70451 1.08716
1.78155 3.69625 1.06201
1.78155 3.68328 1.06201
1.82372 3.66565 1.08716
1.78155 3.65734 1.06201
1.78155 3.64437 1.06201
1.76042 3.63371 1.04942
1.78155 3.61843 1.06201
1.78155 3.60546 1.06201
1.78155 3.59249 1.06201
1.84477 3.57271 1.0997
1.84477 3.55977 1.0997
1.80265 3.55133 1.07459
1.78155 3.54062 1.06201
1.80265 3.52541 1.07459
1.80265 3.51244 1.07459
1.78155 3.50171 1.06201
1.78155 3.48874 1.06201
1.78155 3.47577 1.06201
1.78155 3.4628 1.06201
1.82372 3.44545 1.08716
1.86579 3.42815 1.11223
1.82372 3.41954 1.08716
1.84477 3.40443 1.0997
1.84477 3.39149 1.0997
1.84477 3.37854 1.0997
1.82372 3.36773 1.08716
1.88678 3.34841 1.12475
1.88678 3.33548 1.12475
1.88678 3.32255 1.12475
1.86579 3.31172 1.11223
1.86579 3.29878 1.11223
1.82372 3.29002 1.08716
1.82372 3.27706 1.08716
1.82372 3.26411 1.08716
1.88678 3.24498 1.12475
1.88678 3.23205 1.12475
1.80265 3.2273 1.07459
1.88678 3.2062 1.12475
1.88678 3.19327 1.12475
1.88678 3.18034 1.12475
1.88678 3.16741 1.12475
1.80265 3.1625 1.07459
1.80265 3.14953 1.07459
1.82372 3.13458 1.08716
1.73926 3.12958 1.03681
1.78155 3.11263 1.06201
1.78155 3.09966 1.06201
1.78155 3.08669 1.06201
1.76042 3.07568 1.04942
1.71808 3.06661 1.02418
1.71808 3.05361 1.02418
1.69687 3.04256 1.01154
1.80265 3.01992 1.07459
1.80265 3.00696 1.07459
1.67563 3.00547 0.998876
1.67563 2.99246 0.998876
1.73926 2.97375 1.03681
1.69687 2.96454 1.01154
1.71808 2.94966 1.02418
1.69687 2.93854 1.01154
1.69687 2.92554 1.01154
1.65436 2.91626 0.986199
1.65436 2.90324 0.986199
1.71808 2.88469 1.02418
1.71808 2.87169 1.02418
1.71808 2.8587 1.02418
1.63307 2.85299 0.973505
1.63307 2.83996 0.973505
1.5904 2.83056 0.948068
1.5904 2.81751 0.948068
1.54762 2.80807 0.922565
1.52618 2.79681 0.909789
1.52618 2.78374 0.909789
1.5904 2.76534 0.948068
1.5904 2.75229 0.948068
1.44017 2.75161 0.858515
1.50472 2.73322 0.896995
1.56289 9.90712 1.03838
1.56289 9.89408 1.03838
1.56289 9.88105 1.03838
1.70705 9.824 1.13416
1.64543 9.8298 1.09322
1.60421 9.82935 1.06584
1.62483 9.81006 1.07954
1.56289 9.81587 1.03838
1.62483 9.78404 1.07954
1.64543 9.76479 1.09322
1.56289 9.77676 1.03838
1.56289 9.76373 1.03838
1.56289 9.75069 1.03838
1.72754 9.68806 1.14777
1.72754 9.67509 1.14777
1.72754 9.66212 1.14777
1.666 9.6676 1.10689
1.72754 9.63618 1.14777
1.72754 9.62321 1.14777
1.70705 9.61636 1.13416
1.72754 9.59728 1.14777
1.72754 9.58431 1.14777
1.72754 9.57134 1.14777
1.64543 9.58276 1.09322
1.56289 9.59426 1.03838
1.68654 9.54457 1.12053
1.68654 9.53159 1.12053
1.68654 9.5186 1.12053
1.68654 9.50561 1.12053
1.68654 9.49263 1.12053
1.64543 9.49174 1.09322
1.64543 9.47874 1.09322
1.666 9.4597 1.10689
1.666 9.4467 1.10689
1.666 9.43371 1.10689
1.666 9.42072 1.10689
1.666 9.40772 1.10689
1.666 9.39473 1.10689
1.666 9.38173 1.10689
1.58357 9.39271 1.05212
1.64543 9.36172 1.09322
1.64543 9.34871 1.09322
1.64543 9.33571 1.09322
1.64543 9.32271 1.09322
1.64543 9.30971 1.09322
1.64543 9.2967 1.09322
1.72754 9.26007 1.14777
1.72754 9.2471 1.14777
1.72754 9.23414 1.14777
1.72754 9.22117 1.14777
1.72754 9.2082 1.14777
1.72754 9.19523 1.14777
1.72754 9.18226 1.14777
1.72754 9.16929 1.14777
1.72754 9.15632 1.14777
1.72754 9.14335 1.14777
1.72754 9.13038 1.14777
1.72754 9.11741 1.14777
1.72754 9.10444 1.14777
1.72754 9.09147 1.14777
1.72754 9.0785 1.14777
1.72754 9.06553 1.14777
1.62483 9.08146 1.07954
1.62483 9.06845 1.07954
1.62483 9.05544 1.07954
1.56289 9.0598 1.03838
1.64543 9.02365 1.09322
1.666 9.00491 1.10689
1.666 8.99191 1.10689
1.666 8.97892 1.10689
1.666 8.96592 1.10689
1.666 8.95293 1.10689
1.666 8.93993 1.10689
1.666 8.92694 1.10689
1.72754 8.89693 1.14777
1.72754 8.88396 1.14777
1.72754 8.87099 1.14777
1.64543 8.88063 1.09322
1.64543 8.86763 1.09322
1.64543 8.85462 1.09322
1.72754 8.81912 1.14777
1.72754 8.80615 1.14777
1.70705 8.79878 1.13416
1.70705 8.7858 1.13416
1.68654 8.77841 1.12053
1.666 8.77101 1.10689
1.666 8.75802 1.10689
1.72754 8.72833 1.14777
1.72754 8.71536 1.14777
1.72754 8.70239 1.14777
1.72754 8.68942 1.14777
1.72754 8.67646 1.14777
1.68654 8.67452 1.12053
1.70705 8.65602 1.13416
1.64543 8.65959 1.09322
1.62483 8.65211 1.07954
1.64543 8.63358 1.09322
1.62483 8.62609 1.07954
1.62483 8.61308 1.07954
1.62483 8.60007 1.07954
1.62483 8.58706 1.07954
1.62483 8.57404 1.07954
1.72754 8.53379 1.14777
1.70705 8.52625 1.13416
1.68654 8.51869 1.12053
1.68654 8.50571 1.12053
1.68654 8.49272 1.12053
1.666 8.48514 1.10689
1.666 8.47215 1.10689
1.666 8.45915 1.10689
1.666 8.44616 1.10689
1.666 8.43317 1.10689
1.666 8.42017 1.10689
1.666 8.40718 1.10689
1.666 8.39418 1.10689
1.666 8.38119 1.10689
1.666 8.36819 1.10689
1.666 8.3552 1.10689
1.666 8.34221 1.10689
1.68654 8.32391 1.12053
1.666 8.31622 1.10689
1.666 8.30322 1.10689
1.60421 8.30613 1.06584
1.58357 8.29841 1.05212
1.58357 8.28539 1.05212
1.58357 8.27236 1.05212
1.666 8.23825 1.10689
1.72754 8.20956 1.14777
1.666 8.21227 1.10689
1.666 8.19927 1.10689
1.72754 8.17065 1.14777
1.72754 8.15768 1.14777
1.72754 8.14471 1.14777
1.60421 8.16292 1.06584
1.60421 8.1499 1.06584
1.70705 8.11097 1.13416
1.60421 8.12386 1.06584
1.60421 8.11084 1.06584
1.60421 8.09782 1.06584
1.60421 8.0848 1.06584
1.72754 8.04096 1.14777
1.72754 8.02799 1.14777
1.72754 8.01502 1.14777
1.72754 8.00205 1.14777
1.72754 7.98908 1.14777
1.72754 7.97611 1.14777
1.666 7.97837 1.10689
1.64543 7.97046 1.09322
1.64543 7.95746 1.09322
1.64543 7.94446 1.09322
1.64543 7.93145 1.09322
1.666 7.9134 1.10689
1.666 7.90041 1.10689
1.70705 7.87737 1.13416
1.70705 7.86439 1.13416
1.70705 7.85141 1.13416
1.68654 7.84343 1.12053
1.666 7.83544 1.10689
1.666 7.82244 1.10689
1.70705 7.7995 1.13416
1.666 7.79645 1.10689
1.64543 7.78843 1.09322
1.64543 7.77543 1.09322
1.62483 7.76738 1.07954
1.64543 7.74942 1.09322
1.70705 7.72164 1.13416
1.70705 7.70866 1.13416
1.70705 7.69568 1.13416
1.72754 7.67782 1.14777
1.70705 7.66973 1.13416
1.72754 7.65188 1.14777
1.72754 7.63891 1.14777
1.666 7.64053 1.10689
1.666 7.62753 1.10689
1.64543 7.6194 1.09322
1.60421 7.61612 1.06584
1.58357 7.60797 1.05212
1.60421 7.59008 1.06584
1.62483 7.57222 1.07954
1.62483 7.55921 1.07954
1.62483 7.5462 1.07954
1.62483 7.53319 1.07954
1.62483 7.52018 1.07954
1.62483 7.50717 1.07954
1.70705 7.47507 1.13416
1.64543 7.47637 1.09322
1.70705 7.44911 1.13416
1.70705 7.43613 1.13416
1.64543 7.43736 1.09322
1.60421 7.43385 1.06584
1.68654 7.40191 1.12053
1.666 7.39364 1.10689
1.62483 7.39007 1.07954
1.62483 7.37706 1.07954
1.666 7.35466 1.10689
1.666 7.34166 1.10689
1.666 7.32867 1.10689
1.666 7.31567 1.10689
1.666 7.30268 1.10689
1.72754 7.27577 1.14777
1.68654 7.27205 1.12053
1.70705 7.25445 1.13416
1.70705 7.24147 1.13416
1.72754 7.2239 1.14777
1.666 7.22471 1.10689
1.666 7.21172 1.10689
1.666 7.19873 1.10689
1.666 7.18573 1.10689
1.64543 7.17732 1.09322
1.68654 7.15518 1.12053
1.70705 7.13765 1.13416
1.70705 7.12467 1.13416
1.70705 7.11169 1.13416
1.62483 7.11685 1.07954
1.62483 7.10384 1.07954
1.62483 7.09083 1.07954
1.64543 7.0733 1.09322
1.64543 7.06029 1.09322
1.666 7.0428 1.10689
1.666 7.0298 1.10689
1.64543 7.02129 1.09322
1.666 7.00382 1.10689
1.666 6.99082 1.10689
1.666 6.97783 1.10689
1.72754 6.95154 1.14777
1.666 6.95184 1.10689
1.666 6.93885 1.10689
1.666 6.92585 1.10689
1.68654 6.90845 1.12053
1.70705 6.89108 1.13416
1.72754 6.87372 1.14777
1.72754 6.86075 1.14777
1.748 6.84343 1.16137
1.748 6.83047 1.16137
1.748 6.81751 1.16137
1.748 6.80455 1.16137
1.72754 6.79591 1.14777
1.72754 6.78294 1.14777
1.666 6.78292 1.10689
1.68654 6.76561 1.12053
1.68654 6.75262 1.12053
1.68654 6.73964 1.12053
1.68654 6.72665 1.12053
1.68654 6.71367 1.12053
1.70705 6.69641 1.13416
1.70705 6.68344 1.13416
1.62483 6.68749 1.07954
1.60421 6.67875 1.06584
1.64543 6.65722 1.09322
1.64543 6.64422 1.09322
1.70705 6.61855 1.13416
1.70705 6.60557 1.13416
1.64543 6.60521 1.09322
1.64543 6.59221 1.09322
1.64543 6.57921 1.09322
1.70705 6.55366 1.13416
1.666 6.54902 1.10689
1.666 6.53603 1.10689
1.64543 6.5272 1.09322
1.64543 6.51419 1.09322
1.64543 6.50119 1.09322
1.64543 6.48819 1.09322
1.666 6.47106 1.10689
1.666 6.45806 1.10689
1.666 6.44507 1.10689
1.666 6.43208 1.10689
1.76844 6.39869 1.17495
1.76844 6.38574 1.17495
1.70705 6.38495 1.13416
1.70705 6.37197 1.13416
1.72754 6.35495 1.14777
1.72754 6.34198 1.14777
1.666 6.34112 1.10689
1.666 6.32812 1.10689
1.666 6.31513 1.10689
1.666 6.30213 1.10689
1.72754 6.27714 1.14777
1.72754 6.26417 1.14777
1.72754 6.2512 1.14777
1.70705 6.2422 1.13416
1.68654 6.23319 1.12053
1.62483 6.23212 1.07954
1.748 6.19538 1.16137
1.748 6.18242 1.16137
1.70705 6.17731 1.13416
1.62483 6.18008 1.07954
1.62483 6.16707 1.07954
1.62483 6.15406 1.07954
1.60421 6.14497 1.06584
1.60421 6.13195 1.06584
1.60421 6.11893 1.06584
1.62483 6.10201 1.07954
1.62483 6.089 1.07954
1.666 6.06824 1.10689
1.666 6.05525 1.10689
1.666 6.04225 1.10689
1.68654 6.02542 1.12053
1.72754 6.00478 1.14777
1.72754 5.99181 1.14777
1.72754 5.97884 1.14777
1.72754 5.96587 1.14777
1.72754 5.9529 1.14777
1.72754 5.93994 1.14777
1.72754 5.92697 1.14777
1.748 5.91024 1.16137
1.748 5.89728 1.16137
1.748 5.88432 1.16137
1.748 5.87136 1.16137
1.748 5.85839 1.16137
1.72754 5.84915 1.14777
1.72754 5.83618 1.14777
1.666 5.83435 1.10689
1.666 5.82135 1.10689
1.666 5.80836 1.10689
1.72754 5.7843 1.14777
1.72754 5.77133 1.14777
1.72754 5.75837 1.14777
1.72754 5.7454 1.14777
1.72754 5.73243 1.14777
1.72754 5.71946 1.14777
1.72754 5.70649 1.14777
1.748 5.6899 1.16137
1.748 5.67694 1.16137
1.748 5.66398 1.16137
1.748 5.65102 1.16137
1.72754 5.64164 1.14777
1.72754 5.62867 1.14777
1.748 5.61213 1.16137
1.748 5.59917 1.16137
1.748 5.58621 1.16137
1.72754 5.5768 1.14777
1.72754 5.56383 1.14777
1.72754 5.55086 1.14777
1.72754 5.53789 1.14777
1.748 5.52141 1.16137
1.748 5.50845 1.16137
1.64543 5.51301 1.09322
1.64543 5.50001 1.09322
1.64543 5.48701 1.09322
1.72754 5.46007 1.14777
1.72754 5.4471 1.14777
1.72754 5.43413 1.14777
1.748 5.41772 1.16137
1.748 5.40476 1.16137
1.748 5.3918 1.16137
1.748 5.37884 1.16137
1.72754 5.36929 1.14777
1.72754 5.35632 1.14777
1.72754 5.34335 1.14777
1.748 5.32699 1.16137
1.72754 5.31741 1.14777
1.72754 5.30444 1.14777
1.72754 5.29147 1.14777
1.72754 5.2785 1.14777
1.68654 5.27224 1.12053
1.68654 5.25925 1.12053
1.666 5.24961 1.10689
1.72754 5.22662 1.14777
1.72754 5.21365 1.14777
1.666 5.21063 1.10689
1.70705 5.19102 1.13416
1.72754 5.17475 1.14777
1.72754 5.16178 1.14777
1.72754 5.14881 1.14777
1.68654 5.14238 1.12053
1.70705 5.12613 1.13416
1.70705 5.11315 1.13416
1.70705 5.10018 1.13416
1.72754 5.08396 1.14777
1.72754 5.07099 1.14777
1.68654 5.06447 1.12053
1.72754 5.04505 1.14777
1.748 5.02889 1.16137
1.748 5.01593 1.16137
1.748 5.00296 1.16137
1.748 4.99 1.16137
1.748 4.97704 1.16137
1.748 4.96408 1.16137
1.72754 4.95427 1.14777
1.748 4.93816 1.16137
1.748 4.9252 1.16137
1.748 4.91224 1.16137
1.748 4.89928 1.16137
1.748 4.88632 1.16137
1.70705 4.87956 1.13416
1.70705 4.86658 1.13416
1.64543 4.86289 1.09322
1.64543 4.84989 1.09322
1.666 4.8338 1.10689
1.666 4.82081 1.10689
1.70705 4.80169 1.13416
1.72754 4.78567 1.14777
1.72754 4.7727 1.14777
1.72754 4.75973 1.14777
1.72754 4.74676 1.14777
1.70705 4.7368 1.13416
1.72754 4.72082 1.14777
1.72754 4.70785 1.14777
1.72754 4.69488 1.14777
1.72754 4.68191 1.14777
1.72754 4.66894 1.14777
1.72754 4.65598 1.14777
1.70705 4.64596 1.13416
1.72754 4.63004 1.14777
1.72754 4.61707 1.14777
1.72754 4.6041 1.14777
1.748 4.58821 1.16137
1.748 4.57525 1.16137
1.72754 4.56519 1.14777
1.68654 4.55802 1.12053
1.72754 4.53925 1.14777
1.72754 4.52628 1.14777
1.72754 4.51331 1.14777
1.72754 4.50034 1.14777
1.72754 4.48737 1.14777
1.76844 4.46872 1.17495
1.78884 4.45294 1.18851
1.64543 4.45982 1.09322
1.72754 4.4355 1.14777
1.72754 4.42253 1.14777
1.72754 4.40956 1.14777
1.72754 4.39659 1.14777
1.72754 4.38362 1.14777
1.78884 4.36233 1.18851
1.748 4.35491 1.16137
1.748 4.34195 1.16137
1.748 4.32899 1.16137
1.748 4.31603 1.16137
1.72754 4.3058 1.14777
1.748 4.29011 1.16137
1.748 4.27715 1.16137
1.70705 4.26961 1.13416
1.748 4.25122 1.16137
1.748 4.23826 1.16137
1.72754 4.22799 1.14777
1.72754 4.21502 1.14777
1.72754 4.20205 1.14777
1.72754 4.18908 1.14777
1.72754 4.17611 1.14777
1.72754 4.16314 1.14777
1.666 4.15811 1.10689
1.68654 4.14247 1.12053
1.666 4.13212 1.10689
1.666 4.11913 1.10689
1.666 4.10613 1.10689
1.666 4.09314 1.10689
1.68654 4.07755 1.12053
1.666 4.06715 1.10689
1.72754 4.04642 1.14777
1.68654 4.03859 1.12053
1.68654 4.0256 1.12053
1.68654 4.01262 1.12053
1.72754 3.99454 1.14777
1.72754 3.98157 1.14777
1.72754 3.9686 1.14777
1.76844 3.95061 1.17495
1.748 3.94016 1.16137
1.748 3.9272 1.16137
1.72754 3.91673 1.14777
1.72754 3.90376 1.14777
1.72754 3.89079 1.14777
1.72754 3.87782 1.14777
1.72754 3.86485 1.14777
1.72754 3.85188 1.14777
1.76844 3.83403 1.17495
1.72754 3.82594 1.14777
1.72754 3.81297 1.14777
1.64543 3.8097 1.09322
1.64543 3.7967 1.09322
1.748 3.77167 1.16137
1.748 3.7587 1.16137
1.72754 3.74813 1.14777
1.748 3.73278 1.16137
1.748 3.71982 1.16137
1.748 3.70686 1.16137
1.748 3.6939 1.16137
1.748 3.68094 1.16137
1.748 3.66798 1.16137
1.72754 3.65734 1.14777
1.72754 3.64437 1.14777
1.666 3.63835 1.10689
1.666 3.62535 1.10689
1.72754 3.60546 1.14777
1.748 3.59021 1.16137
1.666 3.58637 1.10689
1.62483 3.57794 1.07954
1.62483 3.56493 1.07954
1.72754 3.54062 1.14777
1.748 3.52541 1.16137
1.68654 3.51916 1.12053
1.72754 3.50171 1.14777
1.72754 3.48874 1.14777
1.72754 3.47577 1.14777
1.72754 3.4628 1.14777
1.72754 3.44983 1.14777
1.72754 3.43686 1.14777
1.748 3.42172 1.16137
1.748 3.40876 1.16137
1.748 3.39579 1.16137
1.68654 3.3893 1.12053
1.666 3.37846 1.10689
1.72754 3.35905 1.14777
1.72754 3.34608 1.14777
1.72754 3.33311 1.14777
1.72754 3.32014 1.14777
1.72754 3.30717 1.14777
1.72754 3.2942 1.14777
1.76844 3.27706 1.17495
1.76844 3.26411 1.17495
1.72754 3.25529 1.14777
1.72754 3.24232 1.14777
1.72754 3.22935 1.14777
1.72754 3.21638 1.14777
1.72754 3.20341 1.14777
1.72754 3.19045 1.14777
1.72754 3.17748 1.14777
1.72754 3.16451 1.14777
1.72754 3.15154 1.14777
1.72754 3.13857 1.14777
1.72754 3.1256 1.14777
1.64543 3.12057 1.09322
1.72754 3.09966 1.14777
1.72754 3.08669 1.14777
1.72754 3.07372 1.14777
1.72754 3.06075 1.14777
1.70705 3.04972 1.13416
