1.05895 2.72912 1.04741 0.257908 -0.667257 0.69875
1.92782 9.37115 0.995648 0.409203 0.026291 0.912064
-1.80035 3.5557 1.31904 -0.428705 -0.0839935 0.899532
-1.74804 3.48168 -2.51565 -0.991365 -0.120515 -0.051686
-1.3526 3.56578 1.46739 -0.28667 -0.0722107 0.955304
-1.66987 2.70523 -2.4098 -0.991973 -0.109552 -0.0631464
-0.144339 3.52848 1.63014 -0.0145787 -0.0479181 0.998745
-3.88709 7.74129 -0.716883 -0.981984 -0.123092 -0.143375
0.0422927 3.72438 1.62954 0.021719 -0.00146468 0.999763
-2.01108 5.19346 -2.8224 -0.877326 -0.400953 -0.263695
2.24772 7.33692 0.939268 0.372762 0.00433429 0.927917
2.22232 3.13906 -2.63023 -0.372627 0.0227688 0.927702
-0.762612 8.3449 -4.00178 -0.203446 -0.100415 -0.973923
-1.14509 9.12059 1.78295 -0.178479 -0.0307558 0.983463
-1.71006 3.09036 -2.92789 -0.980321 -0.154571 -0.122797
0.977169 8.55912 1.49689 0.387593 0.0153845 0.921702
-1.59698 3.38614 1.37171 -0.357159 -0.144498 0.922799
-0.302375 3.38894 1.61826 -0.0302986 -0.115382 0.992859
0.629927 5.554 1.57448 0.35495 -0.00464157 0.934874
1.61734 8.62443 1.15942 0.494595 -0.0146143 0.869001
-3.49969 5.38943 -2.26401 -0.993767 -0.110366 -0.0157153
-0.485015 4.57564 -3.74359 -0.14521 -0.0482219 -0.988225
-1.8227 4.27518 -3.28293 -0.927187 -0.118296 -0.355429
-1.02747 4.16031 1.5338 -0.162625 -0.0515814 0.985339
2.59327 3.09495 0.395542 0.931722 -0.0985185 -0.349554
-2.15572 6.38256 -3.40425 -0.42705 -0.139086 -0.893467
-2.08429 3.7042 0.655143 -0.978144 -0.0856886 -0.18945
0.951618 6.99963 1.47464 0.339428 -0.0330176 0.940052
-0.255046 8.79035 1.82809 0.0937105 -0.0332125 0.995045
-1.9387 3.3677 0.271322 -0.978019 -0.0729671 -0.19533
2.02549 3.74152 1.04888 0.294464 -0.0225448 0.955397
2.09486 4.55207 1.03912 0.303105 0.0190821 0.952766
0.914373 4.03732 1.43781 0.391293 -0.0010954 0.920265
-2.04047 6.34852 -3.47952 -0.476971 -0.159686 -0.864291
-0.549384 7.76841 1.81024 -0.0896378 -0.0347594 0.995368
-0.842562 3.21168 1.53024 -0.165054 -0.246403 0.955009
-0.914115 3.76432 1.53475 -0.155528 0.00135899 0.987831
-1.66831 7.61951 1.56804 -0.336924 -0.0305436 0.941036
-1.42523 7.25601 1.63071 -0.278695 -0.0235483 0.960091
-0.028834 7.96352 1.74365 0.210705 -0.0458359 0.976475
-1.53838 3.64112 -3.48774 -0.367335 -0.0736062 -0.927171
0.989968 9.58293 -1.65169 0.53338 0.0564626 0.843989
1.66635 9.04696 1.115 0.474284 0.00419871 0.880362
-0.399504 5.22871 1.66758 -0.033776 -0.0520836 0.998071
1.80774 7.26022 1.07168 0.372499 0.00445975 0.928022
0.0780174 3.80145 1.62704 0.030651 0.00616281 0.999511
1.3339 6.4039 1.29593 0.445181 -0.0110973 0.895372
-3.4348 4.8927 -1.43383 -0.980257 -0.10974 -0.16448
2.35885 6.91108 -2.74955 -0.337307 0.020201 0.941178
-1.75286 3.20371 -2.03671 -0.988068 -0.113469 -0.104142
0.807783 7.73113 -4.45698 -0.364678 -0.0757927 -0.928044
1.21094 4.20463 -1.55604 -0.0102212 -0.00187904 -0.999946
-2.00668 4.70769 -0.51296 -0.968987 -0.168207 -0.181024
2.76726 5.9093 0.656994 0.895555 0.061402 0.440693
-1.84064 3.67062 -0.831394 -0.942787 -0.197898 -0.268309
-2.45767 9.56972 0.0130616 -0.999507 0.0249216 0.019119
-2.98605 5.97794 0.663295 -0.281569 -0.361442 0.888864
-1.59536 7.87712 1.60235 -0.298886 -0.037826 0.953539
-0.00581879 8.17129 1.74978 0.202647 -0.0368513 0.978558
-0.363063 3.9447 1.62062 -0.0421504 -0.0146535 0.999004
-0.728871 5.02063 -3.70731 -0.178943 -0.0403163 -0.983033
-1.98714 3.97683 0.159385 -0.976978 -0.152883 -0.148795
2.69612 6.16636 0.354539 0.980561 0.0116086 -0.195872
-0.580485 9.38234 1.83238 -0.0249065 -0.0321377 0.999173
-3.57922 4.96098 -0.518772 -0.982523 -0.130954 -0.132283
-1.85176 4.15686 -1.65439 -0.994066 -0.101505 -0.0391002
0.850305 8.4468 1.55572 0.333176 0.0124962 0.942782
0.909718 8.67837 1.52671 0.380421 -0.0141378 0.924705
-0.33402 8.23264 -4.08009 -0.256388 -0.0933003 -0.96206
-2.22935 7.99129 1.33784 -0.551911 -0.0556346 0.832045
-2.38769 7.70773 1.13602 -0.969322 -0.0669748 0.236494
-2.10328 6.50193 -3.46725 -0.485472 -0.104254 -0.868014
-0.808578 4.89429 -3.69553 -0.184278 -0.0243285 -0.982573
0.616262 4.48546 -4.00359 -0.350638 -0.0818015 -0.932932
0.736756 6.69705 -4.35908 -0.37746 -0.0908111 -0.921562
1.40946 5.02733 1.26439 0.368467 -0.0184166 0.929458
2.07866 3.80399 1.0392 0.302638 -0.0263 0.952743
1.93227 4.37907 1.08398 0.298541 0.00252091 0.954394
1.21495 3.04661 1.26566 0.365946 -0.367994 0.854789
-1.88459 3.36257 -0.234179 -0.988937 -0.104634 -0.105143
-2.32514 6.64653 1.08567 -0.724813 -0.0972052 0.682054
-1.03116 9.31232 1.80635 -0.131071 -0.0377512 0.990654
-1.25701 9.5948 1.78121 -0.211225 -0.0159438 0.977308
2.72867 6.34209 0.461601 0.984603 -0.0164285 -0.174034
0.983143 4.52903 1.40709 0.372412 -0.0152751 0.927942
-1.85872 4.41174 -2.39338 -0.988967 -0.138478 -0.0526182
1.45234 2.90212 1.07587 0.26834 -0.53407 0.801725
-2.53822 9.48113 0.955589 -0.999487 -0.0151716 0.0282092
-1.83705 3.64458 -1.78606 -0.994811 -0.0831095 -0.0586874
0.945066 3.79204 1.42599 0.379559 0.0266899 0.924782
-1.23011 7.26889 1.68818 -0.230715 -0.00776092 0.97299
1.37294 4.35718 -2.53107 -0.97369 0.0777096 -0.214219
0.569858 9.68154 1.67027 0.322221 -0.0129202 0.946576
0.693661 8.53528 1.60387 0.275297 -0.0108569 0.961298
-0.794174 8.7248 -4.02963 -0.194683 -0.073029 -0.978144
0.940339 3.44438 1.449 0.38732 -0.038653 0.921135
-2.14364 8.87215 1.43445 -0.481646 -0.0516987 0.87484
-0.528536 5.60037 1.68146 -0.0130103 -0.0661138 0.997727
-1.72147 7.42893 1.54419 -0.362761 -0.0225836 0.931608
-0.49523 6.70268 1.7705 -0.00230909 -0.103306 0.994647
0.0506243 4.11579 1.62266 0.0514822 -0.0251861 0.998356
0.654749 6.4791 1.57245 0.319704 -0.00790093 0.947485
-0.274421 4.13113 -3.73756 -0.169683 -0.0661575 -0.983276
-0.982886 2.76482 1.2125 -0.177462 -0.670652 0.720231
-1.95421 5.00874 -2.42443 -0.977681 -0.202049 -0.0575807
-0.784083 4.7339 1.60134 -0.14075 -0.0629173 0.988044
1.30697 3.9935 1.3044 0.354272 0.0177348 0.934974
1.52533 9.32902 1.21236 0.516692 -0.000305472 0.856171
-1.78171 7.22688 1.51819 -0.38165 -0.0270365 0.923912
-1.17686 9.05314 1.77592 -0.193262 -0.0327396 0.980601
-1.83058 3.23942 -0.551281 -0.985418 -0.0665394 -0.1566
1.32046 6.45972 1.30507 0.451241 -0.0203242 0.892171
-2.17354 4.49521 0.819277 -0.997492 -0.069782 -0.0118237
1.03659 5.92405 -4.40686 -0.372598 -0.0822543 -0.92434
-0.703186 7.88395 1.78203 -0.160875 -0.0357338 0.986328
-0.682525 3.61452 -3.59656 -0.147571 -0.154343 -0.976935
-0.871231 9.08933 -4.03492 -0.194409 -0.0570387 -0.979261
-2.39676 8.4076 0.40709 -0.991942 -0.100172 -0.0775607
0.980135 7.21818 1.48557 0.358501 -0.0428067 0.932547
2.08304 2.93173 0.966591 0.260212 -0.260716 0.929686
-0.525539 4.04809 -3.69759 -0.155749 -0.106499 -0.982039
-0.721436 7.50977 1.75461 -0.184322 -0.0179972 0.982701
2.66024 6.49495 0.210748 0.973055 -0.0310255 -0.228477
1.47405 7.21754 1.23104 0.468355 0.0043092 0.88353
-2.32694 8.1898 1.28763 -0.629499 -0.0586479 0.774785
-2.0983 4.84304 0.0926155 -0.99936 -0.0247602 -0.0258155
-1.2966 7.55756 1.66726 -0.223303 -0.0110466 0.974687
-0.236183 7.4499 -3.99731 -0.284277 -0.0844054 -0.955019
-0.53719 4.9339 1.63903 -0.0909888 -0.0531124 0.994435
-3.47873 5.24073 -2.1142 -0.99308 -0.117434 0.00105438
0.915403 9.45009 1.53352 0.414592 -0.0313504 0.909467
-2.37534 9.09617 -1.56821 -0.993561 -0.102457 -0.0483581
0.263438 8.81893 1.73131 0.254863 -0.0623542 0.964965
-0.978729 8.84514 1.80314 -0.114649 -0.0364591 0.992737
2.38872 8.48756 -2.75583 0.640037 0.0218154 0.768034
0.0325814 7.91208 1.72426 0.205215 -0.0425312 0.977792
-2.45765 9.40738 0.133773 -0.999909 0.0109179 0.00789516
-0.837286 7.80404 1.74904 -0.174966 -0.0455895 0.983518
-0.0920636 5.91212 1.6969 -0.000943564 -0.0372958 0.999304
1.11037 5.88047 -1.78133 -0.889171 -0.123723 -0.44053
1.66454 7.54445 1.11985 0.423449 0.0155019 0.905787
-1.90619 4.50065 -1.82866 -0.995208 -0.0937944 -0.0276519
-1.75893 3.23562 -0.930179 -0.979178 0.0120529 -0.202644
-2.08955 3.35476 0.79513 -0.990934 -0.106971 -0.0812798
-1.4486 4.40613 1.45098 -0.329806 -0.0255676 0.943702
0.395026 7.34946 1.65142 0.194664 -0.000712 0.98087
-2.15539 4.25646 0.775832 -0.996577 -0.069337 -0.0450174
-0.13589 6.39934 -3.97472 -0.277004 -0.0797834 -0.957551
-1.96913 5.27487 -3.10604 -0.849377 -0.345722 -0.398792
-1.83276 3.60219 -0.807054 -0.942176 -0.191567 -0.274967
-1.87059 4.39214 -0.902222 -0.986262 -0.116121 -0.11749
-3.03044 6.45282 0.778838 -0.30396 -0.110683 0.946233
1.91346 6.93209 1.03299 0.345219 0.00962 0.938473
-1.34188 6.12382 -3.71951 -0.184711 -0.103547 -0.977323
1.02123 7.96247 1.50037 0.352505 -0.0447209 0.934741
2.11233 3.04475 -2.67954 -0.4032 0.0175019 0.914945
-1.40784 4.13624 1.46555 -0.307814 -0.0232003 0.951164
1.17065 8.08288 0.0910544 0.434274 -0.00469601 -0.900769
-1.67885 2.80702 -2.64486 -0.989928 -0.124267 -0.0678219
-0.459024 6.06112 1.70482 0.0220122 -0.0438317 0.998796
-2.09228 4.89362 -0.0965119 -0.996735 -0.0237033 -0.0771855
-3.82188 6.89088 -0.116071 -0.989047 -0.0713867 -0.129193
1.33634 6.02556 1.30491 0.418251 0.0266141 0.907942
-1.64413 8.6281 1.62237 -0.311463 -0.0472968 0.94908
-2.08902 5.05075 0.221586 -0.994672 -0.0878103 -0.0540026
-0.00165189 4.99014 1.64727 0.0229869 -0.0450053 0.998722
1.62945 3.65861 1.16827 0.358264 -0.0153583 0.933494
-2.35562 8.81825 -1.04437 -0.995152 -0.0929747 -0.0320743
0.00497145 7.17889 1.71306 0.169705 -0.0391856 0.984716
2.10008 2.83263 -2.68252 -0.432856 0.013057 0.901368
2.39734 3.78296 0.925896 0.39179 -0.0295321 0.91958
-0.267765 4.95547 1.6523 -0.0133611 -0.0529023 0.99851
-3.45294 4.95016 -2.24393 -0.992487 -0.122213 0.00577923
1.24909 9.5227 1.3826 0.46886 0.00732286 0.883242
-1.06842 9.67424 1.81546 -0.136677 -0.00496757 0.990603
0.0247571 5.57163 1.6911 0.00784835 -0.0222871 0.999721
0.911459 3.95034 1.43747 0.388941 0.00691089 0.921237
1.02439 9.18959 1.47294 0.405142 -0.00908839 0.914208
2.60873 6.30931 0.77829 0.522167 0.0312654 0.85227
-1.96432 6.47826 1.3936 -0.475426 -0.0666427 0.877228
-2.46455 6.72584 0.94627 -0.612023 -0.0343565 0.790094
1.9973 8.16413 0.990639 0.307044 -0.00512037 0.951681
-0.313979 3.63081 1.62046 -0.0417481 -0.0126106 0.999049
-0.549186 8.23209 1.82184 -0.0965368 -0.0241637 0.995036
1.36361 3.87571 1.28584 0.365056 0.011728 0.930912
-0.583642 3.09096 1.53652 -0.0988483 -0.379366 0.919951
-1.24073 5.22223 1.5822 -0.234566 -0.0845036 0.96842
1.26454 6.82581 1.35982 0.459883 -0.0109237 0.887912
-1.02101 9.49968 1.81889 -0.124904 -0.0291583 0.99174
-1.64494 2.88399 -3.17284 -0.957323 -0.21231 -0.196106
1.58228 6.33093 1.17373 0.411376 0.0102652 0.911408
-2.0746 4.89832 -0.275896 -0.990455 -0.0548878 -0.126434
-0.388208 3.89182 -3.69726 -0.185537 -0.116229 -0.975739
-1.5266 2.77281 1.09942 -0.274079 -0.60173 0.750201
-1.03015 8.26372 1.74073 -0.174789 -0.077615 0.981542
0.204333 4.60887 -3.87538 -0.299021 -0.121497 -0.94648
-1.26053 4.43128 -3.57554 -0.264791 -0.0579019 -0.962566
-0.253122 3.60755 1.62352 -0.0331183 -0.0170428 0.999306
-2.59916 5.9219 -3.23626 -0.112937 -0.312063 -0.943325
0.45243 4.83995 1.61545 0.188193 -0.0416783 0.981247
1.24223 4.23131 -4.27882 -0.10827 -0.051101 -0.992807
0.10454 3.04855 1.51089 0.0816636 -0.452424 0.888056
1.33947 4.95602 -1.57317 0.0162287 -0.0322468 -0.999348
1.43506 4.51781 1.25038 0.337309 -0.00742485 0.941365
-2.00981 4.16999 1.21963 -0.586717 -0.0560425 0.80785
2.1253 7.00052 -2.83305 -0.350357 0.0203215 0.936396
-2.22675 8.34285 -3.19824 -0.990716 -0.0975202 -0.0947177
1.32361 8.8289 1.32733 0.479898 0.00822881 0.877286
-0.646485 7.21809 -3.91029 -0.182781 -0.0299129 -0.982698
-2.19026 5.36251 1.19118 -0.749878 -0.0518798 0.659539
-3.75382 6.17152 -0.492511 -0.990342 -0.0459911 -0.130792
-1.76169 4.4522 -3.41334 -0.448483 -0.102095 -0.887941
-1.78065 2.81281 -0.745691 -0.98999 -0.103301 -0.0961738
0.600567 9.83109 1.66316 0.326997 -0.0119776 0.944949
-0.432069 8.66921 1.83481 -0.0165367 -0.0215361 0.999631
-3.78705 5.97603 -0.122243 -0.995792 -0.0446912 -0.0800124
-3.09242 6.40578 -3.31863 -0.15243 -0.0613437 -0.986409
0.214923 6.06507 1.69409 0.127239 -0.0143296 0.991769
-0.185071 8.58258 1.807 0.149172 -0.040056 0.988
-1.03567 8.12434 1.72779 -0.176405 -0.0565661 0.982691
-1.75951 4.87289 -3.51359 -0.364273 -0.167477 -0.916109
-0.0505916 7.00748 1.71082 0.154965 -0.0484328 0.986732
-1.84362 5.46527 1.39298 -0.400476 -0.0687195 0.913727
1.2971 2.84913 -4.15317 -0.278664 -0.146262 -0.949186
-0.814479 3.05588 1.48695 -0.155013 -0.401467 0.90266
2.01861 9.10627 0.962158 0.378483 0.0102784 0.925551
-2.30726 8.46711 -2.17816 -0.996549 -0.0696649 -0.0451338
1.2318 6.23627 1.35026 0.411952 0.0034157 0.911199
-3.87651 7.47279 -0.132597 -0.976597 -0.173084 -0.127674
-2.38117 9.02592 -1.23589 -0.994247 -0.102924 -0.0296479
1.01842 8.54047 -4.60603 -0.406271 -0.0767261 -0.910526
-3.88544 6.77788 0.393815 -0.994638 -0.0906093 -0.0498438
0.894625 8.84801 -4.57699 -0.392999 -0.0729117 -0.916644
-1.722 6.27631 -3.64968 -0.340609 -0.133192 -0.930723
-1.52153 5.39626 -3.63181 -0.191352 -0.0700637 -0.979018
0.365451 2.848 1.33398 0.113089 -0.606873 0.786712
-1.38643 3.62404 1.45993 -0.297707 -0.0603139 0.95275
0.284577 5.96243 1.68073 0.162736 -0.0173772 0.986517
1.21025 4.0704 -1.55627 -0.0105128 0.00328075 -0.999939
-0.739637 8.68086 1.7964 -0.0840758 -0.0356361 0.995822
-1.48225 9.70124 1.71677 -0.279499 -0.00766152 0.960115
-2.45319 9.08792 0.280324 -0.999314 -0.0369549 -0.00256977
-3.48356 4.86828 -1.28134 -0.975019 -0.100009 -0.198333
-1.77009 2.93266 -1.42649 -0.987274 -0.152424 -0.045347
-1.82957 3.85924 -0.987566 -0.972534 -0.148415 -0.179308
-2.59335 6.39612 0.869369 -0.437893 -0.142043 0.887735
-1.71336 2.6784 -1.42659 -0.979087 -0.196793 -0.0515767
-1.46807 3.56788 -0.987811 -0.20506 -0.0465238 -0.977643
-0.501683 4.49722 -3.73926 -0.141415 -0.054903 -0.988427
1.20562 5.16636 -1.58071 -0.0114257 -0.0288008 -0.99952
-0.0526311 3.89909 -3.76865 -0.236367 -0.0609017 -0.969753
-0.0883611 7.04573 -4.02686 -0.30289 -0.0501975 -0.951703
-2.40556 9.2799 -1.31853 -0.995518 -0.0850867 -0.0412858
-0.684737 8.14379 1.7906 -0.15298 -0.0365669 0.987552
2.34115 3.40777 -2.59739 -0.322996 0.0323896 0.945846
-2.45692 9.16392 -0.267814 -0.99755 -0.0450397 -0.0535317
-2.48914 6.53837 0.925534 -0.540642 -0.087161 0.836725
-2.42743 8.06824 0.798234 -0.996466 -0.058698 -0.0600883
-2.54092 9.58994 0.998096 -0.997584 0.0106478 0.0686486
0.882957 6.83121 1.49521 0.331772 -0.0161648 0.943221
-3.21988 5.9639 0.600425 -0.310351 -0.341173 0.88729
-0.473211 7.66285 1.81487 -0.0323648 -0.0265001 0.999125
-0.68339 4.09097 1.59698 -0.150097 -0.0360682 0.988013
-3.63437 6.34454 -1.56374 -0.989277 -0.102354 -0.104186
-1.91909 5.27677 -3.37659 -0.825744 -0.173055 -0.536842
1.22865 5.02497 1.33914 0.354123 -0.0133277 0.935104
-1.80834 6.86209 1.48896 -0.378704 -0.064296 0.923282
-0.96778 7.17909 -3.84597 -0.222365 -0.0436904 -0.973984
1.21178 5.86938 -4.46172 -0.300943 -0.0763608 -0.95058
-0.140085 8.01044 1.7797 0.197905 -0.0440628 0.97923
-3.54941 5.70613 -1.73106 -0.988787 -0.128994 -0.0752407
0.330855 4.56319 1.61426 0.138197 -0.0549629 0.988878
0.364001 3.02324 1.4622 0.108908 -0.493742 0.862762
-2.35223 8.74157 -1.30717 -0.996412 -0.0817386 -0.0219618
1.15171 5.74907 -4.43224 -0.343399 -0.0697431 -0.936597
0.24474 3.92523 1.61437 0.0939674 0.0171259 0.995428
1.02724 8.40733 -1.60148 0.547551 -0.0183547 0.836571
-1.96077 4.81356 -1.30666 -0.991005 -0.0888311 -0.100087
0.419167 7.84155 1.64945 0.218019 -0.0375515 0.975222
-1.38312 2.813 1.17011 -0.229591 -0.612382 0.75649
-1.9152 7.2843 1.45586 -0.428331 -0.019514 0.903411
2.1058 3.9339 1.03877 0.307916 -0.0278504 0.951006
1.40741 9.64751 1.286 0.528034 0.0564871 0.847343
2.16946 7.43249 0.965838 0.339775 0.00716003 0.94048
1.86469 9.32812 1.02189 0.420941 0.0194399 0.90688
2.52347 3.20278 0.228705 0.917183 -0.073458 -0.391637
1.41662 8.50902 1.27719 0.50808 -0.00479167 0.861297
-0.393925 3.99786 1.62049 -0.0497597 -0.0156777 0.998638
-1.52362 5.13282 1.47238 -0.341992 -0.0951668 0.934871
-1.0161 8.92234 1.80102 -0.12885 -0.0309123 0.991182
-2.12979 4.44055 1.09683 -0.939357 -0.0689931 0.33593
-0.821894 8.38734 1.78002 -0.126938 -0.0522863 0.990532
-3.74603 5.30655 -0.0299353 -0.97972 -0.115631 -0.163638
0.596546 2.83732 1.2906 0.149025 -0.615491 0.773926
1.8073 3.83043 1.10529 0.31238 -0.0157024 0.949827
0.899536 7.68185 1.51315 0.304471 -0.0130797 0.952432
-1.73479 6.6939 1.49928 -0.356641 -0.0705958 0.93157
2.37815 9.18978 -2.8059 0.651248 0.0308602 0.758237
-1.92452 5.76469 -3.43947 -0.591963 -0.157268 -0.790472
0.828771 7.97823 -4.47293 -0.39162 -0.079659 -0.916672
2.01867 7.70826 0.991059 0.316174 0.0226733 0.94843
-0.794197 4.93599 1.60067 -0.128587 -0.0576599 0.990021
0.105528 6.76976 1.68243 0.121479 -0.0129176 0.99251
-2.37179 7.51448 1.07992 -0.958571 -0.00759842 0.284751
-1.11736 8.15389 1.71463 -0.189281 -0.0605712 0.980053
-2.43498 8.82821 -0.402503 -0.993586 -0.0870063 -0.0722333
-1.97764 7.1273 1.42833 -0.447357 -0.027519 0.893932
-1.50917 9.02292 1.68662 -0.307227 -0.0511984 0.950258
-2.43452 9.37857 -0.912181 -0.997712 -0.0488172 -0.0467713
-2.3945 7.63378 0.872219 -0.991433 0.0245252 0.128294
1.10713 5.16205 -1.57785 -0.00884849 -0.0265352 -0.999609
2.69333 5.07078 0.789304 0.446798 0.0649058 0.892277
-0.647314 5.67279 -3.7735 -0.210442 -0.0943756 -0.97304
-1.99184 2.83991 0.605667 -0.970398 -0.222899 -0.0929726
-0.0312997 9.27582 1.80582 0.164333 -0.0232768 0.98613
-1.77424 4.04798 1.3184 -0.415362 -0.026373 0.909274
-0.54405 9.25789 1.82979 -0.0271471 -0.0235985 0.999353
-0.60744 5.23467 -3.74037 -0.193942 -0.0773563 -0.977958
-2.41445 7.33368 0.916983 -0.90569 0.122463 0.405868
0.627997 3.05078 -3.91172 -0.348879 -0.162478 -0.922976
-3.78522 7.95812 -1.71084 -0.993998 -0.0854208 -0.0683477
-0.848479 3.5829 1.55752 -0.170965 -0.0148918 0.985165
1.93808 6.58633 1.03405 0.340139 0.00877833 0.940334
-2.09388 5.06375 0.293107 -0.988998 -0.123767 -0.0810257
2.36882 7.354 -2.75313 -0.351186 0.0101738 0.93625
-2.25012 8.59136 -2.90602 -0.989722 -0.118405 -0.0801927
-1.80295 3.84335 -2.26215 -0.993218 -0.0903485 -0.0731765
-0.658857 7.71348 1.78497 -0.157659 -0.0420486 0.986598
-0.630539 9.48405 1.8362 -0.0300113 -0.0329206 0.999007
-2.17271 7.96316 -3.52228 -0.938966 -0.0724184 -0.3363
2.56247 3.25436 0.296337 0.922459 -0.0800942 -0.377696
0.79779 4.93377 1.5044 0.380671 -0.0185644 0.924524
-2.05853 3.44852 0.6407 -0.977546 -0.0837976 -0.193343
1.14775 8.43444 1.43976 0.435054 0.0360216 0.899684
-0.261774 7.26133 1.78484 0.158613 -0.0408108 0.986497
-2.80381 6.05448 -3.26355 -0.101865 -0.243609 -0.964509
0.642512 9.33138 1.65043 0.338532 -0.0266673 0.940577
-1.69787 4.75519 1.36527 -0.35689 -0.0613851 0.932127
-0.40002 3.74306 1.61726 -0.0628724 -0.00934036 0.997978
1.95206 7.61218 1.0162 0.327679 0.0236896 0.944492
-1.5537 3.72533 1.40037 -0.35474 -0.0404103 0.934091
-1.28984 3.96939 -3.56632 -0.251396 -0.0394032 -0.967082
0.655474 6.68991 1.57618 0.308027 -0.0192846 0.951182
-2.36892 8.27595 0.284117 -0.991033 -0.099861 -0.0887772
0.58511 8.26861 1.62562 0.236438 -0.0155578 0.971522
-2.34078 8.58862 -1.42919 -0.996642 -0.0756289 -0.0314002
2.46486 5.11776 0.89579 0.401769 0.0484154 0.91446
-2.29434 8.77698 -3.25001 -0.989003 -0.0986388 -0.110201
-1.80638 2.90262 -0.600617 -0.98814 -0.086808 -0.126666
-2.04347 4.52296 -0.184785 -0.986479 -0.107921 -0.123335
0.965456 4.569 1.41529 0.372481 -0.0181778 0.927862
-0.279551 7.81046 -4.03914 -0.285635 -0.127256 -0.949852
-0.584183 5.71726 1.6935 -0.0146815 -0.0741311 0.99714
-1.89163 4.39659 -1.68749 -0.991956 -0.121041 -0.037059
0.0489031 2.75131 1.2991 0.0615554 -0.6408 0.765236
-0.843899 6.19197 1.70725 -0.155646 -0.0241016 0.987519
-0.236962 3.78937 1.61914 -0.0227906 -0.00195623 0.999738
-2.04641 8.68588 1.46518 -0.449464 -0.050893 0.891848
1.20359 6.02206 1.37072 0.384324 0.0156932 0.923065
-0.63545 4.49773 1.60194 -0.128032 -0.0611389 0.989884
-2.06831 4.77888 1.22527 -0.564552 -0.10166 0.819113
0.826617 3.54236 1.50604 0.374789 0.000353498 0.92711
-0.703999 9.63529 1.83886 -0.0435281 -0.0225526 0.998798
-1.38892 5.61045 1.55603 -0.294092 -0.0578193 0.954027
-1.42781 3.17688 1.39588 -0.301942 -0.30494 0.90324
0.554849 5.24169 1.60868 0.295725 -0.0177423 0.955108
1.64344 4.6876 1.17121 0.342762 0.00735179 0.939393
-2.02973 8.45548 -3.76913 -0.383962 -0.0773001 -0.920108
-1.84284 5.1671 -3.50547 -0.809102 -0.145077 -0.56948
-1.13064 6.6879 1.6731 -0.189481 -0.0639908 0.979797
-2.35277 7.13604 1.15846 -0.830926 -0.000538789 0.556383
0.5004 9.08642 -4.42001 -0.358539 -0.0654101 -0.931221
-2.07659 5.79208 1.3102 -0.568458 -0.0550988 0.820865
0.9277 5.75685 1.45641 0.323194 0.00255718 0.946329
-0.461985 7.48802 1.81284 -0.0277017 -0.0123156 0.99954
0.448827 7.01904 1.64103 0.223013 -0.0158841 0.974686
-1.72184 7.71316 -3.78216 -0.212058 -0.112128 -0.970803
-1.05187 6.8501 -3.8158 -0.234462 -0.0354696 -0.971478
0.768551 7.59865 1.5547 0.287917 0.0112545 0.957589
-0.507461 6.9145 -3.92699 -0.18687 -0.041547 -0.981506
-0.555422 4.80402 1.63649 -0.0871182 -0.048987 0.994993
1.24777 6.49473 1.34979 0.441073 -0.0350853 0.896785
0.439425 8.00675 -4.2931 -0.339162 -0.0813451 -0.937205
-3.4997 5.81138 -3.02345 -0.937532 -0.170288 -0.303374
0.324266 4.30967 1.59702 0.143945 -0.0344824 0.988985
-0.53848 6.68515 1.76715 -0.0334629 -0.102407 0.99418
1.09037 4.17125 -1.55493 -0.0098213 -2.40241e-05 -0.999952
2.51596 2.85172 0.272845 0.927745 -0.0996901 -0.359654
2.10097 5.48919 0.995573 0.351354 0.0241758 0.935931
1.92862 8.34741 1.01109 0.339678 -0.000500347 0.940542
-2.46478 9.41469 -0.308836 -0.998174 -0.0302492 -0.0522754
-2.14731 4.03585 0.831958 -0.997043 -0.0732678 -0.0231933
-0.361108 6.72346 -3.93983 -0.215849 -0.0590359 -0.97464
0.917081 9.36374 1.52551 0.412788 -0.0348497 0.91016
-2.54037 9.54286 0.977432 -0.998897 -0.000827753 0.0469375
-0.646102 8.88541 1.81358 -0.0755841 -0.0328894 0.996597
-1.74753 2.68463 0.953843 -0.423153 -0.605613 0.673925
-0.396852 3.49046 -3.62522 -0.230867 -0.127338 -0.964617
-0.792608 8.2596 -3.98655 -0.206024 -0.106643 -0.972718
-0.889199 6.99809 -3.86521 -0.220077 -0.0346656 -0.974866
-2.04438 3.19428 1.08727 -0.760329 -0.256925 0.596565
-2.08859 4.66787 0.239149 -0.999061 -0.0403502 -0.0157793
-1.75885 3.36401 -2.11137 -0.98779 -0.118739 -0.100859
0.131874 5.26825 1.67763 0.0415986 -0.0743848 0.996362
-0.614531 8.966 1.8208 -0.0671932 -0.0283716 0.997337
-1.92995 8.30375 -3.79884 -0.327535 -0.0761767 -0.941763
2.75189 6.4291 0.525459 0.991274 -0.0307922 -0.128169
-0.919961 5.43353 1.64779 -0.12406 -0.0883891 0.98833
2.41245 4.40086 -2.53899 0.0119865 -0.0294513 0.999494
2.69198 4.44657 0.813648 0.468489 -0.0314185 0.882911
0.00207 9.1975 1.79723 0.177179 -0.0217106 0.983939
-0.289739 4.60635 1.63228 -0.0573643 -0.0429343 0.99743
-3.67637 6.16189 -0.932927 -0.987183 -0.0821078 -0.136851
-3.74808 7.88746 -2.11407 -0.995822 -0.0785227 -0.0466133
-0.217167 6.02948 1.69557 -0.00830038 -0.0338795 0.999391
1.11202 3.08786 1.33322 0.35592 -0.337323 0.871513
-2.08232 4.49419 0.26069 -0.996474 -0.0717084 -0.0435709
-1.90124 2.75609 0.910101 -0.606649 -0.575754 0.548164
0.615216 6.40678 -4.24182 -0.377511 -0.102221 -0.920346
0.270639 7.54361 1.6739 0.191481 -0.00673479 0.981473
-2.12964 3.89403 0.767579 -0.992102 -0.0775019 -0.0986297
-2.05156 4.18995 0.306351 -0.985743 -0.116053 -0.121827
0.059156 6.48469 -4.0493 -0.306669 -0.0743338 -0.948909
-1.9471 4.44245 -0.573502 -0.97185 -0.0807423 -0.221335
1.68405 5.44397 1.1716 0.410681 -0.0045388 0.911768
-1.12441 7.95322 1.70519 -0.186469 -0.0374974 0.981745
-2.70904 5.80827 -3.18752 -0.0999551 -0.359276 -0.927863
-3.57591 6.78324 -3.09517 -0.894283 -0.0347453 -0.446152
-2.20007 4.86688 0.865128 -0.994622 -0.0942709 -0.0428857
-0.0416755 7.51863 1.73879 0.204112 -0.02402 0.978653
0.887135 2.75698 1.15065 0.219778 -0.653079 0.724696
2.69502 5.76827 0.744706 0.607821 0.0491003 0.792555
0.219161 4.81253 1.64085 0.0866259 -0.0312445 0.995751
0.498962 7.93519 -4.3083 -0.350965 -0.0794618 -0.933011
-0.229899 4.6297 -3.7694 -0.183447 -0.0805097 -0.979727
-2.45531 9.18042 0.478087 -0.99854 -0.0379236 -0.0384766
-1.81252 3.99492 -2.7248 -0.993129 -0.109556 -0.0411417
-1.96745 4.07249 -0.146458 -0.983846 -0.165331 -0.0686566
-2.35179 7.37576 1.15413 -0.891063 0.0100704 0.453768
-0.394828 6.289 1.70664 0.0259854 -0.0598327 0.99787
-1.97842 4.68801 -0.632809 -0.964201 -0.209753 -0.162232
-1.04666 8.83619 -3.98784 -0.200821 -0.0684575 -0.977233
-1.91116 3.68132 1.27518 -0.51216 -0.0396145 0.857976
-1.70764 9.23526 1.62598 -0.338887 -0.0480927 0.939597
0.577617 5.01728 1.59748 0.279679 -0.0312226 0.959586
-0.392733 8.51096 1.83291 0.0170158 -0.0189706 0.999675
1.01132 4.21051 1.39699 0.375961 0.00354446 0.926629
1.28318 4.23396 -1.55688 -0.0107001 -0.00271663 -0.999939
-2.08718 5.03691 -0.0931329 -0.997628 0.000819523 -0.0688328
1.14048 3.83944 -1.55725 -0.00814741 0.00973909 -0.999919
0.093621 9.396 1.78119 0.184683 -0.0304842 0.982325
-3.69446 7.51911 -2.67916 -0.991586 -0.118231 -0.0527157
-2.4371 8.76893 0.315268 -0.996225 -0.0854901 -0.0150751
1.0293 5.07444 1.40409 0.349576 -0.0145251 0.936796
0.00830869 7.03279 1.7045 0.146852 -0.0440987 0.988175
-1.88625 2.90129 0.139618 -0.991882 -0.066821 -0.10819
0.9397 3.17463 1.42552 0.32859 -0.265616 0.906353
-1.60499 8.94608 1.64536 -0.323156 -0.0499465 0.945027
-1.86578 2.75852 -0.121434 -0.991135 -0.0876514 -0.0998387
-0.358198 8.83113 -4.12131 -0.251424 -0.0703928 -0.965314
0.122015 8.65594 1.74633 0.203683 -0.0759024 0.97609
-2.13178 3.70986 0.854313 -0.996305 -0.0824159 -0.0241592
-1.66104 4.82551 1.381 -0.354943 -0.0742453 0.931935
-2.14237 4.37325 0.684691 -0.991319 -0.0717104 -0.110204
-0.144124 5.69684 1.68398 -0.0141392 -0.0331895 0.999349
-0.299829 3.16776 1.57682 -0.0183279 -0.316324 0.948474
-1.63015 2.93714 -3.30233 -0.952051 -0.20701 -0.225268
2.05091 7.17664 0.996428 0.329268 0.00104145 0.944236
0.920305 3.9318 -4.18197 -0.360108 -0.09109 -0.928453
-2.04506 8.37687 1.44993 -0.457031 -0.0507272 0.888003
1.13066 3.79815 -1.55806 -0.00786762 0.0102746 -0.999916
-0.593042 7.13276 -3.91811 -0.18241 -0.0284599 -0.982811
2.2082 8.2151 0.941342 0.296845 -0.00226945 0.954923
-2.11077 5.14367 0.303801 -0.980389 -0.174007 -0.0925112
0.0877107 5.42211 1.69067 0.0257125 -0.0428551 0.99875
-1.32194 2.75979 1.13382 -0.211887 -0.63595 0.742072
1.55129 5.36534 1.22952 0.381796 -0.023099 0.923958
-1.01278 8.23258 -3.93034 -0.2123 -0.10759 -0.971264
-0.276278 6.51559 1.72662 0.0622783 -0.079365 0.994898
0.450028 8.43215 1.65782 0.240593 -0.0124435 0.970546
-0.323659 2.944 -3.57634 -0.246079 -0.257499 -0.934419
-2.44896 9.55942 -0.520768 -0.997374 -0.0442593 -0.0573288
-1.76336 9.67997 1.62874 -0.337051 -0.018107 0.941312
-3.49749 6.01714 -3.10896 -0.928813 -0.152822 -0.337568
-1.7876 3.18063 -1.33535 -0.995402 -0.0808089 -0.051437
0.780718 3.95117 1.50609 0.36133 0.00853129 0.932399
-0.513972 7.94316 1.81982 -0.0709245 -0.033661 0.996914
0.22844 5.5402 1.68753 0.106462 -0.0155997 0.994194
-0.217545 7.08826 -3.98313 -0.268634 -0.0453786 -0.962173
0.69365 2.84524 -3.89254 -0.362076 -0.19857 -0.910753
0.00316669 4.23597 1.63302 0.0476619 -0.0400601 0.99806
2.74471 6.03644 0.510053 0.997688 0.0326869 -0.0595873
-1.88794 4.79991 -3.03146 -0.969254 -0.185934 -0.16117
2.06541 6.79834 0.997253 0.334248 0.00744319 0.942456
-0.920694 7.1663 -3.85836 -0.217612 -0.0393512 -0.975242
-0.529703 5.48081 1.6729 -0.025886 -0.0622901 0.997722
-2.03146 7.45792 1.39881 -0.461749 -0.0326271 0.886411
-1.34426 6.3784 1.61185 -0.279106 -0.0543265 0.958722
-1.88006 3.00489 -0.0909351 -0.995916 -0.0383998 -0.081709
0.933119 7.03406 1.48274 0.33988 -0.0400422 0.939616
2.69216 5.64024 0.748055 0.608497 0.066185 0.790791
-1.97969 9.1066 1.51834 -0.409749 -0.0476967 0.91095
-0.642464 5.80845 -3.78919 -0.21359 -0.104878 -0.971278
0.808757 8.32078 1.57688 0.297006 0.00166468 0.954874
0.828911 2.68168 -3.91906 -0.37313 -0.204708 -0.904913
-0.432586 3.16565 -3.59175 -0.226107 -0.159815 -0.960903
-0.250171 2.77257 1.31567 -0.0107347 -0.660925 0.750375
-3.74923 7.67001 -1.85227 -0.993681 -0.0930332 -0.0627874
-2.08758 6.19163 1.30949 -0.605005 -0.0407467 0.795178
0.431488 4.51542 1.59857 0.165088 -0.053923 0.984804
-1.00239 3.14083 -3.49831 -0.133716 -0.222629 -0.965689
-0.754733 6.43954 1.72177 -0.131175 -0.0346752 0.990753
-1.60623 4.24307 1.38449 -0.365878 -0.0252451 0.93032
2.67762 6.15602 0.749191 0.561715 0.035939 0.82655
0.988632 4.88136 -1.58021 0.0372461 -0.0318347 -0.998799
0.598842 5.87327 1.5901 0.347471 -0.0053377 0.937676
-0.68588 3.72274 1.57784 -0.168296 0.00723773 0.98571
-3.79268 5.87259 -0.0148334 -0.996381 -0.0461162 -0.071399
-0.964331 3.70389 1.53372 -0.154536 -0.00152292 0.987986
0.968879 8.41871 1.51269 0.369314 0.0285396 0.928866
-3.71419 7.20173 -1.54168 -0.992673 -0.099656 -0.068323
-1.98217 4.25446 -0.487281 -0.984731 -0.0504907 -0.166601
-1.71875 4.53428 1.35596 -0.368496 -0.0377086 0.928864
-2.45372 9.28347 -0.35267 -0.996746 -0.041654 -0.0690107
0.361566 8.80013 -4.34761 -0.345681 -0.0761964 -0.935253
-1.3321 9.69676 1.76241 -0.236889 -0.00463008 0.971526
1.57716 4.78398 1.19425 0.351994 -0.00109828 0.936002
-2.34317 8.17256 0.149164 -0.991357 -0.0991105 -0.0859606
-0.200204 5.33489 1.67154 -0.016611 -0.0476723 0.998725
2.45896 6.5746 0.852148 0.454012 0.00833169 0.890957
1.49761 6.55391 -3.30978 -0.606729 0.00160346 0.794907
-2.34149 8.96667 -1.91888 -0.994623 -0.0939464 -0.0435904
1.48653 8.49379 1.23269 0.510874 -0.0190072 0.859445
-0.614134 9.23852 -4.08957 -0.209605 -0.0618206 -0.97583
-3.54241 5.61971 -1.66956 -0.987292 -0.140692 -0.0738936
-2.49904 7.38473 0.773624 -0.717535 0.24641 0.651479
1.05669 4.84341 -1.57398 0.0327753 -0.0342654 -0.998875
2.81115 7.77843 0.535601 0.998989 -0.0448555 -0.00306236
-1.8747 4.25315 -1.44305 -0.991748 -0.125354 -0.0268659
-2.3572 8.81928 -1.35952 -0.995887 -0.0863398 -0.0274559
-0.454202 3.54863 -3.61957 -0.208521 -0.136885 -0.968391
0.989532 7.3559 -4.51315 -0.111741 -0.0920289 -0.989467
-1.2947 8.01682 1.67377 -0.21166 -0.0388273 0.976572
1.71588 4.36965 1.15416 0.327382 -0.00922987 0.944847
0.26508 8.55854 1.70489 0.229756 -0.0446273 0.972225
-2.39055 7.48449 0.944472 -0.96957 0.0452066 0.240605
-0.259767 8.47023 1.81822 0.120268 -0.0266295 0.992384
2.27579 8.25711 0.924338 0.313128 -0.00121664 0.94971
-1.42089 5.85848 1.55748 -0.294167 -0.0459374 0.954649
-1.33 3.71415 1.48207 -0.267782 -0.0393656 0.962675
-1.38665 7.01969 1.63398 -0.281374 -0.0487894 0.958357
1.1398 8.26101 1.45908 0.435341 0.0156422 0.90013
0.820545 5.68381 1.49165 0.344816 0.00111298 0.93867
1.19433 3.3653 -4.20202 -0.191661 -0.0905777 -0.977273
0.255265 5.43178 1.68465 0.118975 -0.0317849 0.992388
1.42304 7.77769 1.25527 0.516175 -0.0047491 0.85647
-2.38397 8.25902 1.24601 -0.718533 -0.0587872 0.693004
-1.85303 3.12164 -0.377676 -0.989932 -0.0542586 -0.130731
0.128396 9.66321 1.78422 0.196696 -0.0259108 0.980122
2.22987 6.02509 -2.77198 -0.344248 0.0677838 0.936429
-2.36102 8.14787 0.301492 -0.992606 -0.0729438 -0.0970174
-0.441574 8.29707 -4.05723 -0.233638 -0.09415 -0.967755
-0.146338 3.66517 1.62549 -0.018907 -0.00253586 0.999818
-3.79137 6.05957 -0.0260995 -0.996915 -0.044442 -0.0646921
-1.52994 3.22126 -3.46007 -0.300995 -0.190416 -0.934422
-0.371229 8.39495 1.83084 0.0414528 -0.0163505 0.999007
0.484789 5.21122 1.62959 0.244263 -0.0349464 0.969079
0.710124 9.74097 1.62268 0.347341 -0.0066929 0.937715
-1.74024 4.19087 1.33513 -0.392083 -0.0339611 0.919303
-1.91633 4.63361 -1.82748 -0.99874 -0.0427496 -0.026292
-2.3622 8.38027 1.27603 -0.69031 -0.055211 0.721404
-1.94724 6.04749 1.38862 -0.473298 -0.031015 0.880356
1.72765 7.73168 1.08902 0.407112 0.0131553 0.913283
-3.6877 5.68583 -0.712129 -0.980256 -0.116711 -0.159615
0.170905 9.10478 1.75814 0.21294 -0.0272491 0.976685
-1.26866 3.35813 1.47472 -0.265451 -0.146715 0.952896
-0.480166 4.83873 1.64027 -0.0661562 -0.0509659 0.996507
1.63921 8.15893 1.12357 0.463872 -0.00280997 0.885898
2.74582 5.99614 0.50284 0.998101 0.0393379 -0.047397
2.84204 8.79593 0.603629 0.512361 0.0544654 0.857041
-0.241691 7.82726 1.79403 0.157947 -0.037629 0.98673
-0.0702617 7.98886 -4.14139 -0.294065 -0.0950288 -0.95105
-2.36326 7.9456 1.2415 -0.656063 -0.0635247 0.752028
0.954521 7.07453 1.47921 0.344111 -0.0434339 0.937924
0.588307 9.51546 1.66292 0.323559 -0.00719558 0.946181
1.07502 3.31923 1.38948 0.371667 -0.117635 0.920883
2.02136 2.99382 -2.72652 -0.42489 0.014661 0.905126
-2.34048 9.24909 -2.70948 -0.995998 -0.0648152 -0.0615398
-1.6729 2.66469 -2.27295 -0.991337 -0.113153 -0.066689
-0.456241 4.89946 -3.74666 -0.183931 -0.0455131 -0.981885
-0.789703 5.19691 1.62911 -0.10503 -0.10079 0.989348
1.20639 4.64742 1.33874 0.344447 -0.0357819 0.938124
0.839637 7.34841 1.54342 0.317992 -0.0153458 0.947969
-2.36865 8.98633 -1.50509 -0.994573 -0.0949884 -0.0424582
-1.80694 2.75255 -0.47946 -0.983587 -0.10991 -0.143096
-1.5564 6.25953 1.53558 -0.320463 -0.0385161 0.946478
-1.94283 5.01601 -2.73157 -0.934192 -0.322858 -0.151815
-2.01721 4.31855 -0.275239 -0.987325 -0.107817 -0.116472
2.44225 4.72316 0.921852 0.377822 0.0274169 0.925472
-0.00255761 5.09504 -3.90247 -0.308711 -0.122798 -0.943196
-0.147695 9.06939 1.82397 0.118198 -0.0270113 0.992623
1.72463 9.21371 1.08776 0.461822 0.00126141 0.886972
-0.474704 7.70974 -3.9598 -0.23435 -0.116012 -0.965205
0.0296814 6.39006 -4.03175 -0.303635 -0.078537 -0.949546
1.02217 9.32939 -1.64539 0.528021 0.0544387 0.847485
2.55624 4.51433 0.887014 0.426024 -0.00631023 0.90469
-1.9569 3.98873 -0.0573036 -0.985003 -0.149416 -0.0862743
-2.46412 9.21608 -0.0451633 -0.999458 -0.032557 -0.00479686
1.98197 6.83662 -2.87705 -0.399444 0.018394 0.916573
-1.94498 5.39523 1.34948 -0.449768 -0.0660344 0.890701
-2.07913 4.78633 -0.196662 -0.990852 -0.07295 -0.113534
-0.224154 6.25699 1.70131 0.00813167 -0.0403505 0.999152
-0.709621 2.71866 1.23577 -0.117764 -0.6854 0.718581
1.5959 9.03602 1.1568 0.490938 0.00379683 0.871186
-0.929332 6.28934 -3.79689 -0.184236 -0.121486 -0.975345
1.28455 8.08901 1.3683 0.5306 -0.0207501 0.847368
0.286865 9.36979 1.74803 0.206491 -0.0380611 0.977708
-3.75675 7.56684 -1.50019 -0.99272 -0.103909 -0.0609029
-3.46494 5.16505 -2.61097 -0.985107 -0.138326 -0.102123
0.276027 8.05214 1.68888 0.196728 -0.0457851 0.979389
2.74206 6.30482 0.50642 0.990587 -0.0135862 -0.136208
-0.455153 5.98293 1.70163 0.0207837 -0.0459798 0.998726
-1.25167 6.00303 -3.71611 -0.155298 -0.114036 -0.981264
0.947904 7.12074 1.48623 0.345983 -0.0475647 0.937034
-3.64139 6.07862 -1.15077 -0.987991 -0.103025 -0.11515
0.337894 8.26722 -4.27928 -0.333396 -0.0904279 -0.93844
-1.86068 3.00651 -0.305793 -0.990601 -0.0564029 -0.124612
-2.11283 4.06093 1.0778 -0.942531 -0.0707624 0.326541
2.36074 6.66669 -2.74156 -0.338042 0.0213816 0.940888
1.97186 9.42907 0.976125 0.407778 0.033576 0.912464
-0.0814361 8.36716 -4.16071 -0.277518 -0.0839635 -0.957044
-1.07212 3.02818 1.42364 -0.203892 -0.477492 0.854652
0.170299 7.05297 -4.1267 -0.335121 -0.0602776 -0.940245
-2.43399 8.72875 0.291643 -0.995159 -0.0962086 -0.0200376
-1.91739 4.641 -1.97295 -0.998575 -0.0494769 -0.0199846
-0.0821503 6.86315 1.70783 0.150184 -0.0344067 0.988059
-1.16758 5.13031 1.58686 -0.195065 -0.0964453 0.976037
-1.44875 9.35915 1.72298 -0.277384 -0.0332354 0.960184
-1.87236 6.09249 -3.52938 -0.477604 -0.152782 -0.865189
-1.02754 7.91054 -3.88997 -0.198198 -0.108511 -0.974137
-2.45372 9.68082 -0.546699 -0.99764 -0.0416217 -0.0546142
-2.41606 8.67647 -0.443922 -0.990624 -0.119828 -0.0656114
0.467875 9.72506 1.70817 0.294234 -0.0108347 0.955672
0.654131 4.39148 1.55226 0.275572 -0.0253676 0.960946
2.07755 8.26931 0.973418 0.299413 -0.00196611 0.954122
-1.83925 2.6834 -0.248994 -0.985784 -0.106988 -0.129554
0.943032 3.37315 1.44628 0.381519 -0.0791256 0.920968
0.063708 4.77675 1.64801 0.0381556 -0.0164994 0.999136
1.61592 8.70385 1.16304 0.494468 -0.000774706 0.869195
-1.87625 6.94949 1.46854 -0.405948 -0.0526719 0.912377
-3.6241 5.94331 -1.18013 -0.987034 -0.109748 -0.117131
-2.27451 7.18443 1.26917 -0.654341 -0.0221418 0.755875
-0.599284 3.847 1.59552 -0.150058 -0.0226959 0.988417
-0.903826 4.63217 1.57314 -0.143095 -0.0662572 0.987489
-0.181742 8.73711 1.81399 0.132579 -0.0428634 0.990245
-3.72625 7.61736 -2.30233 -0.992851 -0.113815 -0.0359593
0.289245 4.02036 -3.8673 -0.30892 -0.046892 -0.949931
-1.17093 8.28038 1.71333 -0.208013 -0.0827131 0.974623
-0.366093 4.74115 -3.758 -0.177238 -0.0559287 -0.982577
0.20741 7.14065 1.68428 0.158891 -0.0144276 0.987191
0.0708961 7.32242 1.70551 0.181353 -0.0274035 0.983036
-2.20672 5.09171 0.770289 -0.988768 -0.11561 -0.0947249
-2.27215 5.51465 0.627619 -0.909262 -0.366399 0.19747
-0.4962 8.33522 1.82907 -0.0545511 -0.0149855 0.998399
-1.83743 3.59642 -1.64494 -0.995775 -0.0799991 -0.045087
-1.7845 3.36012 -1.94255 -0.988067 -0.116814 -0.10039
-2.06431 3.60197 1.14858 -0.885617 -0.079239 0.457606
2.82098 8.23953 0.632132 0.826195 -0.0216042 0.562971
-1.90633 9.36326 1.56639 -0.385001 -0.044405 0.921847
0.142093 7.36871 1.69403 0.180757 -0.0187195 0.98335
-1.4984 5.55626 1.51629 -0.31324 -0.0617251 0.947666
-0.16855 3.84364 1.61834 -0.0128748 -0.00195581 0.999915
-3.01045 5.81004 -3.18707 -0.111802 -0.308328 -0.944687
1.01242 9.07911 1.48104 0.404848 0.00373179 0.914376
-0.548705 4.21006 1.61483 -0.0918824 -0.00825278 0.995736
-1.31727 5.70932 1.58601 -0.279495 -0.053359 0.958663
-0.127816 4.01047 1.62215 -0.0026722 -0.0240498 0.999707
2.46434 3.52259 0.905804 0.394014 -0.0192455 0.918903
0.0626809 7.58828 1.71358 0.200199 -0.0139539 0.979656
1.30846 3.59809 -4.21485 -0.11536 -0.0826357 -0.98988
1.20789 5.20404 -4.43296 -0.365669 -0.097831 -0.925589
-0.910196 3.52414 1.54923 -0.17018 -0.0419419 0.98452
-1.34573 3.19235 -3.49094 -0.18845 -0.21412 -0.958457
-2.1095 3.74285 1.06325 -0.933636 -0.053735 0.354171
-0.6728 9.16965 -4.07465 -0.202767 -0.0606905 -0.977344
-1.82962 8.65755 -3.83268 -0.258384 -0.0637261 -0.963938
0.975568 9.70083 1.51369 0.421063 0.00051242 0.907031
0.955612 3.08039 -4.08926 -0.344753 -0.141737 -0.927931
0.620164 3.43852 1.57884 0.196122 -0.0891835 0.976515
-0.324065 8.16025 1.82911 0.0875265 -0.024372 0.995864
1.08246 3.89802 1.37497 0.339981 0.0155906 0.940303
1.55227 3.24474 1.18857 0.320411 -0.178926 0.930227
-1.13507 3.43683 1.51388 -0.208447 -0.0922808 0.973671
0.0584777 8.78086 1.77438 0.186465 -0.0683498 0.980081
-2.16407 6.61716 1.28513 -0.649043 -0.0996344 0.754199
0.473418 4.39327 1.58276 0.177789 -0.0454388 0.983019
-1.83527 4.29193 -2.47463 -0.990514 -0.129727 -0.0453167
-3.85537 7.50217 -0.628684 -0.979518 -0.170953 -0.106398
-1.21856 8.98283 1.76529 -0.212244 -0.0380916 0.976474
-0.399714 6.36092 -3.9081 -0.218224 -0.0931205 -0.971446
2.33261 5.54849 0.924691 0.384388 0.0248846 0.922836
-0.909067 5.48196 1.65357 -0.122884 -0.0855888 0.988723
-1.679 5.3096 1.43882 -0.346735 -0.0832215 0.934264
-0.419241 8.05139 1.83234 0.00791888 -0.0325256 0.99944
2.01151 5.78033 1.01996 0.356626 0.00874804 0.934206
-1.84075 3.29489 1.2627 -0.464521 -0.227192 0.855923
-2.42316 8.64651 0.380553 -0.99466 -0.0963009 -0.0371168
0.553273 8.74702 1.63741 0.253282 -0.0476031 0.966221
-0.260692 5.82317 1.68607 -0.00373452 -0.0396547 0.999206
1.44315 4.02799 1.24325 0.370343 0.00785913 0.928862
1.05696 6.2392 1.41916 0.353413 -0.0236528 0.935168
-0.231817 7.29592 1.77838 0.168834 -0.0402889 0.984821
-1.21487 3.10276 1.42859 -0.240756 -0.395273 0.886451
1.853 6.5353 1.06159 0.353783 0.00935178 0.935281
-1.90044 3.71859 -0.635013 -0.971188 -0.177285 -0.159262
-1.78578 8.89554 -3.85464 -0.244681 -0.0587309 -0.967823
-2.15833 4.33168 0.969359 -0.984885 -0.0633157 0.161221
-2.42798 7.10329 -3.24789 -0.260465 0.253804 -0.931526
0.0701754 7.27303 -4.09964 -0.3322 -0.0657244 -0.940916
-0.918191 4.99815 1.59198 -0.124369 -0.0821639 0.988828
-0.807294 3.16955 -3.52821 -0.155166 -0.188326 -0.969772
1.1338 3.64301 1.36959 0.345574 0.00535823 0.938376
0.128982 7.97978 -4.19957 -0.302418 -0.0851021 -0.949369
-1.56675 5.74247 -3.64501 -0.264113 -0.0774734 -0.961375
0.562935 7.66661 1.60987 0.244468 -0.000557126 0.969657
1.45815 5.97204 1.2485 0.416162 0.0411917 0.908357
-3.76729 6.04107 -0.377813 -0.99158 -0.0496301 -0.11961
-3.66648 6.77583 -1.60222 -0.991716 -0.0908683 -0.0907875
0.902811 5.56537 -4.29791 -0.413491 -0.0642667 -0.908237
-1.54039 4.01663 -3.4986 -0.373169 -0.0383494 -0.92697
0.873711 2.79864 1.19531 0.213766 -0.642793 0.735609
-0.830254 3.6594 1.55513 -0.168769 0.00387149 0.985648
1.45801 9.20856 1.2509 0.510347 -0.0170983 0.859799
-1.90994 3.96923 -0.806243 -0.961248 -0.110528 -0.252558
-1.07778 7.71985 1.70629 -0.174368 -0.0284359 0.98427
-1.48004 5.32597 -3.63073 -0.171344 -0.0739862 -0.982429
-2.3163 5.47412 0.526816 -0.638814 -0.566398 0.520682
-3.61007 5.74462 -1.10129 -0.982518 -0.117292 -0.144571
-2.4644 8.5042 0.870192 -0.997387 -0.0687289 -0.022251
-1.88305 4.3136 -1.31598 -0.988936 -0.14729 -0.0176496
-1.57456 3.68826 -3.47575 -0.39919 -0.0677263 -0.914364
-1.07685 4.70412 1.55866 -0.17043 -0.0524361 0.983974
-2.84988 5.92115 -3.22118 -0.0960689 -0.290946 -0.951904
1.092 4.25371 -1.55446 -0.00783362 -0.00363795 -0.999963
0.0925776 7.89886 1.71037 0.196931 -0.0409039 0.979564
1.32449 5.36046 1.31425 0.355944 -0.0328152 0.933931
-2.00911 2.93264 0.60503 -0.975959 -0.181572 -0.120561
1.28159 8.32311 1.37238 0.509284 0.0130943 0.860499
0.0823371 6.17226 1.70666 0.0705567 -0.00443882 0.997498
-0.248288 8.52591 -4.12789 -0.265586 -0.0855644 -0.960283
-0.341826 4.15243 1.62126 -0.0495039 -0.015715 0.99865
-1.47679 5.26522 1.50414 -0.324927 -0.0797712 0.942369
-1.77744 3.53492 -2.16368 -0.988478 -0.119359 -0.0930857
1.10852 5.51883 -4.40305 -0.379857 -0.0608028 -0.923045
-0.471312 9.02911 -4.10595 -0.230111 -0.0638468 -0.971068
-2.13353 9.39717 1.46269 -0.473342 -0.0367757 0.88011
2.16489 3.40368 1.01473 0.313538 -0.0340081 0.948967
0.232944 3.2262 1.56818 0.105756 -0.275329 0.955515
-1.41907 4.22294 1.46119 -0.3151 -0.0240919 0.948753
-2.28459 6.52207 1.11308 -0.722393 -0.102575 0.683832
-0.304905 6.44042 1.71722 0.0436184 -0.0796864 0.995865
1.12703 2.87491 1.18295 0.28033 -0.605684 0.744689
-0.474446 8.20571 1.83147 -0.0446015 -0.021889 0.998765
-1.29973 7.52471 -3.79144 -0.174089 -0.0979014 -0.979851
0.482142 9.43665 1.70272 0.290006 -0.016772 0.956878
-2.2743 9.51704 1.39848 -0.544861 -0.0163906 0.838366
-3.7968 5.8164 0.0801291 -0.997021 -0.0454187 -0.0623327
-2.2547 6.01126 -3.28403 -0.282646 -0.258159 -0.923832
1.01109 5.07707 -1.57834 0.0114835 -0.0237012 -0.999653
0.854785 4.23387 -4.14603 -0.384085 -0.0376732 -0.922529
-0.0819858 6.28904 1.70667 0.0301749 -0.0186717 0.99937
-1.77491 3.0364 1.19691 -0.408338 -0.430019 0.805198
-0.865251 4.17151 1.56123 -0.163509 -0.0397819 0.985739
-1.3454 9.6178 1.75955 -0.242355 -0.0122535 0.97011
1.40206 9.15459 1.28294 0.502899 -0.019494 0.864125
-2.33062 7.50958 1.22075 -0.820781 -0.0426642 0.569648
-0.523054 4.28648 1.61264 -0.0857114 -0.00817935 0.996286
-0.25246 6.77496 1.74523 0.134165 -0.0553524 0.989412
1.19251 7.00558 1.39299 0.417271 -0.00897536 0.908738
1.74999 8.1989 1.06969 0.410563 -0.00313842 0.911827
1.54475 3.16435 1.17631 0.307573 -0.250882 0.917855
2.68332 6.97773 0.205665 0.963489 -0.0348946 -0.265465
-0.258949 4.9149 -3.7861 -0.230831 -0.0816392 -0.969563
-0.0382772 9.16527 1.80612 0.164193 -0.0218722 0.986186
-0.12164 6.43471 1.71064 0.0607106 -0.0354296 0.997526
-2.52194 9.21199 1.04242 -0.991988 -0.0592135 0.111599
-2.45923 8.41683 0.884405 -0.997658 -0.0657778 -0.0187554
0.446755 4.73419 -3.9807 -0.310298 -0.136059 -0.940852
2.73477 6.47908 0.464188 0.983264 -0.0338319 -0.179015
-3.75912 7.22954 -0.931593 -0.987032 -0.124218 -0.101674
2.46316 7.25181 0.831671 0.462706 0.0111768 0.886441
-0.789921 8.64872 -4.02547 -0.195644 -0.0787623 -0.977507
1.00971 7.9781 -4.56098 -0.382768 -0.0840371 -0.920014
0.408896 3.22727 1.55071 0.103675 -0.284584 0.953029
0.937217 7.5472 -4.51229 -0.249022 -0.0965743 -0.963671
-0.76534 4.00043 1.56886 -0.174188 -0.0465795 0.98361
-1.92013 3.47511 0.0614372 -0.9916 -0.0936822 -0.089182
-3.79885 6.67517 -0.240791 -0.992214 -0.0573874 -0.110535
0.617975 3.14752 -3.92262 -0.346681 -0.136173 -0.928046
0.974958 9.74554 1.5136 0.420593 0.00493304 0.907236
-2.43905 8.84013 0.499462 -0.997165 -0.063663 -0.0401234
-3.53465 5.77615 -2.50533 -0.993433 -0.0963862 -0.061641
-3.80474 6.46127 -0.103951 -0.993933 -0.0592517 -0.0926681
-1.73578 2.89124 -1.88427 -0.987246 -0.141204 -0.0735301
1.72499 3.07948 1.10003 0.261921 -0.322569 0.909586
0.711296 4.97621 -4.12197 -0.388404 -0.14282 -0.910354
-3.53608 5.82559 -2.57578 -0.992328 -0.0991774 -0.0738118
-2.33548 6.9832 1.16629 -0.772896 -0.0535874 0.632266
-0.218124 6.63342 1.73329 0.103419 -0.0564884 0.993033
-2.03277 4.44686 -0.215735 -0.986511 -0.105533 -0.125134
1.17571 2.82271 -4.12112 -0.306775 -0.16206 -0.937884
-3.77826 6.81547 -0.440274 -0.991293 -0.0638641 -0.115149
-1.8191 8.53552 -3.82939 -0.253105 -0.0650422 -0.96525
-1.87104 4.55593 -2.52879 -0.988357 -0.143472 -0.0506617
-1.85791 2.96276 -0.312206 -0.989582 -0.0643948 -0.128763
0.570205 5.18092 1.60347 0.293624 -0.0202604 0.955706
0.442194 5.63678 1.64867 0.25255 -0.0048294 0.967572
-2.36862 6.87275 1.07056 -0.758269 -0.0576281 0.64939
-2.4396 9.47273 -0.578078 -0.997313 -0.0486186 -0.0548066
2.0207 4.21989 1.06451 0.293397 -0.00993995 0.955939
-0.632814 8.27152 1.80804 -0.125453 -0.0284373 0.991692
-1.3367 6.03382 -3.71143 -0.175548 -0.106436 -0.9787
0.270423 2.74402 1.25931 0.105953 -0.630286 0.769099
-3.84394 7.31415 -0.153038 -0.981227 -0.137878 -0.134849
-0.31976 5.8057 1.68554 0.00395831 -0.0423952 0.999093
-1.8471 3.92505 -0.950068 -0.971387 -0.127308 -0.200499
-2.39678 7.74964 0.594932 -0.998457 0.0471644 0.0293113
2.56952 6.92919 0.78659 0.50422 0.0195922 0.863353
-1.16329 7.07519 1.70458 -0.216517 -0.0377174 0.97555
-0.579931 6.06014 -3.83472 -0.214824 -0.117615 -0.969545
1.17078 3.44155 -4.20456 -0.192737 -0.0908491 -0.977036
-3.65309 7.31404 -2.88469 -0.989918 -0.0920252 -0.107677
-0.272413 7.17498 1.78224 0.159622 -0.050125 0.985905
-2.42581 8.33655 0.703094 -0.993625 -0.0699426 -0.088412
-2.11833 5.92298 1.28729 -0.627853 -0.0422602 0.777184
-2.19511 5.99459 1.19952 -0.781014 -0.0509483 0.622431
-0.630265 5.10685 1.63645 -0.108557 -0.0775994 0.991057
-2.1273 8.1131 1.3971 -0.490425 -0.0507817 0.870003
2.32482 6.29507 0.913912 0.399368 0.0365638 0.916061
0.102622 4.46246 1.63723 0.0843151 -0.0461689 0.995369
-1.88255 4.43957 -0.939011 -0.984721 -0.153911 -0.0814633
0.728671 7.17343 1.57152 0.302299 -0.0432428 0.952232
-1.88829 5.6533 -3.47018 -0.611087 -0.12563 -0.78153
-3.43492 4.98575 -1.94219 -0.990954 -0.133755 0.0109814
-2.45864 9.11666 0.0157445 -0.9991 -0.0419746 -0.00610467
-2.28044 8.41606 -2.50664 -0.990494 -0.0857932 -0.107526
-2.30101 7.97009 1.29208 -0.605463 -0.0592926 0.793662
1.3157 7.73261 1.33116 0.517124 -0.010799 0.855842
-0.424498 6.19119 -3.88422 -0.22203 -0.106866 -0.969166
2.05887 8.69216 0.962206 0.356924 0.0219218 0.933876
-2.44118 8.10671 0.869708 -0.997788 -0.0613295 -0.0256354
-2.09763 6.33432 1.30643 -0.603925 -0.0595138 0.794816
1.00524 5.91956 1.4345 0.32315 0.0039835 0.946339
1.24354 6.36172 1.34439 0.426887 -0.0172675 0.90414
-2.10675 5.48838 1.26706 -0.588142 -0.05412 0.806945
0.499717 8.80141 1.65373 0.257509 -0.0567064 0.964611
-1.84671 4.22716 -2.91238 -0.989521 -0.114431 -0.0880568
1.40868 3.68117 1.26973 0.375541 -0.0155451 0.926675
1.18868 6.83667 1.39925 0.414863 -0.0080527 0.909848
0.316415 7.48253 -4.20254 -0.344681 -0.0761249 -0.935628
1.60903 7.81505 1.14757 0.460058 0.00301242 0.887884
-1.20982 4.76732 1.53605 -0.225467 -0.0615639 0.972304
-2.11368 4.32381 0.600213 -0.987953 -0.0769759 -0.134253
1.12896 5.4316 -4.4109 -0.376214 -0.0660564 -0.924175
-1.27065 7.21785 1.6775 -0.24871 -0.0167648 0.968433
2.35182 6.13158 -2.73498 -0.340547 0.0555132 0.938587
2.548 7.14927 0.783168 0.494996 0.0184608 0.868699
1.04788 7.46317 1.47125 0.374715 -0.0150141 0.927019
1.60447 8.55718 1.16281 0.49615 -0.0229689 0.867933
-2.82247 6.60378 0.827297 -0.344202 -0.0273958 0.938496
-3.66614 6.07558 -0.956144 -0.986293 -0.0854686 -0.141144
0.241908 6.99866 1.67909 0.15121 -0.0212328 0.988274
