-1.02715 4.67406 1.57319 -0.123022 -0.03792 0.991679
-1.83314 6.42722 -3.64275 -0.313403 -0.198971 -0.928541
0.368966 5.04876 1.63201 0.122793 -0.0723096 0.989795
-2.02794 6.76063 -3.60657 -0.695048 -0.0363727 -0.718042
-1.83594 4.26343 -2.93758 -0.991319 -0.131155 -0.00921179
-1.84342 4.98785 -1.96012 -0.986551 0.158964 0.0380344
-1.28545 8.10095 1.66836 -0.201051 -0.0201901 0.979373
-2.04968 3.92423 0.551461 -0.972445 -0.0578901 -0.225829
-0.921008 4.18912 1.55397 -0.145295 -0.0682803 0.98703
-2.04923 8.7205 1.43793 -0.495668 -0.073468 0.865399
-1.4362 3.81261 1.44045 -0.434927 -0.0637835 0.898204
-1.83155 3.5304 1.29942 -0.353648 -0.127346 0.926669
0.934103 9.12965 1.50161 0.345089 0.038561 0.937777
-3.90821 7.6974 -0.522069 -0.987719 -0.131858 -0.0838115
0.182121 7.23463 1.68228 0.146134 0.0166119 0.989125
-2.36103 8.33746 -0.146991 -0.984811 -0.171903 -0.0244453
-1.8367 7.36567 1.4836 -0.433343 0.00961578 0.901178
-3.73753 7.80389 -2.41198 -0.998325 -0.0281878 -0.0505156
1.2851 3.35504 1.3058 0.406984 -0.140847 0.902511
-3.51049 5.50762 -2.52624 -0.996558 -0.0692041 -0.045639
0.229672 5.27065 1.67654 0.0738683 -0.104045 0.991826
0.0678605 8.62052 1.75086 0.173387 -0.153554 0.972809
-2.53834 9.49923 0.994804 -0.99898 -0.0274644 0.0358447
-3.51758 6.84203 0.571752 -0.37008 0.111751 0.922254
0.983392 2.77938 1.10897 0.221245 -0.778983 0.586716
-1.18527 4.6927 1.52969 -0.243989 0.0200421 0.969571
-0.185425 8.93264 1.81262 0.145658 -0.0625092 0.987358
1.14581 3.7533 1.35882 0.276925 0.0214812 0.960651
-1.89274 5.01006 -3.38939 -0.71556 -0.182224 -0.674365
2.37361 8.04715 -2.75297 0.599034 -0.00938624 0.800669
1.04555 6.39632 1.42766 0.328725 -0.0664963 0.942082
-2.02507 3.41768 1.1436 -0.77827 -0.16301 0.606402
-3.61434 5.24207 -0.826528 -0.969202 -0.239835 0.055922
-1.8701 7.47152 -3.71659 -0.353631 -0.109565 -0.928946
-0.223471 5.93034 -3.89734 -0.290653 -0.0868533 -0.952879
-0.867142 8.51975 1.77862 0.0178637 -0.0894187 0.995834
-0.575396 2.86345 -3.51295 -0.165953 -0.353269 -0.920685
-1.4327 6.41607 1.57234 -0.369388 -0.0303663 0.928779
-0.122832 6.65332 1.72565 0.183795 0.0137531 0.982868
-3.63041 6.40741 -1.6303 -0.95853 -0.0911254 -0.270029
-3.43243 5.10573 -1.62386 -0.965553 -0.260082 -0.00809421
-0.290029 4.98766 -3.77499 -0.257869 -0.0453918 -0.965113
-2.35363 5.54185 -3.06497 -0.0901551 -0.617906 -0.781066
-2.16513 7.64325 1.3205 -0.459625 -0.0715134 0.885229
-0.623998 4.42661 -3.72157 -0.128525 -0.0761295 -0.98878
2.60169 6.29394 0.760131 0.496389 0.0546639 0.866378
0.951607 9.04186 1.50688 0.35406 0.0829475 0.931537
-0.0155259 8.45661 1.74516 0.238171 -0.0376696 0.970492
-0.723635 5.95728 1.71999 -0.16854 -0.091688 0.981421
-0.327237 3.18394 1.57167 -0.0322291 -0.290248 0.956408
-1.79967 6.10476 -3.56689 -0.459112 -0.141082 -0.877104
-1.34865 5.5796 1.56256 -0.328726 -0.0502417 0.943088
1.37304 2.75157 -4.02527 0.599895 -0.277142 -0.750545
-0.757428 5.65951 1.68139 -0.0879328 -0.0885893 0.992179
-2.43651 7.09262 0.950308 -0.84809 0.0309877 0.528945
-0.220343 5.66684 -3.88564 -0.36144 -0.0745358 -0.929411
2.00167 4.60821 1.05434 0.221773 0.0355203 0.974451
0.37757 8.39101 1.68828 0.288895 0.00169707 0.957359
-3.68958 6.63103 -1.46422 -0.965942 -0.0483363 -0.254205
2.80711 7.35284 0.586803 0.988075 0.0115373 -0.15354
-2.0913 6.21349 1.30273 -0.552808 -0.0258132 0.832909
-1.06905 5.87891 -3.70213 -0.112533 -0.144804 -0.98304
0.528289 8.92987 1.65803 0.207534 -0.0723739 0.975547
-3.87409 7.29002 0.0208099 -0.971419 -0.109692 -0.210506
0.360889 7.68053 -4.26062 -0.268091 -0.134303 -0.953986
-2.36213 7.62385 1.19081 -0.868343 -0.104494 0.484831
-3.94505 7.68772 -0.118488 -0.959686 -0.256733 -0.114415
-1.00063 2.93076 1.35082 -0.24316 -0.582127 0.775887
-1.73168 5.84918 1.46803 -0.341591 -0.0864029 0.935869
0.322647 7.47766 1.66445 0.195367 -0.00225805 0.980728
-2.31715 9.26147 -2.86431 -0.994832 0.00319989 -0.10148
-2.44234 8.80968 0.00390663 -0.990402 -0.127494 -0.0533825
0.513483 4.18384 1.55424 0.126969 -0.00339876 0.991901
-3.7491 7.90208 -1.86565 -0.989708 -0.0904817 -0.110868
-1.27214 4.68857 1.50449 -0.25528 -0.0225155 0.966605
-0.722826 3.73326 1.56215 -0.193374 0.070318 0.978602
-1.65324 2.75737 -3.00769 -0.935558 -0.275739 -0.220681
-0.0603906 7.69913 -4.10221 -0.30316 -0.169875 -0.937676
0.807929 6.90304 1.52426 0.38956 0.0242335 0.920682
0.0570952 6.51343 -4.05762 -0.34522 -0.0981648 -0.933374
-1.89437 3.93007 1.25566 -0.501006 -0.0200261 0.865212
-2.3068 9.033 -2.98547 -0.996551 -0.0368673 -0.0743424
-3.793 7.52574 -1.084 -0.97524 -0.0918059 -0.201193
2.07703 4.1471 1.05722 0.20673 0.00254258 0.978395
-1.31652 9.6891 1.7648 -0.241934 0.0623535 0.968287
-2.06393 4.16382 0.347067 -0.993554 -0.0881753 -0.0712362
-1.94252 3.97056 -0.299578 -0.991162 -0.132487 0.0066422
0.0939506 2.74781 -3.66559 -0.320955 -0.30804 -0.8956
-2.36984 7.561 1.11527 -0.960237 -0.110728 0.256291
-1.44586 8.26789 1.65437 -0.185366 -0.0356032 0.982024
-2.41173 8.03495 1.14388 -0.934669 -0.0492689 0.352087
0.355871 3.79866 1.60295 0.144346 0.002354 0.989525
0.658495 3.80896 1.55135 0.258292 0.0617697 0.96409
-1.78504 7.15718 1.50674 -0.422192 -0.0379276 0.905713
0.588479 6.56423 1.58906 0.301373 -0.0120274 0.953431
-0.588352 4.95637 -3.72795 -0.141467 0.0313145 -0.989448
-0.322656 5.89112 -3.86188 -0.257497 -0.0973514 -0.961363
0.466156 6.97958 1.62939 0.257496 -0.0174227 0.966122
-2.08249 4.95733 0.297934 -0.99883 -0.0360745 0.0322058
0.358775 7.09293 1.66228 0.203172 -0.00974181 0.979095
-3.82191 6.19869 0.275754 -0.991539 -0.103533 -0.0783044
2.20369 3.15274 -2.62603 0.452937 0.0193847 -0.891332
-2.02373 6.11528 -3.40262 -0.581258 -0.176964 -0.794243
-1.93561 6.52828 1.40311 -0.392793 -0.0897125 0.91524
0.135616 2.94073 -3.74327 -0.320685 -0.251869 -0.913084
-0.445897 3.52787 1.61298 -0.00806992 0.0176129 0.999812
-2.37835 8.12867 0.508916 -0.991805 -0.0784608 -0.100829
-0.470335 9.03366 -4.10441 -0.211551 -0.0495004 -0.976113
-1.88524 3.8838 -0.820161 -0.916166 -0.170935 -0.36252
-3.38966 6.54247 -3.23696 -0.463983 0.045999 -0.884649
-0.419081 7.69536 1.81508 0.0548468 0.00392641 0.998487
-1.83464 4.78007 -3.40262 -0.720187 -0.221714 -0.6574
-0.677233 5.6684 1.68576 -0.0361726 -0.113831 0.992841
-1.87114 8.34758 1.53509 -0.363495 -0.0810374 0.928065
1.37871 3.03163 -4.15929 0.250279 -0.133161 -0.958973
-0.17223 7.12209 1.7408 0.239366 -0.082925 0.967382
-3.60677 6.80849 -2.85184 -0.994904 -0.0796127 -0.0618684
-0.132813 8.11732 -4.14463 -0.270047 -0.0340883 -0.962244
0.140794 6.09804 1.69905 0.0907584 -0.0226634 0.995615
2.66454 3.02188 0.717172 0.965819 -0.250079 0.0682179
-2.08249 3.9021 0.64154 -0.955576 -0.0552215 -0.289525
0.52448 8.59688 1.62831 0.217913 0.019368 0.975776
-1.28113 5.09409 1.56136 -0.22616 -0.117978 0.966919
1.29039 5.31252 1.32181 0.347326 -0.0349429 0.937093
-1.776 3.31719 -0.802161 -0.961972 -0.0509118 -0.268361
-0.360283 8.65294 1.83976 0.0473882 -0.0294384 0.998443
1.70476 9.18218 1.1108 0.517109 -0.00657415 0.855894
-2.05492 8.57483 -3.76515 -0.490973 -0.0546126 -0.869461
0.885322 3.16361 1.43515 0.282867 -0.312415 0.906853
-1.38232 3.76485 1.46353 -0.348644 -0.0555425 0.935608
-1.47914 6.33691 1.5554 -0.339146 -0.0212956 0.940493
-0.0671118 3.54402 -3.75453 -0.260673 -0.0433834 -0.964452
0.16127 5.62451 1.68537 0.0708444 -0.000439156 0.997487
0.1804 7.16183 1.68518 0.133915 0.0259158 0.990654
-3.32594 6.68187 -3.23832 -0.272811 0.140051 -0.951819
-1.8573 3.537 -0.660551 -0.966964 -0.204102 -0.152718
2.18559 9.1457 0.92625 0.255552 -0.00530457 0.966781
-1.73807 3.41669 -2.5213 -0.992682 -0.116596 -0.0314214
-3.78351 7.85586 -1.21246 -0.987236 -0.145467 -0.0648363
1.72896 9.28119 1.08117 0.501983 0.0474368 0.863575
2.79558 8.35523 0.641128 0.655135 -0.00539241 0.755493
1.16821 3.87527 -1.55123 0.00450579 0.0151847 0.999875
-0.764158 5.47574 1.67286 -0.0629094 -0.0777959 0.994983
1.06541 6.06942 1.42474 0.232116 0.0229442 0.972417
1.62708 6.70023 1.15836 0.378419 -0.0196064 0.925427
0.243336 5.6439 1.67643 0.114175 -0.00330769 0.993455
-1.24184 5.9183 -3.71652 -0.0611125 -0.135276 -0.988922
-0.107244 7.36199 -4.04456 -0.382571 -0.08777 -0.919748
-0.490936 3.97702 1.62158 -0.0474974 0.00268787 0.998868
-1.27118 5.26607 1.58435 -0.270823 -0.0424065 0.961695
-2.06344 3.4739 1.09777 -0.893203 -0.113157 0.435182
2.18657 4.45384 1.03034 0.256886 0.0433098 0.965471
-0.684333 4.90186 1.61658 -0.182374 0.0843305 0.979606
1.25384 5.19132 -1.60044 0.0428964 0.0534103 0.997651
0.115682 3.83622 -3.80927 -0.282928 -0.0534386 -0.957651
-0.546461 9.67038 1.85203 0.00706639 -0.0598077 0.998185
0.532044 5.20397 1.61136 0.2696 -0.0187715 0.962789
-0.320449 4.9128 1.64953 -0.0453134 -0.0884086 0.995053
-0.871328 7.61337 1.71618 -0.161508 -0.079768 0.983642
-1.78013 2.78574 0.998014 -0.403781 -0.632425 0.661059
0.550448 6.05923 1.60823 0.34378 -0.0256918 0.938699
0.894829 9.36075 -1.5669 0.493991 0.0810941 0.865677
-0.0797856 6.88675 -4.02662 -0.383772 -0.0163451 -0.923283
-1.56396 6.20038 -3.66882 -0.237327 -0.0974795 -0.966527
-3.63427 5.50693 -0.849766 -0.972228 -0.126399 -0.196969
0.339226 4.49891 -3.93466 -0.354761 -0.0997516 -0.92962
-3.58045 5.15292 -0.833276 -0.969425 -0.220241 0.108211
-2.15773 5.07814 0.521716 -0.954762 -0.148933 -0.257387
0.262211 3.55346 1.60264 0.172996 -0.102208 0.979605
-2.45443 9.08417 0.0978872 -0.999071 -0.0357449 -0.0240797
-0.255651 6.08565 1.69313 -0.0502121 -0.029306 0.998309
-3.6647 5.44559 -0.699554 -0.973344 -0.224384 -0.0474796
-0.493354 4.48041 -3.73677 -0.0901287 -0.0542684 -0.99445
-1.86602 7.09405 -3.67046 -0.304754 -0.0328761 -0.951864
-1.91346 2.77896 0.36312 -0.95544 -0.143772 -0.257805
-1.45151 2.75081 1.07537 -0.211155 -0.665138 0.716243
2.46319 3.96593 -2.58669 -0.714295 0.00106487 -0.699844
0.142015 3.73285 1.63103 0.0277219 0.00471596 0.999605
-1.85332 3.36184 -0.447499 -0.98243 -0.10026 -0.157415
0.67281 3.47593 1.56541 0.243221 -0.00226598 0.969968
-1.7704 2.80814 -0.841109 -0.989911 -0.133095 -0.0486003
-0.562743 3.9537 1.61213 -0.142815 -0.0443735 0.988754
-2.43021 9.47288 -1.84979 -0.967741 -0.248408 -0.0420755
2.72895 3.3628 0.740156 0.991862 -0.115384 0.0538248
-2.00715 5.92716 1.34618 -0.473887 -0.0172558 0.880417
-1.27604 8.26713 1.67103 -0.248995 -0.0654922 0.966288
0.545309 8.59015 -4.41382 -0.37927 -0.0998463 -0.919883
-0.108423 4.73871 1.64761 -0.0109182 0.0341765 0.999356
2.10651 3.13599 -2.69377 0.508352 0.0137509 -0.86104
-1.67449 5.90134 -3.61138 -0.354334 -0.0604331 -0.933164
-1.4833 3.50557 -3.47403 -0.345295 -0.0782232 -0.935229
-0.849413 8.61613 1.78801 0.0453692 -0.0673755 0.996696
-0.258084 2.71977 -3.49435 -0.265306 -0.353363 -0.897077
-0.288063 4.26342 1.62378 -0.137431 0.0022484 0.990509
-2.39196 8.84602 -0.661493 -0.983574 -0.0493859 -0.173615
-0.716206 6.43674 -3.85969 -0.200707 -0.108618 -0.973611
0.833971 4.72271 1.47217 0.434209 -0.0279199 0.90038
0.460031 5.18998 1.62734 0.206848 -0.0561609 0.97676
-2.45034 9.06536 -0.263421 -0.998561 -0.0445158 -0.0299148
-0.636835 7.60431 -3.91325 -0.140318 -0.0571827 -0.988454
-1.37555 7.78251 1.6388 -0.19702 -0.00328452 0.980394
0.589002 5.74071 -4.11365 -0.132492 -0.123911 -0.983408
-0.849697 6.89209 -3.88228 -0.234486 -0.0119375 -0.972046
2.61386 2.88804 0.548243 0.962764 -0.182999 -0.198992
-0.947755 3.18142 -3.49819 -0.122857 -0.172571 -0.977305
1.42732 8.56349 1.27417 0.464531 -0.0133356 0.885457
0.997522 4.88583 -1.59462 -0.171214 0.0473197 0.984097
-0.275455 3.22183 1.58414 -0.0416183 -0.254494 0.966178
0.0874327 7.4294 1.70441 0.182954 -0.0370562 0.982423
-2.07727 4.69132 1.20392 -0.599017 -0.178197 0.780656
0.980812 5.2404 -4.34615 -0.461228 -0.0657092 -0.884845
-1.14479 6.7063 1.67896 -0.0910203 -0.0819641 0.99247
0.624899 4.93152 1.57641 0.273839 -0.0484479 0.960555
-1.80242 3.89287 -2.34863 -0.998733 -0.0340758 -0.0370194
-2.27014 6.74884 1.20872 -0.764456 -0.173126 0.620995
-2.52135 9.5576 0.821533 -0.987703 -0.0328241 -0.152855
-1.83843 3.87688 -0.911546 -0.9299 -0.145885 -0.337644
-1.14633 3.77811 -3.58318 -0.145055 -0.081882 -0.98603
0.216146 4.4214 1.61512 0.153732 -0.048012 0.986946
-0.118891 6.80414 -4.01176 -0.381727 -0.0601241 -0.922317
1.44435 3.80339 -3.27663 0.992443 0.0585419 0.107841
1.39583 3.89179 -2.60269 0.997023 0.0502155 0.0585144
-0.522791 4.80693 1.63873 0.0218668 0.0108539 0.999702
-3.75675 5.61112 -0.149144 -0.979697 -0.133825 -0.149278
-0.490667 3.46649 1.62086 -0.0165439 -0.025884 0.999528
1.1856 4.74326 -1.5595 -0.0176277 0.0436098 0.998893
-2.12645 5.16946 0.352682 -0.947416 -0.265154 -0.179152
-3.70567 7.47609 -2.38063 -0.982556 -0.181391 -0.04099
-1.58883 7.06431 -3.70244 -0.087823 -0.0807171 -0.99286
-3.56792 5.15418 -0.4904 -0.947179 -0.0907795 -0.30759
-3.75564 7.66384 -1.30706 -0.995524 -0.0846775 -0.0419776
-1.28015 3.6032 1.48784 -0.25576 -0.0881912 0.962709
-1.68641 5.19152 -3.59244 -0.292699 -0.0318267 -0.955675
2.18768 4.14936 1.03832 0.325403 0.00543503 0.94556
1.22135 4.98756 1.35061 0.351417 0.0148336 0.936102
1.18803 4.84978 -1.56242 -0.0206366 0.0391946 0.999018
-0.120646 4.80499 1.64223 0.00535271 0.0122894 0.99991
-0.998824 8.2739 1.74865 -0.134752 -0.103421 0.985467
0.911675 5.26141 1.45116 0.349829 -0.052256 0.935355
0.299223 7.07078 1.67395 0.158673 -0.00645381 0.98731
0.548907 9.02861 -4.43601 -0.434537 -0.0308441 -0.900126
0.559412 9.67636 1.67212 0.355093 -0.0644546 0.932606
0.175103 6.59872 1.67614 0.112815 0.0173293 0.993465
-1.36979 3.48249 -0.9926 -0.0520452 -0.0626839 -0.996675
1.31775 7.14645 -2.27979 0.617497 -0.253198 0.744707
0.966492 7.42186 1.49155 0.323373 -0.0112444 0.946205
-2.34996 9.23259 -2.50801 -0.997047 -0.0451643 -0.0621075
0.768845 7.50001 1.55911 0.325128 0.0548836 0.944076
-3.70462 7.67909 -2.65296 -0.991284 -0.0847077 -0.100896
-2.09945 4.74131 0.176432 -0.99811 -0.0315275 0.0527421
-3.63058 6.13675 -1.39444 -0.984996 -0.147674 -0.0892999
0.515967 7.96923 -4.30415 -0.181822 -0.0751243 -0.980458
-0.600875 5.28038 -3.75881 -0.162783 -0.130493 -0.977994
0.375317 5.27205 1.65321 0.210011 -0.0691152 0.975253
-2.23786 5.41042 -2.94373 -0.193053 -0.64956 -0.735392
-0.274205 7.65469 -4.01981 -0.324619 -0.139488 -0.935503
-2.42825 9.3304 -0.669688 -0.997941 -0.0533155 0.0356544
-1.77767 6.76328 1.48293 -0.357767 -0.0686202 0.931286
-1.58045 9.2184 1.6555 -0.419956 -0.0182321 0.907361
-2.52609 6.04651 -3.29451 -0.0410265 -0.257419 -0.965429
2.34909 5.97478 -2.72607 -0.328782 0.072234 0.941639
-2.35434 9.09844 -1.6721 -0.992707 -0.0772439 -0.0925581
-2.2314 5.92101 1.12806 -0.874196 -0.0402631 0.483901
1.11304 4.30575 1.35901 0.340571 0.0209872 0.939984
2.48148 3.59729 -2.60174 0.117802 -0.0501016 -0.991772
-0.0654545 3.1973 -3.73201 -0.324079 -0.158158 -0.932716
1.05387 6.9587 1.43353 0.281463 -7.83771e-05 0.959572
-0.610715 3.82075 -3.64347 -0.11491 -0.18473 -0.976048
-1.86899 4.13036 -0.91837 -0.948518 -0.025956 -0.315657
-0.927015 5.15385 1.61664 -0.0550089 -0.152425 0.986783
0.115299 5.88144 1.6893 0.0555517 -0.0337336 0.997886
0.293141 4.64213 1.6211 0.144693 -0.0920877 0.985182
1.67186 8.41452 1.10827 0.483059 -0.0234338 0.875274
-3.79858 7.16318 -0.501412 -0.992033 -0.0847728 -0.0931838
-3.66408 5.66599 -0.83967 -0.965374 -0.125174 -0.228875
1.21928 8.58272 1.38936 0.489718 0.0603504 0.86979
-2.3419 8.87139 -1.78589 -0.99497 -0.0777753 -0.0631308
-1.0048 3.93451 -3.61699 -0.177104 -0.0693812 -0.981744
-1.8251 7.39936 -3.72025 -0.260939 -0.120309 -0.957829
0.964547 9.20192 1.49263 0.348136 0.0131871 0.937351
0.251019 8.24615 1.71136 0.199983 -0.0901781 0.975641
2.68857 5.22726 0.772581 0.483586 0.089271 0.870733
1.32299 6.28164 1.29914 0.443746 0.00955151 0.896102
-0.825989 4.86951 -3.69347 -0.18913 0.0278425 -0.981557
0.291019 8.0327 1.68284 0.180645 -0.0394382 0.982757
0.0943799 3.3546 -3.77597 -0.231213 -0.0423045 -0.971983
1.39163 5.76274 1.27916 0.382105 0.0373593 0.923363
-1.83473 3.92081 -1.15012 -0.992237 -0.0897636 0.0860759
-1.48475 7.4359 1.61068 -0.189626 -0.0538384 0.980379
0.69638 2.69405 -3.83932 -0.382294 -0.238803 -0.89265
-2.41257 8.7181 -0.135121 -0.977816 -0.208857 0.0159692
-1.65259 6.55007 1.50455 -0.318855 -0.0850901 0.943976
-0.47084 7.17893 1.82593 -0.0133862 -0.0251195 0.999595
-0.703581 8.8822 1.80337 -0.0889433 -0.0639627 0.993981
-0.387234 3.76087 1.61602 -0.0402408 -0.0473183 0.998069
-2.37361 8.37772 0.193656 -0.97496 -0.201678 -0.0936934
-1.97617 4.7396 -1.10112 -0.969921 -0.225491 -0.0916871
-3.65788 6.60133 -1.53594 -0.965434 -0.0505925 -0.255691
0.274799 9.40928 1.749 0.102278 -0.0511094 0.993442
-2.16016 6.49951 -3.39114 -0.45557 -0.0291942 -0.889721
-0.374769 7.21314 -3.94688 -0.150632 -0.0206681 -0.988374
2.36041 6.5012 -2.73853 -0.341374 0.0193987 0.939727
0.678947 4.36319 1.54599 0.261089 -0.0282427 0.964901
-3.51807 5.82352 -2.52634 -0.995207 -0.0687657 -0.0695342
-1.88182 2.88366 -0.0444786 -0.996544 -0.0489564 -0.0671074
0.169418 6.15234 -4.08183 -0.325011 -0.118799 -0.938219
0.670785 4.67034 1.55405 0.354416 -0.00689175 0.935062
-0.876414 6.21231 1.69126 -0.226959 -0.00525308 0.97389
-1.95088 9.2093 1.54238 -0.458464 -0.0535739 0.887097
-1.49518 8.51704 -3.8624 -0.16601 -0.0793885 -0.982923
-3.68 4.98791 -0.309158 -0.93835 -0.0153151 -0.345348
-1.70221 2.70894 -1.7598 -0.97503 -0.222026 -0.00464127
0.669608 3.60191 -3.96121 -0.368013 -0.182267 -0.911781
-3.81118 7.60071 -1.03378 -0.970216 -0.0902996 -0.224783
-3.74497 7.9433 -1.94192 -0.99048 -0.0962142 -0.098452
-1.07686 4.63072 1.56465 -0.154996 -0.0206521 0.987699
0.752277 7.93251 1.55457 0.280074 -0.097298 0.955035
-2.04615 3.66716 0.577096 -0.9613 -0.081654 -0.263124
0.180316 8.6348 1.73209 0.207616 -0.145345 0.967352
-2.4728 9.56928 -0.235487 -0.998549 0.0456639 0.0285603
-0.234971 6.98272 1.73638 0.248916 -0.0879365 0.964525
2.22029 3.09023 -2.61796 0.45634 0.0191721 -0.889599
1.41136 9.12911 1.27233 0.535745 -0.0767128 0.840888
0.458834 4.67521 1.603 0.143629 -0.0517144 0.988279
-0.809399 8.06479 1.75769 -0.16972 -0.0187176 0.985315
-1.52962 5.1433 1.45381 -0.361465 -0.101391 0.926857
0.531594 5.0576 -4.08029 -0.285258 -0.202545 -0.936805
-0.512212 8.43828 1.82492 -0.0822598 0.00130374 0.99661
-1.91538 3.48803 -0.174183 -0.98386 -0.135455 -0.116924
0.720066 3.094 1.44163 0.199586 -0.519509 0.830828
0.314995 6.17529 1.67741 0.186324 -0.000200729 0.982488
-2.42889 8.35846 0.773817 -0.987985 -0.0733769 -0.136019
-3.58519 5.03583 -1.02019 -0.988124 -0.145363 -0.0498072
0.922677 4.7672 1.43703 0.339552 -0.0354203 0.93992
-0.773398 6.8197 -3.89652 -0.196535 -0.0582511 -0.978765
2.41917 4.3468 -2.53999 -0.713731 0.00394533 -0.700408
-1.84987 4.34742 -2.94476 -0.991632 -0.127137 -0.0223926
-3.74568 6.17018 -0.518598 -0.98574 -0.0291125 -0.16574
0.00305056 8.58128 1.75416 0.213089 -0.11446 0.970305
-0.065466 3.97121 -3.77236 -0.207216 -0.0258407 -0.977954
-1.30799 6.41004 1.63862 -0.373265 -0.0721817 0.924913
2.52732 2.73407 0.408026 0.926586 -0.231228 -0.296602
-0.0551456 4.23344 -3.76438 -0.171834 0.0126103 -0.985045
0.874208 9.09424 1.5241 0.369914 0.0580376 0.927252
-1.11424 8.17227 1.72279 -0.204066 -0.0495498 0.977702
-2.07256 4.52334 1.15788 -0.760768 -0.0987471 0.641468
0.0849424 7.03278 1.70032 0.113893 -0.0510948 0.992178
-1.35355 3.36127 1.43412 -0.271276 -0.11197 0.955967
-2.40094 8.94379 -0.628543 -0.987343 -0.0447763 -0.152147
2.74105 3.7498 0.666529 0.987824 -0.0400943 -0.150323
-1.0273 8.72121 -3.98323 -0.201563 -0.0747256 -0.976621
-1.29006 4.8839 -3.58073 -0.203516 -0.0385929 -0.978311
1.4982 8.92929 1.22126 0.49437 0.0924708 0.864319
-1.61562 3.23273 1.32743 -0.422052 -0.208604 0.882245
-1.81931 3.61091 -1.96443 -0.980194 -0.161508 -0.114609
2.2129 6.17351 -2.79781 -0.297813 0.056109 0.952974
-1.91957 3.28783 0.207247 -0.97882 -0.0501866 -0.198476
-2.00999 8.1398 1.44307 -0.479175 -0.027296 0.877295
-2.47452 9.36317 -0.128003 -0.999811 -0.0152436 0.0120561
-2.3323 8.63858 1.31065 -0.618994 -0.089873 0.780237
1.85845 5.84922 1.06298 0.39811 0.0496879 0.915991
-1.95097 4.52067 -0.558779 -0.964044 -0.155499 -0.215498
-3.55703 5.07004 -0.819709 -0.977004 -0.179211 0.115531
-1.36727 3.50147 -0.997445 -0.152594 -0.205845 -0.966614
0.445058 3.39464 -3.88126 -0.270718 -0.0339251 -0.962061
-0.124619 8.72386 1.79495 0.193653 -0.0347478 0.980455
-0.536788 3.89395 1.61604 -0.144805 -0.0463452 0.988374
0.141243 5.03338 1.64087 0.0181978 -0.0562862 0.998249
-1.83296 4.279 -2.36068 -0.983077 -0.179431 -0.0369291
-1.30061 6.82013 -3.7407 -0.222234 0.0281726 -0.974586
0.132141 7.84297 1.69728 0.158739 -0.0526012 0.985918
-1.04772 6.66172 -3.80826 -0.239132 -0.0328962 -0.97043
0.0567679 5.77825 1.68891 0.0220377 -0.0107063 0.9997
-0.103542 4.23786 1.64418 0.0355348 -0.0658256 0.997198
0.220903 6.65149 1.67179 0.112491 0.000170352 0.993653
1.55143 3.76603 1.20651 0.3971 -0.0136127 0.917674
-0.0246499 5.55692 -3.95955 -0.282487 -0.0650039 -0.957066
-2.3876 9.04908 -0.895355 -0.983219 -0.180809 -0.0242556
-2.45593 9.1265 1.22152 -0.850153 -0.0922344 0.518394
-3.59935 5.13432 -1.02848 -0.988201 -0.106499 -0.11008
-3.59124 6.61734 -3.14361 -0.618773 -0.102462 -0.778859
-1.90488 4.47214 -1.68734 -0.989121 -0.143041 -0.0343357
-1.8406 3.30759 -0.500593 -0.98435 -0.0666462 -0.163138
-1.85306 8.997 -3.83491 -0.220928 -0.072877 -0.972563
0.380453 2.72492 -3.72207 -0.275271 -0.302035 -0.912689
0.348877 7.6994 1.65835 0.213855 -0.0185122 0.97669
-3.79596 7.77771 -1.10464 -0.975888 -0.0874229 -0.200001
1.2381 5.66896 -4.44215 -0.285103 -0.0686208 -0.956037
2.26716 7.38641 -2.80592 -0.469019 0.0277449 0.882752
-1.99395 8.68207 1.4796 -0.526555 -0.0596559 0.848045
-1.783 3.0281 -1.07927 -0.997627 -0.0416607 -0.0548227
0.232961 3.60813 -3.82526 -0.302207 -0.0906239 -0.948925
0.215905 5.3855 1.68447 0.0839958 -0.0250186 0.996152
-1.39091 8.39844 1.66629 -0.201338 -0.116009 0.972628
2.07213 3.31769 1.03995 0.296659 -0.010147 0.954929
0.924118 3.02652 -4.05702 -0.490599 -0.183593 -0.851825
0.934299 7.61871 1.49126 0.280806 0.00920808 0.95972
-1.1653 4.61215 1.54382 -0.238442 0.0127675 0.971073
-2.28908 5.84844 0.972226 -0.935603 -0.0894132 0.341545
1.20418 6.99215 -4.41813 0.397148 0.0119789 -0.917677
2.28475 7.22049 0.94242 0.407079 0.00185763 0.913391
-2.20754 8.12705 -2.82933 -0.98855 -0.0175988 -0.149863
-1.88337 3.07457 0.0580515 -0.996049 -0.00479251 -0.0886812
0.494881 8.75227 1.64116 0.244891 -0.0992125 0.964461
-3.74302 5.68977 0.243349 -0.918388 -0.207949 0.336632
0.988724 5.50181 1.44615 0.299391 -0.0238735 0.953832
-3.53074 5.14347 -1.20706 -0.933736 -0.0275682 -0.356899
-2.46709 9.55924 -0.155163 -0.996798 0.0631556 0.0490385
-1.86781 4.21212 -1.54893 -0.988194 -0.127598 -0.0848034
-1.49188 3.88434 -3.49823 -0.329223 -0.0322578 -0.943701
0.667962 8.49395 1.61306 0.195301 0.0132831 0.980653
2.26427 5.96593 -2.76226 -0.299902 0.0787009 0.950718
-0.0455771 3.8676 1.61671 -0.043917 -0.00764755 0.999006
-3.7853 5.92879 -0.110822 -0.999209 0.00192519 -0.0397111
1.46565 9.32433 -2.07916 0.700148 0.176349 0.691877
-2.20069 5.36572 0.680287 -0.979468 -0.200045 -0.0249907
-2.4167 5.3037 -2.83573 -0.0733767 -0.66298 -0.745033
-0.305066 9.21623 -4.14894 -0.273775 -0.0356043 -0.961135
-1.0246 4.87137 1.57242 -0.183404 -0.0471506 0.981906
-1.73068 2.8808 -1.97977 -0.972334 -0.121333 -0.19961
-3.63458 6.8235 -2.35943 -0.996789 -0.0612016 -0.0516418
-1.55258 2.94361 1.21372 -0.312028 -0.552071 0.773211
-1.94349 3.93229 -0.650451 -0.980498 -0.173957 -0.0914482
2.58439 3.22612 0.368933 0.905773 -0.0800845 -0.416127
1.02987 8.9613 -1.62418 0.471355 0.0379582 0.881126
0.74621 8.49455 1.59454 0.29337 0.0138172 0.955899
0.89756 6.80991 1.48458 0.373434 -0.00494764 0.927643
1.20894 4.31084 -4.33326 0.164306 -0.155182 -0.974126
1.03262 8.61614 1.46435 0.358902 -0.0096934 0.933325
-1.78913 3.17949 -0.759681 -0.984351 0.0705833 -0.161465
-0.917957 5.3985 1.63701 -0.179855 -0.0740668 0.980901
0.622274 3.06972 1.44128 0.163679 -0.530802 0.83154
-0.913881 9.15102 -4.03284 -0.188393 -0.063012 -0.98007
-0.697608 6.49344 1.73578 -0.126669 -0.0218767 0.991704
-1.2302 9.27846 1.75081 -0.139454 -0.00544172 0.990214
1.0272 9.28695 -1.63957 0.498351 0.0690055 0.864225
-2.07391 4.54151 0.408145 -0.998241 -0.0383135 -0.0452504
1.06485 6.88181 1.4363 0.259497 0.038641 0.96497
0.377315 5.84728 1.65684 0.208825 0.0113711 0.977887
-0.477941 8.24688 1.827 -0.0810524 -0.0102293 0.996657
-0.660472 3.14627 1.53638 -0.16699 -0.310294 0.935859
-3.44077 4.89602 -1.96723 -0.980109 -0.159564 0.118004
0.914647 8.72644 1.52015 0.450086 -0.0553005 0.891271
-1.85282 3.94513 -1.39187 -0.998716 -0.0448058 -0.0236255
-1.79001 3.7101 -2.58263 -0.990468 -0.137648 -0.00510867
-3.73703 7.27206 -1.27294 -0.99536 -0.051073 -0.0815535
-1.2952 6.95958 1.64875 -0.410495 -0.0610064 0.90982
-1.54755 3.46033 1.37556 -0.401886 -0.0461859 0.914524
-1.35958 8.73929 1.70347 -0.270386 -0.0611043 0.960811
1.31389 5.59657 -2.53422 0.647497 -0.38033 0.660376
-0.408713 6.44824 1.71338 0.0667356 -0.139294 0.988
-0.242658 2.89105 1.4065 -0.00777059 -0.595645 0.80321
0.799629 7.01261 1.52258 0.377802 -0.0317575 0.925342
-1.43978 8.73165 1.68476 -0.279969 -0.0419554 0.959092
-2.01693 7.04515 -3.60232 -0.733933 0.0371514 -0.678205
-1.15484 8.7638 1.77053 -0.262833 -0.00871413 0.964802
-1.7123 3.18428 -2.23922 -0.990832 -0.127818 -0.0437591
-3.31218 6.54594 0.698319 -0.356796 -0.0349 0.93353
-1.62761 2.78843 -3.20749 -0.764996 -0.436243 -0.473787
-2.02033 3.67868 1.18615 -0.728718 0.0130875 0.684689
-0.42414 5.40773 1.66623 -0.0274851 -0.0274834 0.999244
-0.114887 5.33322 -3.8956 -0.355076 -0.123771 -0.926608
-2.13125 6.41054 1.28118 -0.634791 -0.0903778 0.76738
-3.92171 7.29677 0.245558 -0.966128 -0.110425 -0.233247
-1.99614 3.839 1.19568 -0.679063 0.0459038 0.732643
-1.99224 3.9942 0.146362 -0.963778 -0.177743 -0.198847
-2.47511 9.48309 -0.194293 -0.999698 0.0245053 0.00209501
-1.85386 6.8242 1.45617 -0.370095 -0.0565046 0.927274
1.6005 8.43779 1.15479 0.548822 -0.0611297 0.833701
-2.40341 9.04847 -0.632419 -0.992681 -0.0615936 -0.103882
-0.242859 6.2009 1.69964 -0.0471268 -0.0301115 0.998435
0.11923 6.81476 1.67897 0.0652338 -0.0354111 0.997241
-2.44508 8.91827 -0.292025 -0.999171 -0.0318408 -0.0253563
1.17177 8.79046 1.4153 0.449517 -0.0275492 0.892847
2.08788 8.52771 0.981475 0.230184 0.0396139 0.97234
-1.16515 4.36234 1.53168 -0.191 -0.07438 0.978768
-2.19544 5.48195 1.15483 -0.845665 -0.0299361 0.532873
0.0386986 8.37981 -4.18602 -0.241305 -0.116886 -0.963385
0.489515 7.37512 1.62843 0.20491 -0.00278547 0.978777
-2.37333 8.57535 -0.175512 -0.985142 -0.171501 0.00909142
-0.681065 8.51234 -4.04168 -0.134562 -0.095122 -0.986329
1.74672 9.44635 1.06054 0.504303 -0.0346452 0.862831
1.82886 3.85804 1.10077 0.294308 -0.024902 0.955386
0.858399 4.78733 1.46401 0.415185 -0.0384923 0.908922
-2.43824 8.60385 0.650476 -0.988525 -0.0713308 -0.133154
2.57225 3.25313 0.901259 0.504395 -0.0240809 0.863137
0.629976 7.61499 1.59679 0.252477 0.0552596 0.966024
-1.9144 2.85612 0.340932 -0.954044 -0.106866 -0.279962
-1.1891 5.73882 -3.67295 -0.0517292 -0.169457 -0.984179
-0.609194 4.74367 1.66467 -0.0263698 -0.00733168 0.999625
0.570984 7.76335 1.60156 0.261809 -0.00775721 0.965088
-2.37866 7.70999 1.17883 -0.90397 -0.0972583 0.416389
2.50261 2.90293 0.218671 0.911863 -0.0488643 -0.407575
1.39423 5.0449 1.26185 0.415305 -0.0241838 0.909361
1.96633 8.65831 1.00422 0.276196 0.0461958 0.95999
-0.305148 3.48549 1.61319 -0.0388145 -0.0258418 0.998912
-3.50943 6.08347 -3.08224 -0.914355 -0.108837 -0.390013
-2.10772 6.90112 -3.37434 -0.70408 0.100926 -0.702912
0.649879 7.22706 1.60135 0.236011 -0.0299922 0.971287
1.14539 8.36054 1.4529 0.380637 0.071396 0.921964
-0.186103 5.10273 1.65842 0.0237971 -0.0472755 0.998598
-2.02052 3.40454 0.486023 -0.970899 -0.0585207 -0.232229
-0.26498 3.28434 1.59688 -0.0366222 -0.184043 0.982236
0.940434 4.2067 1.42623 0.42329 -0.0209261 0.905753
0.674996 6.20104 1.56267 0.40895 -0.0239107 0.912243
-2.14148 7.73558 1.34539 -0.478537 -0.079837 0.87443
0.347481 9.60115 1.74538 0.226399 0.0256124 0.973698
1.12533 4.46809 1.34758 0.334154 -0.0398674 0.941675
1.70356 5.82857 1.15732 0.503451 0.105018 0.857618
-2.25268 8.64836 -2.88667 -0.971972 -0.212972 -0.0995623
-1.0301 6.56774 -3.80872 -0.207232 -0.0603713 -0.976427
-1.94469 3.80127 0.120607 -0.98604 -0.145019 -0.0818148
1.38258 5.30693 1.28494 0.349807 -0.0503729 0.935467
-1.93455 9.13679 1.54407 -0.430018 -0.0420169 0.901842
1.65415 4.78227 1.16822 0.343223 -0.0223201 0.938989
1.34051 8.61074 1.31177 0.479081 0.0330657 0.877148
2.1935 5.50761 0.976226 0.289351 0.0544634 0.955672
-0.407766 5.61721 1.68438 0.00823589 -0.0401759 0.999159
-3.75364 6.82091 -0.616324 -0.990085 -0.0648893 -0.124581
-2.14622 7.51855 -3.50716 -0.799118 -0.160187 -0.579439
1.35008 5.92256 1.29503 0.423525 0.0177148 0.905711
-0.586331 3.41172 1.61114 -0.141842 -0.113156 0.983401
2.32048 6.65537 0.926048 0.392724 -0.0846903 0.915749
1.4831 9.38177 1.23915 0.533476 0.0237424 0.845482
0.983584 9.81045 1.50311 0.441974 0.0283323 0.89658
-1.98319 6.70447 -3.63142 -0.598486 -0.080601 -0.797068
1.24729 7.15489 1.35827 0.485195 0.0152347 0.874273
-3.62891 7.05926 -2.88298 -0.982679 -0.0770408 -0.16854
2.24493 6.07628 -2.77698 -0.298991 0.0677419 0.951849
-0.267798 6.57567 -3.94629 -0.218638 -0.0593859 -0.973997
-1.96444 4.62575 -0.641647 -0.957716 -0.254199 -0.13477
-0.261975 8.43131 1.81569 0.149238 -0.0274568 0.98842
-1.61013 7.33548 -3.74188 -0.0744145 -0.115632 -0.990501
-1.905 9.09849 -3.83262 -0.267564 -0.0524943 -0.962109
2.37409 7.75607 -2.74677 -0.485816 0.0144129 0.873942
-2.43497 8.77038 0.35638 -0.994371 -0.0843375 0.0641382
-1.05415 8.08307 -3.90264 -0.26428 -0.0885967 -0.960368
-2.51389 6.77705 -3.3331 -0.0966028 0.128736 -0.986962
-2.02882 4.1408 1.1839 -0.701123 -0.035885 0.712137
-2.03228 4.51781 -0.258304 -0.986735 -0.110427 -0.118998
-2.32986 8.14944 0.0813941 -0.99589 -0.0459662 -0.0780431
-2.49279 9.42535 0.734868 -0.986771 -0.0986 -0.128691
-3.56092 5.80883 -1.81494 -0.986785 -0.128552 -0.0986373
-0.00652546 4.99511 1.64279 0.0302737 -0.0504864 0.998266
1.14083 7.98237 1.44801 0.442958 -0.0279633 0.896106
-1.85447 4.19318 -0.965525 -0.986475 -0.0346657 -0.160203
-3.70454 7.49495 -2.64944 -0.989501 -0.101192 -0.103194
-1.06164 5.19308 1.6065 -0.129061 -0.115925 0.984837
-3.73364 7.38628 -1.72905 -0.987032 -0.143476 -0.0719916
0.541944 5.51048 -4.10816 -0.255511 -0.0164381 -0.966666
0.19732 6.53435 1.67447 0.11904 0.0268953 0.992525
2.6623 7.0885 0.139886 0.970925 -0.00464572 -0.23934
-2.37008 8.86445 -1.10637 -0.995925 -0.0901038 0.00379344
-1.8791 4.9293 -1.71762 -0.985719 0.158857 -0.055879
-0.463453 7.54688 -3.9479 -0.219643 -0.0686278 -0.973164
-0.0727195 4.41065 1.64356 0.005449 -0.0136924 0.999891
-1.32524 7.17591 1.63391 -0.417146 -0.0113055 0.908769
-1.64448 8.41062 1.59755 -0.282437 -0.0983903 0.954227
0.796747 4.32043 1.49962 0.401758 0.0115791 0.915673
-2.47474 8.7346 0.829647 -0.99017 -0.0793679 -0.115174
-0.669984 8.2905 1.80206 -0.193138 -0.0375416 0.980453
-0.873468 8.12948 1.75105 -0.16123 -0.0651746 0.984763
-1.38021 6.72595 1.59663 -0.349865 -0.0151637 0.936677
-0.42874 8.26889 -4.05073 -0.234618 -0.0646142 -0.969938
-1.93301 8.13688 1.4913 -0.383349 -0.0599148 0.921658
1.09302 8.79643 1.44858 0.394442 -0.0417652 0.917971
-2.16465 5.643 -3.14388 -0.198318 -0.479414 -0.854887
0.428684 7.08046 1.64415 0.236601 -0.0328009 0.971053
2.13517 3.00276 0.97807 0.228109 -0.347819 0.909389
-0.756142 4.89741 1.59614 -0.157214 0.0631977 0.98554
-1.9383 3.69963 -0.0632598 -0.998176 -0.0550924 -0.0246716
0.671459 6.79231 1.58191 0.319512 -0.0297468 0.947115
0.972683 3.73549 -4.16608 -0.428054 -0.144619 -0.892107
-0.126638 8.89119 1.80033 0.155888 -0.059818 0.985962
0.0870413 9.45748 1.77607 0.216327 -0.029567 0.975873
2.1098 8.3043 0.98138 0.230032 -0.01312 0.973095
-0.074628 6.44429 -3.98074 -0.347722 -0.057474 -0.935834
-1.74426 5.62592 -3.57687 -0.433556 0.0339065 -0.900489
-2.17456 4.84798 0.819647 -0.994954 -0.0765547 -0.0648542
1.68678 5.73593 1.18129 0.500754 0.0403558 0.864649
0.593627 8.64518 1.6165 0.159315 -0.00737115 0.9872
-0.626161 6.52172 1.74256 -0.0469706 -0.0463226 0.997822
-1.62399 2.63986 -2.93385 -0.909271 -0.309088 -0.278731
-1.35135 3.84965 1.48407 -0.286304 -0.0312243 0.95763
-2.17873 7.94079 -3.1446 -0.998607 -0.0438592 -0.0293455
0.671682 5.83178 1.55617 0.408089 -0.00797152 0.912907
2.72588 3.9356 0.784129 0.974833 -0.0283237 0.221129
0.72057 5.74612 -4.13407 -0.178748 -0.116997 -0.976914
-2.24501 8.47673 -3.24113 -0.991741 -0.127629 -0.0126779
-1.72354 2.93934 -2.02875 -0.968124 -0.0971824 -0.230849
-3.37348 4.85616 -1.73223 -0.976256 -0.187819 0.107927
-0.521715 7.77426 1.80907 -0.0808511 -0.0259415 0.996389
2.46942 7.40772 0.77788 0.479959 -0.0917103 0.872484
-1.54354 4.26322 -3.49119 -0.248131 -0.00528838 -0.968712
-1.73011 2.71886 -1.18533 -0.972438 -0.209822 -0.101679
0.122806 4.09902 1.61174 0.0592391 -0.00323747 0.998239
-2.19104 5.29223 0.417727 -0.940685 -0.314924 -0.126233
-1.19626 8.00118 -3.85618 -0.215725 -0.0828822 -0.97293
1.02614 6.30534 -4.45187 -0.285374 -0.0558372 -0.956788
-3.69815 6.28829 -0.850161 -0.985505 -0.0813606 -0.148865
0.00553817 4.71845 -3.83226 -0.224315 -0.217545 -0.949925
0.865722 6.87413 1.49864 0.378768 0.00912741 0.925447
-0.717527 2.74114 1.22273 -0.0956851 -0.818908 0.565892
2.40021 3.00891 -2.57186 0.228715 0.0383085 -0.972739
-2.17655 4.5469 0.730002 -0.994344 -0.0591598 -0.0882092
-1.8447 3.04336 -0.400857 -0.986639 -0.0476563 -0.155796
-3.73196 5.53779 -0.241752 -0.970739 -0.154473 -0.18386
-2.21085 8.29647 -3.17144 -0.992289 -0.123458 0.0109684
-0.501752 4.23634 1.61564 0.00787611 0.028614 0.99956
-2.96355 6.40722 0.780971 -0.25956 -0.112735 0.959124
-2.11231 5.26659 -2.85744 -0.405859 -0.665061 -0.626875
-2.2573 5.33994 0.939979 -0.994929 -0.072145 0.0700855
0.533403 3.24914 1.55003 0.029722 -0.300837 0.953212
-3.7815 5.95818 0.0387458 -0.999407 0.0187452 -0.0288992
-2.93321 7.18965 -3.14516 -0.15308 0.427501 -0.89096
0.093745 6.688 -4.10504 -0.307111 -0.0876233 -0.947631
0.233285 2.79719 1.30367 0.149147 -0.629635 0.762441
-0.0335648 5.88455 1.69449 0.0117121 -0.0557371 0.998377
-2.03694 7.24721 1.38496 -0.466276 0.00832962 0.8846
-1.98357 3.49601 0.388279 -0.953268 -0.0268888 -0.300926
-1.8374 3.9484 -1.7161 -0.99989 0.0123421 -0.00823524
-1.17669 8.12133 -3.86922 -0.228429 -0.0870852 -0.969658
0.650538 6.44791 1.57069 0.32147 0.0242605 0.946609
-2.44219 9.33928 -0.958449 -0.994189 -0.025256 -0.104644
1.57765 8.51406 1.1811 0.575816 -0.0829926 0.813356
-2.34182 8.58416 -1.63406 -0.995933 -0.0641387 -0.0632697
2.27335 3.78374 0.993356 0.411797 -0.0426944 0.910275
-1.70467 2.72637 -1.66681 -0.969886 -0.240265 -0.0399294
-1.86302 5.62552 1.37042 -0.401922 -0.0837247 0.911838
-2.08372 4.97445 -0.0892072 -0.995666 0.0473698 -0.0800351
-1.02271 5.11207 1.59798 -0.11148 -0.144874 0.98315
-1.67502 3.32122 -3.37754 -0.801045 -0.0437746 -0.597002
2.41669 3.71794 0.890125 0.539697 0.00878726 0.841814
-1.14555 6.62695 -3.78306 -0.234594 -0.00728145 -0.972066
-3.38353 4.78015 -1.74298 -0.992141 -0.101332 0.0733973
1.37844 7.30524 1.27179 0.49239 0.00353108 0.870368
-2.38047 8.58779 -0.0909388 -0.987708 -0.149743 -0.0448212
0.204615 6.46855 1.67529 0.120534 0.0444015 0.991716
1.04397 7.80279 -4.56392 -0.332275 -0.161261 -0.929295
-1.16585 3.50151 -3.54318 -0.0434817 -0.127395 -0.990899
1.30986 7.46469 1.33333 0.569302 -0.0440101 0.82095
-1.28983 6.60185 1.6509 -0.36648 0.000491388 0.930426
-2.39881 8.29256 0.541281 -0.993065 -0.0878328 -0.0781499
1.46997 4.95695 1.23192 0.374163 -0.00692278 0.927337
-1.76536 3.22852 -0.84033 -0.966524 0.0969949 -0.237537
-3.60241 6.21445 -1.62926 -0.980398 -0.118849 -0.157145
-2.41421 9.07581 -0.55645 -0.989631 -0.0149233 -0.142856
-1.53541 5.7212 -3.63702 -0.234078 -0.111001 -0.96586
-1.04339 7.67858 -3.86302 -0.218404 -0.0943183 -0.97129
1.35019 9.74144 1.32559 0.522304 0.0490723 0.851346
-0.725305 8.95033 1.8041 -0.0690519 -0.0368562 0.996932
-0.466227 7.47662 1.80447 -0.0791993 -0.0236946 0.996577
1.39205 9.84103 1.26774 0.602713 0.214638 0.768549
0.361341 4.35887 1.59029 0.16146 -0.0247781 0.986568
-2.29935 6.80092 -3.35854 -0.144717 0.139273 -0.979622
-0.217344 5.5106 1.67286 -0.0244391 -0.0272979 0.999329
-1.94985 3.53522 0.306561 -0.96228 -0.034661 -0.269846
-1.56082 6.1075 -3.66058 -0.27894 -0.0550869 -0.958727
-0.952671 5.08075 1.60185 -0.066064 -0.136687 0.988409
-1.9544 8.40911 1.49198 -0.519788 -0.0285818 0.853817
-2.04971 4.45232 1.16765 -0.716105 -0.0761244 0.693829
1.08061 3.85121 -1.5503 -0.000983291 0.000489376 0.999999
0.265956 9.25035 1.74088 0.156133 -0.0687211 0.985343
-1.32459 6.24617 1.60247 -0.300003 -0.137982 0.943906
0.034497 3.06813 1.515 0.0658575 -0.431448 0.899731
-3.62062 6.92438 -2.87015 -0.990596 -0.0663866 -0.119635
-1.98708 9.45382 1.52046 -0.486204 -0.0303158 0.873319
2.46941 2.76841 0.190835 0.912368 -0.12141 -0.390953
-2.37706 8.2022 0.349972 -0.989963 -0.0792686 -0.117
0.847282 6.01298 1.47791 0.379157 0.0102895 0.925275
2.68229 3.08568 0.746166 0.950511 -0.219946 0.219438
2.33565 7.06457 -2.76137 -0.381616 0.00760127 0.92429
-0.654797 5.54008 -3.76511 -0.146049 -0.0543745 -0.987782
-2.43138 7.00492 0.958424 -0.782 0.0016011 0.623277
-3.54469 5.54755 -1.30138 -0.979316 -0.200759 -0.0252129
-0.261891 6.88571 -3.95972 -0.262249 -0.0107083 -0.964941
-1.37323 7.88243 1.64105 -0.174004 -0.0469169 0.983627
1.029 4.76258 -1.56772 -0.122095 0.0934484 0.988109
-2.36341 8.79811 1.2874 -0.742833 -0.0714399 0.665654
-1.35403 4.28464 -3.52564 -0.25067 -0.023553 -0.967786
0.777044 7.3244 1.56679 0.323075 -0.000216203 0.946374
-0.476483 4.85826 -3.75082 -0.115997 0.0235454 -0.99297
2.16522 5.82057 -2.77133 -0.298429 0.0583999 0.952644
-0.689245 5.3782 1.66325 -0.0254143 -0.0808246 0.996404
-2.02445 7.03353 1.39386 -0.446307 -0.0128281 0.894788
-2.13731 5.14429 0.433894 -0.94662 -0.250284 -0.203145
-1.86786 4.41739 -2.29297 -0.977446 -0.185157 -0.10157
-0.164967 5.89025 1.69295 -0.0349082 -0.0498472 0.998147
-3.64424 6.66932 -2.10222 -0.994954 -0.0809105 -0.059328
0.0275209 4.14465 -3.78828 -0.231454 0.0263275 -0.97249
-1.61304 9.64986 1.667 -0.291361 0.032493 0.956061
-1.16413 4.44072 1.5368 -0.189453 -0.0663906 0.979643
1.29944 8.10804 1.3588 0.603979 -0.0439416 0.795788
-2.44896 9.11874 0.00777273 -0.997546 -0.0695072 -0.00839301
-1.85981 2.78593 0.951613 -0.608117 -0.583269 0.538508
-0.0673338 8.03084 1.75963 0.272772 -0.0453177 0.961011
0.532196 6.39329 1.61477 0.310442 0.0312074 0.95008
0.938929 9.17986 -1.58373 0.492138 0.0457771 0.869313
0.133105 2.83743 1.35708 0.146168 -0.605157 0.782572
-0.61043 3.33783 1.59045 -0.160376 -0.189867 0.968623
-0.989667 3.8279 1.5218 -0.0997785 0.0268016 0.994649
1.13202 5.23061 1.37379 0.320051 -0.0489947 0.946133
-2.08783 6.12218 1.30241 -0.551022 -0.00566051 0.834471
1.12634 8.19567 -1.65862 0.487321 -0.0124475 0.873134
2.6988 7.361 0.253159 0.951938 -0.0484023 -0.302443
-1.50311 6.44989 1.54467 -0.339526 -0.0253669 0.940254
2.71963 7.02696 0.364168 0.944248 -0.0133222 -0.328965
0.00149931 2.96344 1.4635 0.0400205 -0.503777 0.862906
-2.21498 7.79683 1.31354 -0.508548 -0.0572172 0.85913
-0.141582 6.94325 1.71203 0.177875 -0.0696491 0.981585
1.31404 6.2048 1.30437 0.451559 0.0199035 0.892019
0.982394 6.90179 1.4522 0.282201 0.00342255 0.959349
-1.25864 7.36696 1.67947 -0.418096 -0.00199602 0.908401
-2.01175 3.18619 1.09312 -0.771494 -0.198194 0.60458
-3.78287 6.80484 -0.394344 -0.983918 -0.119283 -0.132957
-0.914981 4.88555 -3.67563 -0.193828 0.0164943 -0.980897
-1.7896 5.38369 1.39752 -0.376032 -0.0463193 0.925448
-1.92128 4.36968 -0.68783 -0.970218 0.0420999 -0.238545
2.38821 8.79724 -2.76688 0.575994 0.0576686 0.815417
-0.164268 3.00377 1.48532 -0.0127121 -0.529595 0.848155
-1.27929 7.94549 -3.83605 -0.167667 -0.0816445 -0.982457
-2.45275 9.40524 0.246496 -0.999382 0.0241538 -0.025529
-1.86683 4.19478 -1.31138 -0.995511 -0.0892494 0.0315178
0.0722754 4.52572 -3.80325 -0.252477 -0.132115 -0.958541
1.24056 5.78969 1.35849 0.443841 0.0126773 0.896016
-1.38612 5.63236 -3.64657 -0.0662589 -0.138926 -0.988084
-1.93738 3.61394 -0.000396165 -0.999114 -0.0389545 -0.0159401
0.672522 9.07168 1.62827 0.365632 -0.0165344 0.930613
0.0351764 7.19774 1.70828 0.166848 -0.0104955 0.985927
2.19763 8.12532 0.950992 0.19905 -0.0438297 0.979009
-2.09017 3.52545 1.00019 -0.973244 -0.10279 0.205498
-2.00392 4.16895 0.0672036 -0.97207 -0.198976 -0.124454
1.24174 8.89891 1.37431 0.508279 0.00397626 0.861183
0.36663 5.12845 1.63953 0.149529 -0.0938479 0.984294
-1.88779 3.34876 -0.176102 -0.984448 -0.153271 -0.0858477
-0.58319 9.07113 -4.08403 -0.191212 -0.062871 -0.979533
-3.67101 7.25234 -2.16731 -0.991807 -0.108965 -0.0666728
-2.87234 6.18493 0.760202 -0.244158 -0.258119 0.934752
-2.36636 8.9291 -0.88768 -0.990006 -0.137138 -0.032881
-3.8087 8.04274 -1.70478 -0.9847 -0.0984173 -0.143805
-1.39892 3.49999 -0.991155 -0.152594 -0.205845 -0.966614
-2.45409 9.341 0.19854 -0.999859 0.0161955 0.00449027
0.414633 6.53191 1.64116 0.214125 0.0174357 0.976651
-2.35645 8.73411 -1.24917 -0.998096 -0.0590314 -0.0178535
0.781812 2.76322 -3.90366 -0.426819 -0.237303 -0.872647
0.775166 7.66458 -4.41971 -0.478608 -0.0641206 -0.875684
-1.97264 4.69794 -0.961121 -0.950591 -0.308503 -0.034677
1.04734 9.46267 -1.67954 0.516525 0.10014 0.850396
-0.0376864 7.43799 1.73402 0.221231 -0.0544731 0.973699
-1.96222 5.28613 -3.02847 -0.714366 -0.359709 -0.600242
1.57331 7.67776 1.16936 0.484695 -0.0517183 0.873153
-1.71918 7.00276 1.52645 -0.391092 -0.0958904 0.915343
-0.295737 3.74171 -3.69695 -0.258452 -0.180392 -0.949032
-2.22412 5.49281 -3.02448 -0.223432 -0.64203 -0.7334
-3.77348 6.27525 -0.22571 -0.99422 0.00639635 -0.107175
0.084104 7.43961 -4.12105 -0.337349 -0.0439313 -0.940354
1.05135 8.49124 -4.62053 -0.441097 -0.0815583 -0.893746
-2.61595 6.56558 -3.34005 -0.0458228 0.00809603 -0.998917
-2.1421 6.27864 -3.36586 -0.382451 -0.189049 -0.904429
1.46587 4.44762 1.23994 0.28603 0.0140799 0.958117
-1.84431 9.44701 1.60311 -0.336117 -0.0632222 0.939696
-3.74879 7.15364 -0.879625 -0.986224 -0.130256 -0.101964
-1.87542 2.71552 0.171543 -0.996409 -0.0627993 -0.0567994
-3.53584 5.05594 -1.21755 -0.928161 -0.0252199 -0.371323
-1.15599 8.57033 1.75672 -0.305095 -0.124222 0.944185
-1.93528 3.55742 0.0585737 -0.997918 -0.0625014 -0.0159187
0.318826 5.74658 1.66829 0.149531 -0.00162752 0.988756
1.30459 5.14329 1.314 0.383338 -0.0131468 0.923514
-2.4124 8.70028 -0.0202111 -0.971196 -0.221322 -0.0882917
1.31854 3.55362 1.30971 0.382956 -0.0209002 0.92353
-1.85324 6.99753 -3.67538 -0.228797 -0.00204674 -0.973472
1.61629 6.56525 -3.19749 -0.735545 -0.0942775 0.670884
-1.83008 3.73995 1.29925 -0.366048 0.0588755 0.928732
1.1855 7.72267 1.41555 0.497935 -0.0310289 0.866659
-3.00534 6.08509 -3.22013 -0.0779916 -0.263317 -0.961551
0.693296 7.4275 1.58717 0.251581 0.0232542 0.967557
0.548359 6.09015 -4.16443 -0.274609 -0.110964 -0.955132
0.830661 4.87182 1.48431 0.43983 -0.045115 0.896947
1.48376 8.13823 1.22174 0.522208 -0.0168112 0.852652
0.405907 6.6942 1.64422 0.214013 -0.0252538 0.976504
2.41705 8.88118 -2.79487 0.583885 0.063296 0.809365
-2.40529 8.19645 0.664529 -0.986088 -0.0509001 -0.158239
-2.17123 4.73042 0.693521 -0.987253 -0.0432078 -0.153184
-3.76504 7.13496 -0.737108 -0.983997 -0.122944 -0.128979
-0.505783 3.30532 -3.57723 -0.162444 -0.0397812 -0.985916
-2.01102 8.38688 1.45036 -0.502257 -0.0280032 0.864265
0.524578 4.76314 1.59358 0.198895 -0.0225846 0.97976
0.831696 7.57938 1.5299 0.327651 0.0538656 0.943262
0.458122 6.12281 1.641 0.274039 -0.0220909 0.961465
-1.91617 4.55323 -1.87784 -0.998112 -0.0614269 0.000209532
-0.628673 7.39344 1.77887 -0.252341 0.05575 0.966031
-2.42847 8.11451 0.796421 -0.986765 -0.0480342 -0.154877
-3.57437 6.04894 -1.79345 -0.995323 -0.0535545 -0.0804006
0.348146 8.74203 -4.32341 -0.356002 -0.0856138 -0.930555
0.773651 5.67648 1.50748 0.370633 0.000916348 0.928779
-0.514556 6.67248 1.75847 -0.00686813 -0.157705 0.987462
-1.09958 4.14652 1.51984 -0.180015 -0.102546 0.978304
-1.81092 4.18168 -2.38837 -0.990066 -0.137773 -0.0280609
2.67488 3.56309 0.528159 0.944858 -0.0480989 -0.323928
-2.23234 8.53253 -3.56588 -0.893174 -0.16269 -0.419252
-2.08299 5.03442 -0.0347854 -0.995506 0.0696873 -0.0641134
-3.52962 4.81933 -1.20478 -0.951784 -0.112998 -0.285199
-0.641775 6.813 1.77369 -0.173043 -0.136842 0.975362
0.103524 5.03189 -3.94231 -0.306009 -0.160259 -0.938443
1.76772 8.84755 -2.2636 0.791352 -0.00471058 0.611342
-1.21007 3.40255 -3.53445 -0.0530077 -0.134692 -0.989469
-3.56351 5.00982 -0.898625 -0.979342 -0.185019 0.0815883
2.65544 6.25778 0.252945 0.991792 -0.00950532 -0.127507
-0.679855 8.04722 1.77434 -0.180852 -0.0191204 0.983324
-0.997821 7.39035 -3.85557 -0.243513 -0.0755695 -0.966949
-1.63915 3.82896 -3.44321 -0.402522 -0.0506198 -0.91401
0.62043 2.74942 1.1803 0.155759 -0.694953 0.701983
-1.08007 5.75944 -3.67633 -0.126801 -0.140883 -0.981873
-2.44969 8.91352 0.276962 -0.996835 -0.0310862 0.0731627
-1.81363 8.16245 1.52495 -0.329196 -0.0714477 0.941555
0.117349 3.30823 1.59671 0.0790313 -0.201343 0.976327
0.291289 4.98403 1.63466 0.0884392 -0.0499222 0.99483
1.63167 8.77757 1.16748 0.556812 0.0267715 0.830207
1.73689 4.55663 1.14168 0.367634 0.0517538 0.928529
1.95034 6.61191 -2.89047 -0.450671 -0.0397948 0.891803
-0.438317 3.86363 1.62311 -0.048877 -0.0328143 0.998266
-0.531261 8.59387 1.81981 -0.14952 0.0135881 0.988665
0.860579 7.63414 1.515 0.31206 0.0174336 0.949902
-0.462019 4.08027 1.61154 -0.000842925 0.00389799 0.999992
-2.19477 7.5956 -3.10206 -0.957368 0.160529 -0.240159
0.0751806 7.3385 -4.12167 -0.334072 -0.0191655 -0.942353
-3.64783 6.75589 -2.10678 -0.994954 -0.0809105 -0.059328
-3.46357 5.33126 -2.76828 -0.959763 -0.181294 -0.214446
-0.832006 4.91561 1.58426 -0.0846035 -0.0188261 0.996237
-1.79098 2.96966 -1.41389 -0.991796 -0.113528 -0.0587558
1.14159 9.32444 1.43579 0.354473 -0.0294313 0.934603
-1.84405 2.95918 -0.383439 -0.983877 -0.0618294 -0.167817
1.23311 3.36516 -4.21466 0.4491 -0.0681662 -0.890877
0.460702 6.0973 -4.14129 -0.21265 -0.0667377 -0.974847
0.219086 7.85742 1.68927 0.145272 -0.0503241 0.988111
-1.61128 7.45421 1.59214 -0.337162 -0.0334935 0.940851
0.788487 8.55365 -4.488 -0.378682 -0.11468 -0.918394
-0.411415 6.08904 1.68786 0.0815174 -0.0349371 0.996059
-0.946664 2.93766 1.37809 -0.265623 -0.570722 0.776994
-1.04261 3.12701 1.47948 -0.133375 -0.388396 0.911789
1.33286 6.61919 1.30263 0.535436 -0.0717875 0.841519
-2.47775 5.7348 0.641539 -0.364024 -0.484869 0.795229
0.502688 4.39966 -3.9732 -0.265958 -0.0849112 -0.960238
-0.449381 3.73562 1.60982 -0.0673198 -0.0530195 0.996322
-3.44381 5.12146 -1.75531 -0.97118 -0.224231 0.080811
2.78714 7.79837 0.665681 0.989602 -0.0164607 0.142885
-2.00871 4.06518 0.167331 -0.965175 -0.153289 -0.211989
1.05939 7.81434 1.47781 0.306582 -0.0847811 0.948061
-1.8361 3.50223 -0.724491 -0.953242 -0.213219 -0.214165
1.16856 8.66799 1.41456 0.445769 0.0122527 0.895064
-0.196644 8.77176 1.81136 0.191223 -0.0210228 0.981322
1.1136 3.18258 1.34639 0.403908 -0.195296 0.89371
-1.91891 4.7186 -2.03002 -0.998254 0.0587912 0.00568883
-0.427074 7.40165 1.80705 0.0511169 0.0148326 0.998583
-0.178087 7.20526 1.74542 0.241653 -0.059092 0.968562
0.537102 7.2199 -4.28694 -0.471453 0.0202259 -0.881659
-0.336205 9.00547 -4.13976 -0.277932 -0.0583163 -0.958829
0.324118 6.5413 1.65758 0.161222 0.0143265 0.986814
1.61745 8.08769 1.14294 0.483116 0.0200009 0.875328
-0.173239 4.20596 1.64054 -0.0359148 -0.0718179 0.996771
1.91547 8.39144 1.02725 0.247005 0.0233207 0.968734
-0.983042 8.56434 1.80149 -0.0647903 -0.116038 0.991129
-2.06972 5.00228 -0.220363 -0.989809 0.0607705 -0.128782
-0.352604 8.08326 -4.06304 -0.30012 -0.125885 -0.945559
-2.32935 9.31369 -2.73304 -0.995647 -0.0128708 -0.0923093
1.19529 6.91229 1.39265 0.406533 0.0567534 0.911872
0.611564 6.04012 1.58396 0.378914 -0.0150052 0.92531
-0.321613 6.97972 1.76688 0.258586 -0.112961 0.959361
0.610642 7.973 1.61669 0.289286 -0.0944895 0.952568
-0.251862 6.08143 -3.90674 -0.272781 -0.138241 -0.952092
-3.63228 6.77747 -2.31197 -0.995981 -0.0708828 -0.0547438
-1.45433 4.28685 1.43969 -0.401313 -0.00468052 0.915929
-3.44098 7.04589 0.552344 -0.336489 0.194687 0.921343
