-0.932995 2.76921 -3.32064
-1.61612 3.93873 0.472599
1.64617 3.6555 0.36703
-1.31169 4.9914 -1.4988
1.90543 4.53581 -1.36623
-1.38994 4.10127 -1.29761
0.456441 2.8688 4.54051
0.906201 4.97141 4.40755
-1.53293 3.37062 -0.52723
-1.31451 4.17374 -1.64614
1.48807 5.08551 2.38966
-1.11794 4.76374 -2.20125
1.28949 3.25495 -5.67748
1.79259 5.77823 0.278854
1.56775 2.80907 -5.61824
-1.62954 2.74729 -0.143516
-0.799987 3.09508 -3.52914
-1.07586 5.46918 -2.13326
-1.64532 3.46331 0.393155
-1.63856 3.48425 0.803208
1.02567 3.68051 3.99418
1.69497 4.19247 0.174269
-1.34235 3.0706 -1.63873
-1.407 3.98342 -1.26955
0.0414514 4.16103 4.53008
1.77354 4.93372 0.543542
-1.52066 3.99631 -0.10724
-1.11814 4.95925 -2.1383
1.92059 4.91153 -0.679643
1.83179 3.54841 -0.939675
1.59077 4.53733 -5.69684
1.89164 4.34996 -1.02558
-1.61677 2.7731 0.234817
1.49649 2.99507 1.71003
1.90562 5.65292 -0.0962431
1.80738 5.57037 0.25199
1.84477 2.93347 -5.54464
-1.47742 3.21359 -1.15198
1.83501 3.26511 -1.7087
-1.50576 5.45809 0.23939
1.68367 5.64881 1.67067
1.6391 3.60606 1.15043
-1.56644 5.6469 1.20494
-1.45643 5.66585 -0.35985
1.27898 5.74423 3.49492
-1.49206 3.08423 -1.14138
-1.48295 5.62297 0.34777
1.00959 3.06897 -5.72573
1.21357 3.12998 2.88762
1.01568 4.44772 -5.75967
-1.59744 2.82277 -0.106432
-1.49832 5.78768 4.24025
1.93282 5.34927 -0.892284
-1.62581 4.94007 1.24269
-0.672926 4.14548 4.47727
2.37006 3.99612 -5.31635
0.728825 4.8685 4.5039
-1.42421 5.54762 -0.58646
1.51363 3.57265 1.84089
1.6714 3.17471 0.190251
1.60183 4.57495 1.67531
-0.113965 5.35147 -5.45458
-1.50548 4.67987 -0.188334
-0.790973 4.97238 4.44166
-0.882168 5.44575 4.39054
1.79383 3.24103 -0.571765
1.858 4.14945 -0.321495
-0.914841 2.9565 -3.30166
-1.57372 4.86623 0.559858
-1.49496 5.59568 -0.0138292
1.99962 5.66479 -1.64543
1.09727 5.56221 4.28135
-1.25619 4.57209 -1.92278
-1.5594 2.73213 -0.570986
-1.60707 4.27373 0.533516
1.81819 3.04473 -1.30577
1.16396 3.336 3.19742
-1.36507 4.48023 -1.43153
-1.66198 3.32508 0.878754
-1.30407 4.05273 4.3755
1.16214 3.16486 3.20324
-1.64542 4.30069 1.31184
-1.37845 2.92436 -1.54164
1.21723 3.30554 2.8875
1.54017 3.18828 1.44733
1.30977 4.50689 3.10901
1.58288 3.07921 0.677912
-1.63752 3.33985 0.350813
1.77298 2.9289 -0.616598
1.91602 4.42749 -1.58977
2.13202 3.45609 -5.49699
-1.58304 2.9058 -0.435265
1.70794 5.811 1.48843
-1.57991 5.39158 1.38782
1.80575 2.91915 -1.17326
-1.48864 5.59401 0.220724
1.8395 3.30177 -1.43689
1.28246 4.24788 3.07227
-1.58574 5.46739 1.35278
-1.5737 4.20516 0.27869
1.98261 5.68392 -1.01588
1.16878 5.09821 3.77941
1.58408 3.30416 1.32536
-1.49906 4.65039 -0.264809
1.45714 3.17624 1.99805
-1.24207 4.73297 -1.91836
-1.67444 3.26045 0.919556
-1.23733 5.73864 -1.63425
1.31494 5.16347 3.12688
-1.70466 3.36717 1.12144
1.80429 3.4681 -0.501351
-1.06272 4.53304 -2.49202
-0.994358 3.2005 -3.08541
1.90292 4.64024 -0.811311
-1.54679 4.17374 0.138723
1.6666 5.27699 1.59407
1.53532 3.26008 1.47955
1.55811 2.74649 0.488923
1.95564 5.45481 -0.675583
1.95215 5.79974 -0.607044
1.84394 2.52449 -5.54335
1.93788 5.8319 -0.676303
1.77982 5.32017 0.553204
-1.67192 3.91961 1.24241
-1.18259 4.55987 -2.09855
-1.30079 3.49078 -1.73841
-1.45568 3.61488 -1.13745
1.58384 3.06536 1.221
-1.5834 5.45879 1.07651
1.64526 3.58905 0.360928
-1.4438 4.94886 -0.779395
-1.82092 3.91779 3.50505
-0.121421 3.41835 -5.80915
1.85452 4.04982 -0.688889
-0.399637 2.1737 0.15911
1.93149 5.24728 -1.07121
-1.58938 4.5775 0.603043
1.17397 5.36906 3.79504
-0.785306 3.86654 -3.56774
-1.84855 3.78214 3.53705
-1.61556 4.04514 0.614266
-1.0288 4.13881 -2.67352
1.86119 4.53452 -0.606866
0.479244 3.02132 4.54519
1.88388 4.76363 -1.04552
-0.895335 4.05208 -3.25445
-0.121388 3.8346 -5.77923
1.94644 5.39367 -0.72742
1.87035 3.90215 -0.779673
-1.48885 4.68337 -0.318507
-1.6376 2.98528 0.622404
1.82533 3.65091 -0.514605
-1.62934 2.9184 0.349411
1.67756 4.21545 0.351401
-1.63194 3.59969 0.724616
-0.98231 4.04948 -3.03638
-1.32742 5.081 -1.40128
-1.87918 4.36957 4.07764
1.67934 4.15473 0.31285
-1.59474 3.93916 0.319306
-1.56464 3.19439 -0.287714
1.81048 3.56743 -0.164711
-1.28717 5.16726 -1.57257
-1.4334 5.5269 4.28286
-1.61298 4.06169 0.535556
-1.27689 3.8779 -1.88963
1.17159 5.33233 3.78575
-1.26218 3.75641 -1.94271
-1.45725 5.3996 -0.409919
2.37866 4.3752 -5.34117
1.87711 4.90402 -0.499706
1.8545 4.38843 -0.592762
1.97678 5.03962 -1.81524
1.93861 5.77229 -0.261651
-1.50912 4.34542 -0.274042
1.58895 4.88416 -5.69077
-1.60143 5.32208 1.29698
-1.52967 5.27237 0.499246
-1.50914 4.27828 -0.265385
-1.50103 4.1771 -0.627203
1.72941 5.8286 1.1009
1.60334 4.35524 0.677158
1.43672 4.10991 2.33352
-0.794794 4.5446 -3.4026
0.657541 3.30744 4.49414
1.23152 4.92824 3.37842
-0.0534165 5.15979 4.51024
1.59091 4.93619 -5.69695
1.66451 4.54913 1.50619
1.94477 4.55498 -1.75217
1.73379 5.14552 0.63319
-1.27475 5.36315 -1.59253
-1.45893 5.57579 -0.348088
-0.493779 4.55038 -4.16499
-1.51262 3.88548 -0.185508
-1.51846 4.11355 -0.555794
-1.51484 4.10028 -0.190234
1.65359 3.07205 0.285832
1.88434 5.3124 -5.66558
-1.36747 5.7531 -0.975682
-0.143746 4.89159 4.5137
0.227741 2.97151 4.52278
-0.507693 3.34188 -4.31076
1.65877 4.66407 1.35101
-1.28237 3.34207 -1.85634
0.116132 4.83082 4.51873
1.30996 2.82039 2.34612
-0.330622 5.44556 -4.72397
-1.71055 3.26936 1.19677
-0.654179 4.39084 -3.84131
-0.952082 5.03869 -2.952
-1.55944 5.65772 1.2679
1.51372 2.9627 1.61022
-0.158524 5.33563 4.47987
1.60636 3.34609 0.629889
1.16686 5.19272 3.76933
-1.62234 3.78586 0.492062
1.84498 4.11165 -0.530792
1.87947 4.71346 -0.659419
-1.62889 4.60415 1.48711
1.72078 4.91531 0.894369
1.86462 4.63906 -0.381402
1.83925 3.78813 -0.431865
-1.59423 4.38684 0.583533
1.59972 4.22415 1.4789
1.71447 5.22898 0.813325
-0.994613 3.36878 -3.06773
1.81378 3.55258 -0.71772
-0.882111 3.90665 4.4332
-0.195297 4.08612 4.51641
-1.62059 2.7682 0.362766
0.0257745 3.22045 4.55405
-1.61585 4.19877 0.43748
1.6835 4.82984 0.252935
1.59238 4.38665 -5.70476
1.69022 4.00509 0.185241
0.0370678 4.53231 4.52403
-1.06076 4.29648 4.32337
1.5835 3.37343 1.36147
-1.49874 4.07403 -0.679382
-1.01134 2.80696 -3.1061
1.8585 4.63176 -0.532115
-1.63441 4.6088 1.32144
1.68066 3.92162 0.212822
-1.31345 4.00434 -1.63474
1.69591 4.55992 0.292073
-1.40029 5.10341 -0.917758
1.67205 4.78281 0.361734
-1.67636 3.96529 1.44064
-0.485444 4.93667 -4.08206
1.87107 3.8978 -0.85947
-1.56013 4.9249 0.506804
-0.864257 3.40028 4.45904
2.15968 4.71036 -5.56608
-1.15842 4.62662 -2.14299
-1.15054 2.74397 4.14835
-1.63416 3.12079 0.513241
1.55134 3.50356 1.55548
-1.48372 3.75404 -0.708255
-1.44562 4.1578 4.32722
1.84097 2.66748 -5.53526
0.734959 4.61165 4.51396
1.66876 3.43888 0.201813
1.76928 5.18076 0.123149
1.83763 3.41694 -1.63745
1.69814 5.50549 0.984734
-1.89929 4.17682 4.09619
1.63087 4.60128 1.02665
0.167208 5.31848 -5.8582
-1.54971 4.68716 0.408262
1.97109 5.62065 -0.703182
-1.3178 3.58319 4.36366
1.56958 2.95186 -5.61962
-1.32962 4.47878 -1.582
-1.86161 3.56801 4.12657
1.18137 5.49722 3.80428
1.63644 3.58303 0.893164
-0.658222 4.297 -3.85829
1.83351 3.17789 -1.58106
-1.42692 2.71792 -1.25123
1.86622 3.77321 -0.766455
-1.10241 2.89933 -2.58037
-1.57285 5.49536 0.984812
-1.43843 3.9972 -0.924789
0.0147592 4.46505 4.53209
1.64031 3.9166 0.929382
-1.43611 3.44391 -1.21013
1.7855 5.21163 0.479672
-1.49144 5.32651 -0.238352
1.7113 5.59854 1.16486
1.5386 4.99581 2.16861
1.60434 3.68581 0.66434
-1.45485 4.50399 -0.763272
-1.24704 5.13844 -1.70185
2.17138 5.21065 -5.59796
-1.222 5.66083 -1.74669
-1.37797 3.93178 -1.34368
-1.4687 3.36692 -0.945094
-1.45849 3.73523 -0.859652
1.77717 2.92975 -0.468894
1.83296 3.69262 -0.453466
-0.895346 3.68469 -3.2866
-1.54163 4.23916 0.122072
1.88994 5.03226 -0.230942
-1.52611 4.49538 -0.134677
0.8958 4.81605 4.39689
-0.7859 3.26107 -3.51485
1.5595 4.64253 1.8981
-1.46057 4.03338 -0.864584
-1.59474 5.09876 1.39111
-0.3736 4.40385 4.52595
0.161123 4.94252 -5.82695
1.75915 2.80817 -0.877514
1.74546 3.00908 -0.241797
1.70465 4.89214 0.992791
1.88053 4.52898 -0.184889
1.9969 5.61154 -1.39557
1.68115 5.01428 1.52089
1.71004 3.05307 -0.0200997
1.55538 4.53846 0.797624
1.24788 5.2553 3.42882
-1.31726 5.46099 -1.35716
1.58519 3.16588 0.674628
-1.57898 4.62458 0.645953
1.59933 3.8336 1.53956
1.01164 3.81885 -5.73721
1.89058 4.33318 -0.898848
1.75195 5.86148 0.908838
0.639724 5.68362 4.51025
1.73802 5.88607 1.02332
1.3087 3.81884 2.77651
-1.20412 5.51421 -1.88991
1.72218 5.09354 0.334307
1.32043 5.24454 -5.80789
0.196334 3.79938 4.53087
1.78923 5.7122 0.524419
1.73541 2.69069 -0.600556
1.22992 3.19112 2.82122
-0.668414 4.85047 4.45406
1.63537 3.62864 1.29972
-0.791126 3.72377 -3.5602
1.8455 4.18433 -0.505932
-0.406598 3.96373 4.4908
1.87978 4.21851 -1.13401
1.71379 2.67006 -0.253676
-1.63779 3.45384 0.610835
1.83472 4.08146 -0.0603926
1.44886 4.67244 2.35405
1.90841 5.59835 -0.150154
1.63713 3.90178 1.15984
-0.347972 3.78833 -4.98081
-1.26849 4.09166 -1.9235
-1.18946 5.87891 4.30088
1.85215 3.71206 -0.785686
-1.49709 5.51816 0.237331
-1.59237 3.78846 0.302757
2.1187 3.17018 -5.46246
-0.371421 4.87825 4.47757
-1.2721 3.27389 -1.90351
1.68188 4.86884 0.193043
1.2885 3.20501 -5.67259
-0.972382 4.58557 -2.98967
1.20648 4.09526 3.3348
-1.51648 5.11507 0.398498
1.80184 5.80539 0.356914
-1.26076 3.20061 4.38292
1.46012 2.87683 1.79012
1.96535 4.71545 -1.82977
1.60093 4.69513 0.719112
1.08539 5.35168 4.20728
-1.27584 5.57996 -1.45369
-1.50403 3.94322 -0.231055
-1.65251 5.84192 4.13118
-1.57884 4.81644 0.584623
-1.47243 5.11073 -0.416664
-1.56573 3.6364 0.0660294
1.1315 3.94596 3.63829
-1.53476 4.97793 0.428941
-1.45535 4.54708 -0.701836
1.62639 2.97693 0.44545
1.7882 3.02238 -0.842229
-1.48055 5.24048 -0.343297
1.16837 5.26426 3.77358
-1.26023 3.09492 -1.99173
-0.159175 3.95718 4.50718
-1.43273 5.33152 -0.564205
-1.02402 4.0607 -2.70481
-1.04881 3.2319 -2.74488
1.62985 3.77354 0.536699
1.64123 3.95084 0.847416
-1.72502 3.9181 4.19305
1.88841 4.06593 -1.52917
1.91093 5.16307 -0.931751
-0.509254 3.51251 -4.2749
-1.52908 4.15518 -0.103569
-0.794057 5.38783 4.40986
1.85725 4.07433 -0.141572
1.93966 5.28422 -1.42173
-1.4992 5.2029 -0.19391
1.64093 4.64625 1.61454
1.77048 2.83934 -0.566518
-1.80538 4.18566 3.48068
1.52716 4.16513 1.99553
1.65342 4.51878 1.22244
-1.23894 5.4094 -1.76657
-1.47482 4.53397 -0.56084
0.51042 4.19394 4.53109
-0.896513 4.37547 -3.26659
1.06899 3.02403 3.45387
-0.674394 3.02815 -3.93523
-1.66949 4.06009 1.4349
1.31043 4.47947 -5.76677
1.64319 3.7641 0.941493
1.82641 3.25391 -0.942529
1.77967 5.49594 0.580709
-0.996603 3.54629 -3.06101
1.6985 2.64911 -0.190879
-1.32331 3.25713 -1.66485
1.54533 4.90294 2.11578
1.43482 4.73034 2.65829
0.161637 3.88914 -5.79773
1.64003 5.30566 1.67735
-1.52209 3.17163 4.33941
1.45497 5.81215 2.75803
1.87983 3.98922 -1.09521
0.707688 2.93278 4.45806
1.93761 5.86424 -0.557317
1.66952 4.22797 0.46825
1.64273 3.6581 1.05861
-1.58016 4.55974 0.763805
1.90453 4.44276 -1.28131
1.69771 5.17158 1.10504
1.93202 5.04822 -1.22013
-1.54049 5.44868 0.556121
-0.407857 2.16954 0.159245
-1.25645 3.96917 4.38518
-1.4571 5.85664 -0.0928672
-1.50578 4.91362 -0.145966
-1.56776 3.26548 -0.288427
-1.33945 3.84662 -1.56626
1.27931 3.79962 2.85661
-0.121574 3.14215 -5.79441
-1.05866 5.83745 4.33115
1.57532 2.97328 0.681042
1.76329 3.30426 -0.105617
-1.67865 3.21368 1.50987
-1.51931 5.10544 0.141946
-1.4268 5.00982 -0.821404
-0.876159 4.13444 4.41702
1.45112 4.24162 2.33435
1.92224 5.29585 -0.956536
1.86227 4.69646 -0.427758
-1.47148 3.21183 -0.870178
1.69653 5.45542 1.485
1.01022 3.75647 -5.72905
1.85268 4.15096 -0.687657
1.88736 5.08364 -0.387285
-0.120304 3.91223 -5.78397
1.65269 4.08228 0.805275
-0.386311 3.5018 4.49008
1.23971 3.38401 2.84143
-1.47391 5.79065 0.175808
-1.60352 4.64508 1.06493
2.35644 3.38499 -5.2937
-1.31118 3.02758 -1.80958
1.23582 5.03081 3.40344
-1.55494 5.71493 0.884378
-0.343434 4.26192 -4.95005
1.80403 5.87457 0.372716
1.38833 5.00515 2.86201
-1.87265 4.4508 4.05757
1.54795 5.21183 2.20449
-1.23079 5.71229 -1.68585
1.63639 3.89666 1.05057
-1.52967 3.73567 -0.0936676
1.8314 3.61624 -0.891403
1.79207 3.12692 -1.04864
1.62863 4.05369 0.59624
-1.518 5.10081 0.289017
0.712266 5.70617 4.50757
1.82636 3.3729 -1.36126
-1.35099 5.35268 -1.23565
1.75315 4.89399 0.709448
-1.54662 3.07531 4.34839
1.24323 3.95782 2.96175
1.7001 5.55155 0.88605
1.9045 5.0854 -0.93629
0.452747 4.72599 4.53857
1.89878 4.98934 -1.02054
1.71287 5.28708 0.709171
1.57058 3.28619 -5.62445
-0.726077 5.58594 -3.37129
0.895983 4.23027 4.47139
1.89457 4.88921 -0.211279
-0.768104 3.64864 -3.60806
0.729787 2.56724 -5.77711
-1.63295 3.05097 0.274111
1.56067 2.89758 0.67697
0.447328 4.37606 -5.82546
-1.09368 3.84929 -2.47137
1.65173 3.22823 0.323204
1.65026 3.76762 0.384448
0.162273 2.82389 -5.80603
-1.17747 3.14159 -2.17738
2.42881 5.08627 -5.45267
1.98757 5.35784 -1.86826
-1.44882 5.81847 -0.399724
-0.668112 5.64323 4.43152
1.98859 5.65647 -1.08842
-1.38312 5.0045 -1.09497
1.05086 4.2895 4.04901
1.57057 3.21765 -5.62364
-0.115722 4.83621 -5.52039
1.70031 2.81084 -0.107819
0.28672 2.89618 4.51714
-1.4207 4.76705 -0.918116
1.31173 4.77256 -5.77331
1.87263 4.36997 -0.25237
-1.2219 5.79356 -1.68857
1.65272 3.54401 0.307679
0.522847 3.48499 4.50747
1.45885 5.73747 2.73744
0.449407 4.11911 -5.83806
0.162043 2.99468 -5.80969
-1.69017 4.50351 4.17005
1.87124 4.76581 -0.334131
-1.3211 4.26138 -1.62821
-1.61606 4.92369 0.907686
1.81521 5.59922 0.45726
1.7765 5.24996 0.549401
1.61097 4.20635 1.32894
-1.70312 2.92599 1.56467
-1.14659 3.75786 -2.21576
2.12409 2.57903 -5.4762
-1.06276 2.74195 -2.78096
1.81257 3.61725 -0.292407
-1.60006 4.24269 0.377274
-1.51013 2.77224 -1.02747
-1.49301 3.78982 -0.647173
0.277272 4.79883 4.53733
-1.54351 3.8521 0.145524
-1.52642 4.69568 0.0317058
-1.24922 3.48951 -2.02801
-1.39794 4.8744 -1.03174
1.57318 4.60448 1.75486
-1.65813 5.27766 4.15667
-1.26184 5.12541 4.32678
1.78378 2.9987 -0.931779
-1.55619 3.52894 -0.297207
-1.40075 5.00941 -0.922076
-1.37482 2.86051 -1.58566
-1.68791 3.45458 1.44353
1.81708 2.83748 -1.62963
1.07469 5.13739 4.18546
1.34028 2.91544 2.33878
1.50347 3.83986 1.97221
-1.67046 3.80244 1.50984
1.94964 5.42712 -0.800084
1.35422 3.33412 2.44833
1.75163 2.7465 -0.6629
-1.34878 5.7661 -1.032
-1.15485 2.85662 -2.22566
0.279624 3.83346 4.52539
0.0627894 3.81635 4.54209
0.729109 2.91523 -5.77131
-0.979212 4.51755 -2.99827
-1.8774 3.40762 4.11322
-1.5527 3.49865 -0.382994
1.77208 5.30975 0.265344
1.54933 5.83902 2.39008
-1.48014 4.89489 -0.386627
1.70018 4.3924 0.167583
-1.44564 2.65597 -1.13183
1.83387 3.90827 -0.414128
-1.58866 4.3765 0.64513
-1.35521 4.41678 -1.50523
-0.986307 3.42633 -3.08827
1.80275 2.8285 -1.11129
1.50702 3.0694 1.64177
0.200939 3.25813 4.52996
-1.14656 4.25876 -2.20871
-1.37314 4.38848 -1.3757
1.60077 3.25477 0.75159
-1.15551 3.64737 -2.23022
1.89786 5.27614 -0.098894
1.57035 3.35375 -5.62525
-1.56715 3.55635 -0.0269215
1.52556 3.95811 1.90551
1.01599 4.19291 -5.76416
-1.54235 3.87288 0.0959468
2.1658 5.41523 -5.58384
-1.62394 3.19468 0.593122
1.83084 3.53643 -1.1227
-1.33269 5.33223 -1.30352
1.64031 5.17147 1.72821
-1.34534 4.9065 -1.34061
-1.24328 5.5824 -1.6659
0.446217 3.71657 -5.8027
-1.3186 4.67423 -1.5352
-1.69167 3.37205 1.39816
1.20107 3.5214 3.03001
1.9797 5.55642 -1.10127
-1.51792 5.24979 0.301736
1.60101 5.29965 -5.73413
-0.99432 3.7802 -3.05994
1.90068 4.4321 -1.17567
-1.89201 2.97195 4.12885
-1.5169 4.25449 -0.195876
1.68063 4.46528 0.3985
-1.47836 4.3321 -0.74626
1.55297 4.46337 2.11514
-1.62734 3.29664 0.689764
-1.6875 3.83207 1.31667
1.96075 5.08793 -1.69546
-1.41518 4.13216 -1.01794
1.17452 5.40887 3.80275
-0.982864 3.31714 -3.10495
-1.44369 5.09059 4.27403
1.7983 3.16034 -0.545841
-1.38825 5.42273 -0.94344
-1.49783 5.6965 -0.00305204
-1.02615 5.3374 -2.53512
1.5674 2.67382 -5.61259
1.67889 4.08821 0.326747
-1.62926 2.87743 0.417476
1.31511 4.76668 3.12768
-1.71536 3.19616 4.29975
-1.87387 4.21807 4.11663
-1.08871 5.32575 4.34492
-1.63678 3.37682 0.737826
1.85195 3.79839 -1.04187
1.79482 3.30813 -0.625191
1.93364 5.35338 -1.03801
1.25329 5.37234 3.43887
-0.115403 5.12946 -5.49651
-1.60497 3.49874 0.242157
-0.626202 5.13645 -3.74046
-0.0383171 3.34634 4.51541
1.96116 5.60776 -0.818552
1.80508 3.50943 -0.142268
-1.54252 3.27487 -0.107368
0.992824 3.07459 3.86273
-1.31802 3.93891 -1.61509
-1.39337 5.24742 -0.95102
1.96578 5.38469 -1.22858
-1.67503 3.99652 1.30269
-1.40809 4.56503 -1.13157
-1.4322 4.7297 -0.757116
-1.68326 4.89243 4.14856
1.65048 4.14194 0.545932
-1.24064 5.49247 4.3268
1.16498 5.04691 3.78479
-1.51377 5.18198 -0.0522187
-1.52768 3.79959 -0.365322
-0.658001 4.35091 -3.84312
1.84421 2.8789 -5.54328
-1.5357 2.81359 -0.6965
-1.56902 5.6512 1.12598
-1.66782 4.20307 4.23512
1.88224 5.21478 -5.66249
-0.347125 4.05916 -4.96412
-0.352192 3.36333 4.48272
1.79822 3.48513 -0.199511
-1.17224 3.86169 -2.16658
-1.46626 3.46424 4.32741
-1.51057 4.6164 -0.201087
-1.74891 2.99413 4.25224
-0.387182 5.85035 4.45125
-0.984384 5.73324 -2.58169
-1.56235 3.47446 -0.291842
-1.61304 4.72846 1.13074
-1.62911 3.58306 0.272956
-0.659043 3.38182 -3.94779
-1.40781 5.23565 -0.894061
1.36256 4.88012 2.9129
-1.39796 3.34705 -1.44465
1.62982 4.28273 1.28588
-1.39334 5.93234 0.194318
-1.55274 3.54361 -0.195715
1.7631 2.93927 -0.690866
0.158509 4.73163 -5.81393
1.80048 3.07211 -0.506928
1.86649 3.92509 -0.992777
-1.56314 3.36432 0.154943
-1.5274 3.68687 -0.139104
-1.60111 2.78891 -0.337295
1.82442 5.75209 0.0873265
-1.56184 3.0277 -0.408162
1.86368 3.93205 -1.41687
1.03758 5.43335 -5.82315
1.87937 4.58858 -5.6435
1.58062 3.55249 1.47624
1.31746 5.3458 3.12389
-1.64579 4.09743 0.864857
-1.02025 4.31231 -2.69629
1.69906 4.4457 0.119604
1.84983 4.26699 -0.0782584
-1.64125 3.72847 0.72057
1.90292 5.26203 -0.16163
1.82912 5.51099 0.399641
1.61173 3.4041 1.01219
1.00904 2.90684 -5.72222
1.58704 4.0423 -5.69088
-1.45791 5.34246 -0.430087
-0.886496 4.6908 -3.23417
1.89738 5.00197 -0.158663
-1.53942 3.93772 0.0964208
1.43204 4.18827 2.4244
0.254625 4.35585 4.53617
1.9755 5.56123 -1.64302
1.97049 5.56878 -0.729479
-1.47948 4.3844 -0.698873
1.77499 5.29578 0.13196
1.89488 4.55868 -1.03561
-1.36478 4.11101 -1.3838
-1.40276 4.21061 -1.25231
1.91588 5.05429 -0.857287
-0.743166 5.48403 -3.35145
-1.51649 5.30011 0.176447
-1.37932 3.40245 -1.5251
0.730027 4.47948 4.52615
1.00874 2.80521 -5.72039
0.162334 2.71296 -5.80309
-0.659007 4.14123 -3.90162
-1.47901 5.67801 0.316451
-1.5623 3.38109 0.0971725
1.38346 3.97013 2.57074
-1.35922 5.20627 -1.15407
-1.04906 4.39718 4.3181
1.38626 5.26864 2.899
-0.38657 2.18442 0.154903
-1.45872 3.82513 -0.836561
1.84773 3.7103 -1.18428
-1.36818 3.00717 -1.54058
-0.502933 4.36205 -4.18128
1.89543 4.32727 -1.3181
2.11897 2.70086 -5.46304
-1.28356 3.17356 -1.83315
-1.65044 2.75132 0.534065
-1.44592 2.72784 -1.18621
0.654591 3.8697 4.55548
1.43632 5.74176 2.81725
-0.464897 4.90245 4.46344
-0.122013 3.655 -5.79137
-1.03305 5.90441 4.31465
0.920535 3.78519 4.50659
1.63457 4.13393 0.61614
1.43434 3.87626 2.16943
-1.4709 4.43714 4.29267
-0.662235 4.03775 -3.90897
-1.23378 5.21524 -1.74882
-1.53962 3.71878 -0.410026
1.16084 3.26946 3.20828
1.56445 2.85908 1.16582
-1.70646 3.19374 1.28129
1.76465 5.00558 0.404378
1.39216 4.60525 2.73866
-1.69132 2.81625 0.875298
1.23781 2.85376 2.62723
1.60132 3.3213 1.03116
-1.39225 5.49301 -0.932302
-1.51204 4.23913 -0.318081
1.62574 5.15719 1.84908
-1.49588 2.78351 -1.09173
-1.51386 4.88389 -0.0884075
-1.4952 5.49542 0.324622
-1.43088 4.28001 -0.973773
-1.42286 4.85584 -0.915999
-1.51809 5.17172 0.296487
1.507 2.82416 1.48407
1.64327 3.83578 1.24152
-1.60333 4.63256 0.978043
1.78176 5.39404 0.113173
1.68479 5.59173 1.5905
-1.60072 3.5672 0.201082
1.28661 3.00947 -5.66289
-1.53659 3.97287 0.0551725
-1.43667 3.81703 -1.22477
-1.01898 4.94229 4.38101
-1.50014 5.34749 -0.130154
-1.64234 3.2739 0.368852
1.02308 4.80071 -5.79912
-1.46752 2.76629 -1.14249
-1.51617 5.02335 0.21108
1.53445 4.35651 2.12456
-0.584627 4.6657 4.4486
-0.591208 4.21317 4.49594
1.82112 3.30655 -1.15684
-1.3813 4.02048 -1.32459
-0.624124 5.42235 -3.69876
-1.71913 2.95471 1.48113
1.68509 3.07811 0.0740292
1.93606 4.71531 -1.59691
1.66342 3.11306 0.228063
-1.72436 3.4442 4.23594
-1.30765 5.17426 -1.46621
-1.55552 4.15591 0.202874
-0.222319 4.01038 4.50294
1.66629 4.16759 0.48656
1.26009 5.44531 3.44582
-1.31866 3.81852 -1.65413
1.58098 2.97259 1.21511
-1.47831 5.00992 -0.379588
1.61519 3.59388 0.674777
-0.116455 4.06303 -5.79381
1.65205 3.79335 1.12064
1.48233 3.56984 1.96129
1.61035 3.67307 0.744386
1.76377 2.71558 -0.984197
-0.780349 4.08153 -3.52634
0.162643 3.58239 -5.82163
1.29559 3.86722 -5.70134
-0.480301 5.23329 -4.04475
1.86155 4.52172 -0.453346
-1.67463 3.05166 0.849077
-1.63375 3.46833 0.733556
-0.117815 5.04509 -5.53929
1.96762 5.45952 -1.49216
-0.78076 3.7989 -3.59171
1.39244 5.19027 2.88544
-1.44247 5.55593 -0.460903
1.54529 5.29529 2.22202
-1.63038 3.66011 0.59513
-0.913484 3.08145 -3.27814
1.66272 5.5392 1.63828
1.41035 5.76603 2.92535
-1.63111 4.66853 1.30353
-1.51315 5.043 -0.0160342
1.83766 3.38413 -1.47755
1.58045 3.14723 1.26221
1.8213 3.60253 -0.458428
-1.5171 5.07181 0.0746361
-1.61617 4.12793 0.635157
1.71071 5.65906 1.19686
-1.5837 5.04517 0.778968
1.64297 3.84886 0.980737
-1.46988 4.71006 -0.540475
0.24963 4.22789 4.53592
1.31134 4.72548 -5.77157
1.64582 4.58563 1.15024
-1.53081 3.23457 -0.588202
-1.48906 2.87534 -1.13004
-1.49081 4.41976 -0.553206
-0.459016 5.58523 -3.9609
1.71045 5.73375 1.54885
-1.62328 3.75913 0.405688
-1.27567 4.99834 -1.62637
-1.51612 4.9873 0.257448
1.55344 4.55674 2.13364
-1.44068 3.36889 -1.20933
1.12023 5.78522 4.32537
1.22275 3.41335 2.92358
1.79562 3.2689 -0.515886
1.59409 5.04065 -5.70913
-1.63941 3.05318 0.520117
-0.933731 5.10739 -2.9807
-1.30352 5.26558 -1.45563
1.33738 3.83644 2.70164
-1.50748 4.06377 -0.243815
-1.32384 4.49653 4.37713
-1.50899 4.05305 -0.316511
-1.02853 3.8687 -2.7062
-1.51451 5.7897 0.61664
-1.61833 2.87894 0.291284
1.69785 4.51474 0.180796
1.30035 4.37181 3.08059
-1.59554 5.17064 0.93753
-1.42211 5.59924 -0.614005
-1.47597 5.61178 -0.195748
-1.74692 3.34343 4.25159
-1.08395 3.99769 -2.45756
1.75142 4.86627 0.556166
-1.702 4.57787 4.14564
1.63018 3.49635 0.74357
1.98589 5.80714 -1.17856
1.27182 2.90649 2.56761
-1.19044 3.20335 -2.15892
-1.63544 4.54645 1.427
1.87177 3.93253 -5.62179
-1.55815 5.73566 0.960623
-1.64425 4.02333 0.846094
1.95676 5.48141 -0.947909
0.652882 4.92667 4.53787
-1.52963 4.14004 -0.482735
1.88014 4.65404 -0.122923
1.52112 4.84668 2.17069
1.60494 5.441 -5.74812
-1.31628 5.73645 -1.24792
-1.6048 5.41419 1.17354
1.90055 4.2026 -1.61255
-1.72506 2.93322 1.20423
-0.573375 5.15418 4.44975
-0.880948 3.45459 -3.30346
1.16725 5.23055 3.77025
1.80697 3.09409 -0.890724
-1.67932 3.55876 1.06849
1.84934 3.22799 -5.55908
-1.50754 3.58371 -0.631826
-1.84243 2.77775 4.05034
1.31613 5.10612 3.12752
-1.38911 5.83987 -0.796878
0.498846 4.66131 4.53411
-1.05618 5.12126 -2.4155
1.73867 2.69728 -0.700031
-1.65842 3.95858 1.04498
1.68289 3.4271 0.13736
1.7085 5.14095 0.809539
-1.61572 4.2853 0.831123
1.00799 2.70614 -5.7168
0.449269 5.13488 -5.84555
2.40104 4.70447 -5.39745
1.29512 3.8307 -5.7
-1.64093 3.27314 0.43212
1.89336 4.36089 -1.15546
-0.588079 3.90027 4.45294
1.56474 4.40714 2.00583
-0.349404 3.53025 -4.99714
1.83051 3.83911 -0.262024
1.57485 5.2499 2.13408
1.87923 4.7445 -0.231148
1.82533 3.42848 -1.27728
-1.33786 4.34455 -1.57363
-0.744936 5.18137 -3.39054
1.38547 4.46327 2.70228
1.89515 4.8923 -1.06663
1.28632 2.90841 -5.66126
-0.85376 5.25824 -3.12044
-1.05545 4.80694 4.38909
0.732017 3.71501 -5.79473
1.70703 5.34403 0.896561
1.75371 5.79682 0.651268
1.46688 5.6235 2.64123
-1.56363 5.65999 0.93864
-1.51841 4.77259 -0.0992743
-1.51423 5.11674 -0.0367771
1.82843 3.90676 -0.317346
1.55296 3.70929 1.70666
-1.63946 3.21724 0.427759
-1.06985 3.92652 -2.56435
-1.45149 5.54449 -0.403987
1.67582 4.15553 0.400306
-1.46225 5.70192 -0.220012
-1.27905 4.13359 -1.87266
1.89189 4.78671 -0.0846292
-1.50602 5.07024 -0.0928982
1.82211 3.34068 -1.26295
-1.87656 3.82056 4.09189
1.78885 3.09356 -0.667923
1.10804 3.59633 3.58829
1.77677 3.29512 -0.167328
-0.556774 5.3017 4.43422
1.80636 3.19271 -0.395828
-1.29751 4.68887 -1.62786
-1.62339 4.14455 0.710079
-1.41759 4.6787 -0.906226
-1.57451 4.76088 0.65619
1.68782 5.76502 1.705
-1.45901 5.2439 -0.460703
1.93854 4.43935 -1.71628
-0.257121 3.61722 4.50627
1.87114 4.306 -5.62607
-1.49013 4.95801 -0.25408
1.89967 3.92616 -1.79707
-1.34106 3.56319 -1.64065
-1.49019 5.43893 -0.123219
0.734869 4.51933 -5.81689
-1.46045 5.62807 -0.306099
-1.2841 3.44171 -1.86844
1.40563 4.23106 2.54585
0.00684509 3.91599 4.5356
1.56076 4.06446 1.77705
0.445784 3.04747 -5.79346
1.3455 3.14458 2.3954
1.00699 3.50193 -5.71085
-1.49177 3.2268 -0.78342
1.66999 3.49764 0.194392
1.94048 4.41261 -1.82826
-1.56314 3.11962 -0.148806
-1.88573 3.97453 4.08353
-1.32685 5.26438 -1.3318
-1.39945 4.32686 -1.28684
-0.133977 4.42072 -5.63078
1.86095 3.88371 -0.639417
1.30873 4.26844 -5.75433
-1.51551 5.28286 0.111477
1.69146 4.11002 0.183792
-1.56908 3.4312 -0.0175266
1.51634 4.50592 2.21774
1.84481 3.12395 -1.38646
1.3883 4.05916 2.57238
1.69713 5.44236 0.960785
-1.57335 4.99479 0.645305
-0.978387 4.36656 -3.03057
-1.26538 3.81827 -1.9254
1.88745 5.06782 -0.320412
-1.51923 5.16813 0.171504
1.60995 5.66769 1.96919
-1.66667 5.58699 4.2007
-1.11408 5.58877 -2.06463
-1.62437 3.73154 0.491873
-0.450434 5.41122 4.44367
1.60309 5.38536 -5.74128
1.63363 3.89988 1.2716
-1.66903 4.99241 4.15289
0.276516 5.38107 4.52267
1.88982 5.36329 -0.403959
-1.43166 4.4971 -0.884021
1.84016 3.70319 -1.07145
2.33826 3.24912 -5.25178
1.61228 2.82359 0.402128
-0.772451 4.32449 -3.50701
-1.40734 5.6809 -0.849832
-1.29937 3.72653 -1.73749
-0.150744 5.61189 4.5044
-0.406608 4.80353 4.47343
-1.34912 5.5144 -1.27562
-1.18542 5.18663 -2.0124
1.86931 3.84228 -0.722072
0.741381 5.32817 4.51038
-1.55448 5.53669 0.696258
-1.61625 2.78915 -0.204437
-1.55061 3.28538 -0.179655
1.7459 5.44149 0.616312
1.64969 4.62494 0.582146
-1.49803 5.10153 -0.153744
1.01524 4.34439 -5.75808
-1.54533 3.16121 -0.482626
0.498604 4.30062 4.53631
-1.48799 5.1261 -0.284769
-1.46157 4.59579 -0.615123
-1.3951 3.14663 4.36474
-0.44286 3.29316 4.49617
1.79602 2.9114 -1.29763
-0.53266 2.85145 -4.28567
1.76879 3.37325 -0.0647141
1.962 5.4722 -1.09441
2.15535 3.95025 -5.55012
-1.54792 4.87548 0.42687
-1.68766 3.89915 1.41144
-1.68283 2.89163 0.83973
1.77613 3.01189 -0.66839
-1.06857 4.07761 -2.52832
1.63059 3.64608 0.838106
-1.19017 5.025 -2.01483
1.95689 5.31018 -1.53551
-1.01878 5.41577 4.36504
0.713486 5.52702 4.51626
0.729011 4.9837 4.51119
1.0154 4.39468 -5.75679
-1.66719 3.12859 0.830931
1.43029 2.7916 1.78271
-1.16547 3.5519 -2.2365
0.0403064 2.76288 4.39313
1.65723 3.05872 0.220609
1.97393 5.78156 -1.00455
-1.40588 5.7692 -0.7857
2.37918 3.89961 -5.34173
0.652919 4.68907 4.52783
-0.82361 4.21176 4.42981
1.71026 5.38846 0.68716
1.57852 3.04009 1.12375
1.8276 3.48613 -1.2028
2.12561 3.33619 -5.47846
1.38674 3.38326 2.30135
-1.46228 3.48669 -1.11074
-1.56196 3.25933 -0.374607
-1.76304 5.13711 3.78192
2.4001 4.8022 -5.3928
1.90716 4.56667 -1.45386
2.14564 3.73001 -5.52936
-1.31819 2.94909 -1.83779
1.56016 3.1456 1.37244
0.162432 3.83063 -5.80359
1.62464 5.46077 1.83444
-1.55155 3.3108 -0.0182407
-0.348555 3.67477 -4.98554
-1.64314 4.28647 1.22443
1.95075 5.82572 -0.911953
1.11934 3.79 3.61725
-1.46244 3.34605 4.33204
-1.56463 5.05824 0.611782
0.450629 4.36389 4.53171
-1.57598 4.69309 0.664025
2.38268 3.66329 -5.35119
1.62414 3.37385 0.485407
1.31698 5.00971 3.11882
1.93718 5.39772 -0.947705
-1.65702 3.67323 1.16351
-1.0847 3.31489 -2.52243
-1.06749 2.66979 -2.52293
1.07454 5.08768 4.18113
-1.57158 3.01545 -0.0938854
1.62819 3.29756 0.915171
1.76163 5.31819 0.19418
1.67932 5.78582 1.77501
1.40369 3.8065 2.25544
-1.45228 5.86161 0.0851614
1.73004 5.64565 0.682
-1.68216 3.71118 1.31725
0.0443078 5.15671 4.51935
1.69303 4.28381 0.226768
1.27613 3.03862 2.65202
1.55533 3.01655 1.40155
-1.55902 5.1705 0.614
2.11848 2.92582 -5.46203
1.62263 3.63712 0.499314
1.66841 4.48494 0.479398
1.32986 2.75179 2.14214
0.918343 5.60523 4.4663
-1.49548 3.4788 -0.71754
0.980305 2.87077 3.8384
0.923508 3.64658 4.49834
-1.44228 5.63042 4.28527
1.79743 2.98807 -1.14074
-0.664831 3.74841 -3.90335
-1.45569 5.06686 -0.516592
-0.784963 3.4398 -3.51894
1.62395 4.84545 1.77703
0.382591 3.1133 4.54998
1.55842 5.00262 2.09285
-1.52829 4.48258 0.120252
1.89719 5.35696 -0.335318
1.64936 4.34694 0.953818
-1.35739 2.78793 -1.64563
1.55784 4.172 1.87222
1.45504 2.78211 1.68224
1.79819 5.87159 0.194373
0.161885 4.15752 -5.7969
-1.33017 3.98223 -1.57254
-1.51798 5.04349 0.281326
1.735 5.17172 0.278086
1.56887 4.55004 0.723666
-0.886771 3.90454 -3.28757
-1.30578 2.87702 -1.89762
1.02062 3.58675 3.97385
-1.47886 4.46684 -0.597292
-1.29403 2.98881 -1.90832
1.63937 3.05315 0.369585
-1.48809 5.0188 -0.244026
1.668 4.35545 0.454926
-1.63851 3.05755 0.601122
-1.35535 3.18056 -1.58076
0.516296 5.06537 4.53735
-1.52369 4.60667 -0.0399607
-1.60446 5.1134 1.15959
-1.68626 3.65792 1.46975
1.00111 3.2967 3.89567
-1.71936 2.74541 1.37803
-1.47767 5.67859 -0.160585
1.57898 4.50132 1.74684
1.90697 4.71263 -0.771892
-0.813649 4.47221 4.41198
1.69285 5.13923 0.880889
-1.63296 4.14463 0.788808
-0.386372 2.18053 0.158865
-1.49192 3.8585 -0.656078
1.96447 5.66001 -0.494482
-1.51529 4.03549 -0.564526
1.26905 3.3216 2.72635
-1.66606 4.07615 1.47162
-1.27069 4.30695 -1.90483
-1.58229 5.31828 1.40342
-1.32853 5.39771 -1.32211
-1.63394 3.5919 0.438918
-0.605576 3.43271 4.49307
-1.57421 4.62686 0.715289
1.43408 5.29454 2.71591
1.89291 5.12964 -0.200316
-1.49957 5.30221 -0.184347
-0.415639 5.27058 4.4402
-1.8634 3.69252 4.11032
1.70479 3.99775 0.124003
1.47161 4.92048 2.35073
-0.121895 3.27874 -5.7976
-1.48877 5.56046 0.10122
0.211271 5.61126 4.52349
-1.70194 2.75433 0.869516
-0.963489 4.6602 -2.9938
-1.48518 5.62523 0.167722
1.6551 5.89392 1.92474
1.75499 5.82869 0.731615
1.56377 3.24541 1.38729
-1.51783 5.09706 0.0219169
-1.25014 5.50779 -1.66977
-1.36643 4.60919 -1.32774
0.896941 4.10808 4.47311
-0.365188 3.83781 4.47962
-1.34181 5.21863 -1.2634
-1.13752 4.7008 4.36719
-1.52365 4.37857 4.26605
0.449767 3.92468 -5.82997
-1.4558 5.70896 -0.406389
1.90044 5.21992 -0.22237
-1.5247 4.63465 0.0327997
-1.64446 4.36006 1.47745
1.67606 4.3803 0.384603
-1.63301 3.37242 0.607989
-1.3797 5.08681 -1.08162
1.82705 5.09779 0.0319718
0.897241 4.47442 4.45585
1.6807 5.2022 1.28691
0.160407 3.94767 -5.79772
-0.770127 4.76955 -3.51578
1.47243 2.68119 1.16683
1.78576 2.79602 -0.988194
-1.5245 4.93573 4.23677
1.71761 2.99271 -0.092107
-0.590301 3.20273 4.49534
1.79166 5.72576 0.233376
1.3197 4.95949 3.11541
1.09337 5.50852 4.25766
1.82351 2.94528 -1.62907
2.40373 4.95657 -5.39731
1.84511 4.04934 -0.280923
0.680727 2.80437 4.44933
-1.4662 5.82855 0.490918
1.29279 3.67666 -5.69126
0.162481 3.34893 -5.81839
1.90744 5.39449 -0.195286
1.67172 3.87281 0.239099
0.162636 3.11854 -5.81325
-1.56668 5.33749 0.778223
1.29765 3.15681 2.60461
-1.47451 3.13697 -1.17008
-1.43526 5.70522 -0.554255
-1.6117 4.87495 1.03841
1.91215 4.27637 -1.67091
1.9285 5.43273 -0.591821
1.67818 2.80886 -0.0313725
1.71549 5.29688 1.47352
-1.39474 3.58667 -1.51663
-1.65428 4.27851 1.4241
0.404081 3.42474 4.51511
-0.670431 3.57501 -3.89086
2.16227 4.396 -5.57406
-1.26435 2.99421 -2.01013
1.82642 3.28067 -0.859897
-1.34148 5.45287 -1.29121
1.86435 4.2102 -0.207857
1.86953 3.68622 -1.69425
1.89714 4.00946 -1.74898
1.43678 2.96572 1.99864
0.673763 3.692 4.54112
-1.52531 4.75869 0.263218
-1.40026 5.594 -0.906308
-1.19083 2.80007 -2.15865
-1.36303 4.32655 -1.44907
1.80365 3.45182 -0.680453
1.8402 3.3797 -1.56223
1.60261 3.62218 1.41907
1.79126 3.42302 -0.162271
-1.1545 5.38574 -2.00749
0.900945 4.67843 4.41393
1.61801 3.77392 0.816244
1.88125 4.81004 -0.261888
-1.47169 5.21897 -0.403606
0.733281 4.15904 -5.80441
-1.41593 3.61347 -1.30481
1.34846 3.61055 2.55999
-1.49733 5.62139 0.458907
-1.63584 4.31356 1.03879
-1.61633 2.89281 0.225934
-1.52577 4.05894 -0.439501
1.45126 5.65244 2.74419
0.728761 3.00511 -5.76861
1.9115 5.7175 -0.107792
-1.45881 4.13135 -0.863423
1.62852 3.34471 0.838244
-1.03041 3.74508 -2.72091
1.60076 4.02628 1.43367
-1.46278 3.33302 -1.14716
-1.67302 3.19213 0.88811
-1.30388 5.28509 4.31274
0.718511 3.02117 4.45927
-1.45004 5.78364 -0.459287
-1.41224 3.26646 -1.31099
1.85367 4.32526 -0.500213
-1.89472 3.63436 4.08158
1.85485 4.44609 -0.561175
1.4924 2.85259 1.62653
2.37229 4.07334 -5.32681
-0.447163 3.88584 4.47026
1.36085 4.10683 2.64838
-1.59594 4.43411 0.869782
1.01808 4.62269 -5.77686
1.02275 4.98187 -5.7967
-1.65677 4.21551 1.48868
-1.64356 3.02982 0.685268
1.96977 5.53345 -0.672998
0.162636 3.53603 -5.82214
-1.40177 4.14708 -1.24672
1.90608 4.50212 -1.19462
-1.59904 5.11739 1.27826
1.4868 4.00184 2.01553
1.8448 2.99037 -5.5452
1.87555 4.19233 -0.857551
1.44588 2.73448 1.61347
-0.833185 2.74938 -3.55044
1.69758 4.90753 0.258058
-1.48646 5.51396 -0.114919
-0.838959 5.48081 -3.12484
1.30491 4.43064 3.08854
-1.06921 4.45214 -2.44983
1.58795 4.83341 -5.68843
-1.0828 5.77601 -2.10434
1.8795 4.5993 -0.0912713
1.70041 5.3966 0.921368
-1.08213 2.95819 4.40467
1.01526 4.29638 -5.76121
1.86405 4.61493 -0.619528
-1.60547 4.28661 0.439542
-1.34876 2.61156 -1.52501
-1.51036 5.38364 0.295968
1.79371 3.1577 -0.608501
-1.43249 4.33405 -1.05744
-1.53686 4.09073 4.29837
1.54289 2.83477 0.677146
1.01684 4.06737 -5.76235
1.61828 3.5199 1.30036
1.79851 3.39692 -0.620704
-1.41559 3.4111 -1.26223
0.779113 3.69225 4.53022
-1.6299 3.69591 0.446369
-1.07101 3.34259 4.40842
1.63324 3.8271 1.3028
-1.44586 4.07853 -0.896615
-1.69695 3.18106 1.39223
-1.55948 3.38247 -0.386368
-1.1726 3.74665 -2.16932
1.71171 5.61745 1.01942
1.60011 3.11166 0.568484
1.36302 3.65649 2.49897
-0.779 3.17695 -3.55388
-0.117436 4.77757 -5.53426
-1.62428 2.94487 0.271443
2.41492 4.46697 -5.42532
-1.54757 5.52223 0.781193
-1.53384 2.98452 -0.667717
-1.58037 5.18839 0.85315
0.450445 4.67728 -5.84563
-1.63455 3.30424 0.515439
1.85225 3.84811 -0.562513
1.91502 5.24693 -0.654519
-1.66382 4.83625 4.16293
1.87652 4.15185 -1.06781
-1.39503 2.95423 -1.46463
1.262 3.68709 2.89198
-1.56479 3.77629 0.22608
1.97165 5.5331 -1.00743
-1.44866 3.79327 -0.888285
-1.45627 3.17271 -1.21543
-1.48373 5.68998 0.164845
-1.54464 4.23689 0.198705
1.36279 3.25795 2.3594
-0.36102 4.68768 4.47924
1.92778 5.28015 -0.875535
-0.637242 4.81621 -3.765
1.60175 5.34292 -5.73655
-0.351717 3.33374 -4.98461
1.62392 3.68889 1.3536
1.75937 5.56448 0.610168
-0.359008 3.05706 4.51936
-1.16164 3.70077 -2.19992
-1.4197 5.29725 -0.701918
-0.897316 3.5145 -3.26958
1.38168 4.35725 2.65459
-1.02169 4.91763 -2.61398
1.6172 4.5287 0.633039
1.07734 5.24452 4.1905
1.69091 3.88075 0.155124
2.13505 3.52065 -5.50597
-1.51431 5.37228 0.17807
0.450381 4.05218 -5.84229
-1.0479 4.63941 4.35936
-0.207173 3.32075 4.49503
-1.59141 5.3485 1.35399
1.28747 2.53355 -5.66586
0.902171 5.06922 4.42301
-1.49007 4.52803 -0.431086
-1.34358 2.84908 -1.72146
1.60321 3.04861 0.555603
-1.35965 3.10047 -1.56504
-1.6634 5.80081 4.14641
1.67389 5.49312 1.5573
1.6346 3.63497 0.433326
1.3182 5.11315 -5.80345
1.50599 2.73802 0.860826
2.0059 5.68468 -1.39239
-1.69961 3.07153 0.99003
-1.51264 3.9135 -0.477412
1.28106 3.42903 2.74254
1.77727 5.87889 0.572068
0.0662485 5.66083 4.52923
1.86019 3.48937 -5.59082
1.75283 5.37212 0.599765
-1.17312 4.38756 -2.13681
0.911912 3.29043 4.406
0.728442 3.05083 -5.76613
1.61472 3.57922 1.35373
1.68927 4.93959 1.51071
-1.61053 4.38565 0.944287
-1.52941 5.69466 0.562418
1.92006 4.64084 -1.40339
0.732134 3.78104 -5.79556
0.00569279 4.22297 4.53191
-0.643737 5.4074 4.43754
1.68927 4.88986 1.24489
2.37994 4.21468 -5.34368
0.227185 2.90378 4.50918
2.43941 5.18635 -5.4819
-1.52598 4.71459 0.168949
1.64661 3.93417 0.48569
1.66759 4.71521 0.565576
-1.51633 2.85863 -0.883195
-1.42781 5.22311 -0.764014
-0.115687 4.93368 -5.52634
1.62353 2.89919 0.434788
2.16863 4.99563 -5.59184
-1.51813 5.26467 0.240125
1.50556 2.67335 0.219032
1.86765 4.76392 -0.56255
-1.05833 3.10817 -2.78815
-1.36152 4.9247 -1.26376
-0.441648 4.47812 4.48802
1.61431 2.94437 0.49237
-1.69938 3.2537 1.33833
-1.57435 5.39417 0.896545
1.90523 4.56406 -0.834364
1.43602 5.06353 2.69643
1.91478 4.66938 -1.2182
-1.40639 4.93126 -0.946535
1.58673 3.27642 1.0783
1.73026 2.73073 -0.315962
0.0622822 3.38942 4.51704
2.33406 3.20986 -5.24144
-1.58202 4.96288 0.704595
-1.64264 2.73085 0.0124893
2.12661 2.53919 -5.48273
0.161736 4.10622 -5.7937
1.66454 3.27727 0.233226
-1.04926 2.64952 -2.6777
1.64111 3.46256 0.849712
1.87428 3.86465 -1.55203
-1.41761 4.15146 -1.1192
-1.03748 3.03693 4.43413
-1.64943 3.52867 0.890617
-1.43541 5.42262 -0.533019
-1.6289 3.82656 0.659385
1.67537 4.82127 1.22566
-1.44255 5.74493 -0.517445
-1.26087 5.17123 -1.65048
2.11791 3.11903 -5.46094
1.63525 2.8419 0.0590898
1.92816 4.97003 -1.21394
1.51105 3.23035 1.57157
-1.55891 3.37218 -0.0218041
-1.50776 5.13381 -0.0982123
0.733397 4.42801 -5.80501
-0.661285 4.07408 -3.90603
-1.74325 3.15292 4.28756
-1.52495 3.95595 -0.0616542
-1.52945 4.36019 0.116914
-1.46549 4.35424 -0.804332
-1.49577 4.89668 -0.238113
-1.69548 2.86955 1.05503
-1.4883 5.56775 -0.113334
-1.51597 4.25619 -0.396325
1.59179 3.05687 0.614466
2.11811 2.7461 -5.46064
-1.89568 4.25847 4.09288
1.80124 3.51452 -0.641057
-1.53304 4.48427 4.25991
-0.896624 3.03341 -3.33126
-1.61971 4.05629 0.441383
1.75658 5.72739 0.631205
1.61406 3.99101 0.665861
1.85706 5.64191 0.0225388
-1.19308 2.95049 -2.16754
-0.339068 4.69238 -4.85084
1.70053 5.46704 1.21159
-1.87466 3.92257 4.09277
-1.35007 4.99305 -1.33599
-1.47788 5.06539 -0.3819
-1.38813 2.68211 -1.46732
1.90689 4.48679 -1.49067
-1.48693 5.57774 0.375345
-1.41935 5.21544 -0.841756
-0.373574 4.56185 4.49517
1.63673 4.12601 1.08966
-1.59092 5.2697 1.33735
-0.636209 5.60541 -3.66395
-1.54143 3.91117 0.152106
1.59012 4.57238 0.675384
1.47384 3.34719 1.99922
1.74402 5.29265 0.614232
1.66064 4.26424 1.02214
-1.50376 3.54733 4.30796
1.79401 5.25604 0.409198
-1.51105 4.20891 -0.247387
1.90597 4.1934 -1.7107
-0.820522 3.60479 4.45428
-1.41293 5.4885 -0.676081
1.14633 4.36026 3.70101
1.52389 3.31452 1.53768
-1.42394 5.7305 -0.607727
-1.69011 2.83947 0.965656
-1.57435 3.0364 -0.155113
-1.47933 5.71605 0.271347
1.541 2.75521 0.549257
0.436931 3.71538 4.5511
-1.42659 2.82612 -1.3291
-1.52247 3.67391 4.29651
1.89687 5.35629 -0.549793
1.84852 3.94591 -0.580361
0.161861 4.21095 -5.80384
1.90896 5.45863 -0.50351
1.4472 5.35442 2.64062
0.906271 5.48569 4.4689
0.162619 3.23973 -5.81627
1.84151 2.60667 -5.53764
1.39354 4.14654 2.55901
-1.54743 3.94426 0.199567
-1.63912 4.48312 1.29416
1.14177 4.6511 3.68107
1.90121 5.46969 -0.310683
-1.63372 2.92368 0.467185
1.54466 2.86795 0.892339
-1.32071 5.77342 -1.14733
-1.64176 3.07301 0.45162
1.63063 3.36562 0.931106
1.27625 5.81588 3.51196
1.68976 5.01534 1.17748
-1.72758 2.7966 1.31525
-1.42606 4.93571 -0.857927
1.60128 5.73564 2.09836
1.68483 5.13051 1.2212
0.162533 3.39756 -5.81944
2.35156 3.35045 -5.28328
1.84681 3.70391 -1.37157
-1.53035 4.09945 -0.0674464
-1.16331 5.50169 -1.98917
1.68585 4.72499 1.5293
1.6307 3.09558 0.432266
-0.446623 5.67405 4.46444
-1.27314 3.54719 -1.93348
1.83828 3.64129 -1.46101
1.88406 5.00533 -5.65433
1.61364 3.34125 0.559501
1.8812 4.70011 -0.159233
-1.33101 4.41413 -1.59869
1.76917 5.11417 0.436894
-1.87001 4.59236 4.00783
1.74561 5.21827 0.615116
-1.65516 4.16107 1.05877
0.445122 2.88436 -5.78457
1.66419 4.71817 1.03341
1.84698 3.73609 -1.45347
1.84939 3.70594 -0.888766
-1.57347 3.42284 0.193439
-0.649451 3.98093 4.46597
-1.3185 4.759 -1.47657
-1.56812 5.60949 1.02689
1.08604 3.13405 3.44543
1.6999 4.34034 0.188969
2.35952 2.93426 -5.2999
1.64624 3.8335 0.916351
2.38679 3.72858 -5.36265
1.87816 4.59013 -0.163054
1.92329 5.34389 -0.652815
-1.29326 4.94403 4.33621
1.59594 2.80551 0.196222
-1.4788 3.02001 4.35148
-1.40404 3.08054 -1.36841
-0.520305 3.61834 4.48746
-1.51153 5.25986 -0.0423137
1.31357 2.92791 2.44984
1.18876 3.88456 3.23666
-0.851407 4.67439 4.42803
0.452482 3.52212 4.51651
-1.02333 4.22477 -2.68047
2.15822 4.58638 -5.56471
-1.14423 3.84547 -2.21135
-1.46611 5.81085 0.24559
1.56994 3.07985 1.34006
-1.41468 5.79618 -0.621892
1.63217 2.94068 0.174721
-1.64653 3.36303 0.818652
1.94539 5.43732 -0.87353
1.7556 5.24119 0.188435
1.30626 4.57358 3.13934
1.59963 3.06478 0.930041
-1.23603 3.60693 -2.05837
1.87299 4.68715 -0.261403
1.57088 3.53394 -5.62621
-1.29333 4.42953 -1.74747
1.39758 5.34959 2.86428
1.45668 3.95214 2.10299
1.95845 5.66236 -0.751739
2.42186 5.43906 -5.43957
-1.17098 5.28412 -2.00183
-1.32873 5.80822 -1.07812
-1.40001 2.85613 -1.50829
1.69195 5.90472 1.31453
1.87611 4.65282 -0.198765
1.54458 3.77125 1.8147
1.68763 4.98796 1.2575
-1.61475 4.8332 1.43606
-0.000277217 5.4476 4.50362
-1.5177 5.08325 0.339938
-1.57098 3.44993 0.0542088
1.38008 5.50485 2.94803
1.85185 3.7785 -1.3259
2.12051 2.65684 -5.467
1.89508 4.82158 -1.12656
-1.43374 4.33899 -1.15178
1.79831 3.06551 -1.20412
2.17253 5.10338 -5.60113
1.64485 5.53527 1.80987
0.731653 3.65057 -5.79203
-0.886078 4.46807 -3.26739
-1.68763 2.86229 0.916704
-1.35559 4.68585 -1.31602
-1.5242 4.53043 0.0724705
-1.28481 4.76001 -1.63945
1.65663 3.72111 0.293939
0.634916 4.0226 4.5344
-1.52656 4.49627 -0.0749967
0.47205 3.28747 4.52597
-1.37731 3.06474 -1.48878
-1.495 3.98421 -0.708888
1.90168 4.43808 -1.39337
-1.49332 5.37444 -0.18512
1.70346 5.28508 1.09013
1.2273 4.66334 3.3701
-1.61105 2.76848 -0.268738
1.25255 4.02856 2.96237
1.22958 4.58137 3.37092
0.923214 3.91664 4.48325
-1.58142 5.55028 1.21109
-1.41249 3.17584 -1.33325
-1.49154 5.52609 0.399195
-1.53589 4.41057 0.213206
-1.45861 3.68649 -1.11103
2.00559 5.75853 -1.34082
-1.58299 2.92856 -0.280552
1.77135 4.97733 0.601348
-1.38157 5.77242 -0.924452
-1.13093 5.64981 -2.02295
-1.52586 3.34228 -0.603643
1.57185 5.6236 2.2058
1.29368 3.75611 -5.69351
-1.05124 5.02955 -2.44275
-1.4013 3.24648 -1.40184
-1.32581 4.21865 -1.5988
-1.56638 4.42999 0.3598
1.64046 4.21975 0.605926
1.80433 5.78959 0.438423
-0.671972 3.16923 -3.93126
-1.68473 3.83504 4.22014
0.736811 5.11918 -5.83465
-1.46158 5.4411 -0.364853
-1.26461 3.91824 -1.93179
1.90569 5.3407 -0.146746
-1.52459 3.08605 -0.670193
-1.31821 3.41856 4.37108
-1.25914 5.741 4.32558
-0.876925 4.01525 4.42721
-1.1926 3.4521 -2.19195
1.63816 3.13919 0.392169
-1.60538 4.689 1.01284
2.11823 3.02009 -5.46152
-0.243789 2.73297 4.31166
-1.57345 3.50594 0.0811492
-1.63521 2.93886 0.543445
1.47516 3.26538 1.97054
1.35845 3.55563 2.49457
1.87511 4.84054 -0.350758
1.53517 2.79001 1.19983
-1.09321 3.39292 -2.4728
1.5812 3.05628 1.04411
-1.58508 4.65597 0.504256
1.57161 3.58999 -5.62991
-0.812019 5.50559 4.40674
-1.56305 5.579 0.944594
-1.65817 3.7568 0.80877
-1.57375 5.58117 1.11904
-0.2258 4.6941 4.52359
1.50688 2.73056 1.14432
-1.49817 5.01198 -0.145075
-1.28148 5.65675 4.33074
-1.29063 5.4992 -1.42146
1.59896 4.15025 1.40289
-1.73247 2.83489 1.39688
0.232806 4.89335 4.5355
-1.43995 2.90048 -1.24964
-1.50565 4.5658 4.27043
-1.26514 4.73012 -1.7897
-1.46315 3.92428 -0.84735
-1.60866 4.21667 0.599544
-0.669954 2.91118 -3.95564
1.81023 5.662 0.436989
-1.51849 5.57931 4.26283
-0.144696 5.69031 4.51476
-1.40629 5.16661 -0.89505
1.70977 2.86932 -0.128644
0.24944 2.786 4.44632
1.3222 5.32394 -5.82042
1.62767 5.87065 2.03239
-0.328549 5.22729 -4.77204
1.89393 5.43524 -0.427832
1.67424 4.66567 0.327152
-1.65816 4.08833 1.02774
-1.48113 4.56276 -0.484613
-1.24177 5.3 -1.73103
1.06754 2.95723 3.43482
-1.46868 3.45196 -1.03887
1.84946 3.69572 -1.27841
1.85662 4.3909 -0.505665
-1.25957 2.81175 -2.03523
-1.49716 4.96195 -0.185769
-1.58103 5.28603 0.866464
-1.51942 4.19213 4.29489
-1.64139 2.74239 0.0791773
-1.56958 2.98807 -0.0424035
1.85594 3.81482 -1.22203
1.67255 3.65093 0.195423
-1.33294 4.99529 -1.40441
-1.49892 4.49296 -0.371792
-1.47289 3.87466 -0.78971
1.88799 3.83466 -1.68842
1.49783 5.24802 2.35416
1.00852 3.19046 -5.71926
-1.46794 5.04983 -0.452925
-1.59536 2.7276 -0.333152
-1.00415 2.73562 4.13886
-1.32537 4.05106 -1.58451
0.461345 4.59553 4.52625
-0.149731 4.32655 4.55129
1.67105 3.70235 0.207901
-1.11815 5.59867 4.34608
-1.26595 3.61471 -1.96391
0.453451 3.60482 4.52639
1.93266 5.21495 -0.744012
-1.52742 4.64799 0.289011
-0.429956 5.18552 4.43887
1.43593 5.42173 2.71516
1.64918 3.76944 1.23337
1.36146 5.01931 2.96098
-1.5738 4.90129 0.599918
1.49834 5.66668 2.47043
1.66849 5.84096 1.8356
-0.657038 3.61293 4.48662
-1.68018 3.52915 1.48757
-1.01428 4.68294 -2.71289
1.56676 2.58255 -0.510386
-1.41345 4.53108 -1.03535
-1.63925 4.46716 1.40705
1.231 4.62299 3.3654
1.89615 4.8874 -0.0953322
1.2906 2.82763 2.43142
-1.66222 4.12149 1.46934
-1.62975 3.58239 0.565234
-1.65147 3.94511 0.871314
1.82296 3.756 -0.187499
-1.24012 2.95239 -2.08712
-1.44467 3.95892 -1.1115
-1.4519 3.41063 -1.1614
1.18942 5.71039 3.85032
-1.56608 3.67308 0.123398
-1.00041 2.96266 -3.08915
1.71631 5.03001 0.169318
1.7176 2.86237 -0.181884
-1.57441 5.16869 1.44752
-1.66854 3.75181 1.00554
1.57347 3.64598 -5.63957
-1.63733 4.32426 1.14118
-1.60957 4.16232 0.364433
-1.4843 5.17202 -0.337233
1.14643 4.30061 3.69899
1.29468 4.33376 3.0832
-0.85346 5.76988 4.37703
-1.68081 2.9737 0.873613
1.67898 5.07412 0.968189
1.69278 4.89957 0.13358
-1.27733 4.86022 4.34728
1.59039 4.11853 1.51197
-1.35675 3.72032 -1.58801
1.111 5.71324 4.32116
0.73346 3.92068 -5.80536
-1.55206 3.08735 -0.506319
-0.156159 4.76996 4.52453
-1.41173 5.60359 -0.833379
1.52293 2.76015 0.631946
1.5227 4.92904 2.18839
1.84288 4.07681 -0.347776
-1.53651 4.02936 0.0384957
-1.42912 5.83838 -0.49868
-1.62214 2.8542 0.369269
-1.71345 3.1204 4.3088
1.44599 4.77083 2.39549
1.98963 5.59672 -1.46247
1.7328 3.05365 -0.113692
-0.512974 3.97649 -4.19732
1.73793 2.68809 -1.21579
1.88649 4.75061 -0.139181
-1.71592 2.87465 1.51582
1.43058 4.87046 2.69006
-1.69866 3.22083 1.04799
-1.54099 3.55335 -0.444137
-0.0744306 2.98068 4.53656
0.666821 5.0526 4.52861
-0.597117 4.53009 4.44759
1.88452 4.34141 -0.765812
-1.54188 3.78194 4.28738
1.60886 3.83448 1.43093
1.6463 4.15367 0.932365
-0.763919 4.95799 -3.48748
1.57422 4.90446 2.01499
1.63799 4.16857 0.77865
1.84906 4.00575 -0.151976
1.79613 5.54286 0.14434
-1.63895 2.98352 0.488463
1.71392 5.72585 1.2077
0.0832299 5.51973 4.51873
0.2089 3.51751 4.53005
-1.69503 3.45042 1.18712
-1.45181 3.79236 -1.16257
1.83176 3.54852 -1.29049
1.86591 4.29541 -0.228863
-0.632526 3.09324 4.49767
-1.53363 2.751 -0.699436
1.68559 3.50722 0.134451
-1.62891 3.18863 0.522859
-1.41716 5.36761 -0.654257
1.44756 5.2244 2.65761
-1.48784 4.7399 -0.315427
-1.57304 3.05208 -0.215105
1.94698 5.73903 -0.776602
-1.63865 2.98686 0.375951
1.81409 3.16814 -0.920853
-1.65327 3.64334 0.857517
-1.56364 3.04495 -0.344171
1.80105 3.35808 -0.682113
-1.43169 5.63783 -0.551603
1.60164 3.90264 0.708316
1.00653 3.43991 -5.70835
-1.41138 4.82147 -0.982232
-1.64284 2.95059 0.696237
-1.66629 5.03737 4.14837
1.70379 5.24118 0.894628
-1.40927 4.60378 -1.0347
1.76702 3.23521 -0.150405
1.57057 5.33596 2.1522
-1.51299 3.85623 -0.320738
1.65295 4.27215 1.18052
1.89662 4.61743 -0.889155
1.29508 2.74544 2.28117
-1.57405 2.92448 -0.0252961
1.42454 4.7912 2.69995
-0.490305 4.82923 -4.09886
1.6194 3.41888 0.537727
-1.50271 2.91656 -1.10066
2.0362 5.71448 -1.743
-1.57115 5.45021 1.4039
1.90654 5.54485 -0.283203
-1.44438 5.41847 4.26723
-1.70832 2.96804 1.07643
0.0894619 5.24659 4.5229
1.78665 3.27287 -0.231185
-1.49293 5.51447 0.0620737
-1.45997 3.56139 -0.925447
-1.54754 5.63966 0.622894
-1.45039 3.87132 -0.877781
1.01921 5.22484 -5.79959
1.56078 4.53328 1.8698
1.57928 4.18791 1.76179
-1.52007 4.70626 -0.081801
-1.25808 4.35968 -1.96633
2.37528 4.27297 -5.3344
-1.51169 2.93009 -0.73195
-1.41499 5.35029 -0.760702
-1.47014 5.43886 -0.306386
1.83506 3.64505 -0.81416
-1.66351 3.81165 1.03612
1.88073 4.52929 -0.112017
-1.45334 4.80095 -0.685967
-1.08537 3.48493 -2.5087
-1.39279 5.1772 -0.966147
-1.35199 5.13617 -1.2723
1.44443 4.4452 2.37939
-1.62354 4.66467 1.40326
-1.71548 3.10131 1.2525
-1.8787 4.02896 4.0956
-1.5386 4.47771 0.240742
1.92526 4.73473 -1.29748
1.4211 4.6547 2.67365
-1.85835 4.70377 3.99166
-1.16007 3.48352 -2.26407
1.57648 3.88947 1.74237
1.89841 5.19654 -0.160117
1.63778 3.94051 0.987557
1.01799 5.13004 -5.78501
