1.32121 4.03768 -5.72966 0.144448 -0.0626089 -0.98753
0.669555 2.88579 -5.74586 -0.208851 -0.0978555 -0.973039
-1.12888 5.23079 -2.138 -0.966064 0.0580247 -0.251701
-0.833399 4.98899 -3.24402 -0.950816 0.0691418 -0.301941
-1.46461 5.64638 -0.233137 -0.992944 0.0673468 -0.0976062
-1.66824 3.22603 0.8462 -0.995817 0.0442397 -0.0799511
-1.47984 2.73322 -1.09268 -0.981298 0.0376338 -0.188779
-1.88349 3.67346 4.09999 -0.403017 -0.0368777 0.914449
1.62812 4.01034 1.10258 0.994129 -0.0583022 0.0911449
-0.524024 5.28326 4.46137 -0.130913 0.0371338 0.990698
-1.50166 3.56679 -0.678392 -0.991937 0.0437353 -0.118947
1.82081 3.20661 -1.24915 0.994074 -0.0944803 0.0537593
1.6923 5.049 0.962722 0.993352 -0.061831 0.0970996
0.439047 5.69892 4.58275 0.394705 -0.034088 0.918176
-1.16273 5.68669 -1.93123 -0.969197 0.0538308 -0.240332
1.66315 4.36437 0.411072 0.989416 -0.0536809 0.134815
-1.34065 4.58548 -1.47224 -0.977146 0.0486472 -0.206927
-1.54984 3.94376 4.27986 -0.340904 -0.0200995 0.939883
-1.68149 3.79049 1.53052 -0.998407 0.0529883 -0.0193595
-1.40433 4.41211 -1.14553 -0.985231 0.0448682 -0.165248
1.58942 5.54596 2.09839 0.984192 -0.0401649 0.172492
-1.45364 4.25161 -0.881457 -0.990269 0.0415151 -0.132826
-1.48244 3.80534 -0.771644 -0.991503 0.0414959 -0.123291
-1.41699 5.69947 -0.659893 -0.989603 0.0618622 -0.129843
1.9664 5.68952 -0.806479 0.992981 -0.0778608 0.0890263
-1.6237 3.6883 0.508251 -0.994259 0.0416806 -0.098549
-1.59635 3.19469 0.138861 -0.994267 0.0493639 -0.0948465
-0.883328 4.18497 -3.26568 -0.954952 0.0461057 -0.293158
-0.683916 3.45759 -3.91774 -0.945894 -0.0104476 -0.324308
-0.337066 3.02646 -5.04261 -0.707248 -0.114813 -0.69758
-1.6114 3.34582 0.354841 -0.994283 0.0441164 -0.0972401
-1.06301 4.3839 -2.54084 -0.963401 0.0436009 -0.264496
-1.53284 3.81627 -0.181843 -0.994091 0.042506 -0.0998839
0.881548 5.69524 4.38856 0.541533 -0.0512276 0.839117
-1.45786 3.62478 -0.999828 -0.988039 0.0387768 -0.149252
-0.579318 3.51308 -4.23956 -0.917498 -0.0530877 -0.394181
-1.35843 2.94194 -1.60604 -0.973535 0.0289317 -0.226698
-1.66977 3.51068 0.99323 -0.996564 0.0442985 -0.0699797
-1.42732 4.96321 -0.789705 -0.989962 0.0438573 -0.134357
-1.48929 4.76224 -0.359544 -0.994357 0.0382802 -0.0989357
-1.51117 5.73259 4.19737 -0.404298 0.0823574 0.910912
-1.56681 4.81409 0.606159 -0.995388 0.051335 -0.0810423
-1.44788 3.22998 -1.17869 -0.982496 0.0346041 -0.18304
1.50087 3.21846 1.75877 0.974997 -0.140748 0.171963
1.18755 5.73358 3.84045 0.753569 0.0918233 0.650925
1.44972 4.82183 2.52927 0.976167 -0.0644374 0.207236
1.45785 2.64734 1.26062 0.96205 -0.217852 0.164317
-1.59276 4.57932 0.715959 -0.995455 0.0520451 -0.0797521
1.74968 4.5307 0.115972 0.986785 -0.0568802 0.151721
-0.398616 2.18155 0.158296 -0.114126 -0.992172 0.0506925
1.71133 2.90444 -0.173762 0.98193 -0.142232 0.124835
1.27626 3.56341 2.78922 0.972072 -0.10603 0.209366
2.18585 4.46509 -5.51982 0.533236 -0.0209977 -0.845706
1.71412 3.8585 0.173117 0.98666 -0.0557383 0.152956
-1.81707 4.66868 4.08687 -0.385243 0.0282923 0.922381
1.69584 5.21993 1.2929 0.992273 -0.0594042 0.108927
-1.4502 3.99946 -0.963557 -0.989183 0.0405472 -0.14097
-1.65084 4.05411 1.03443 -0.996815 0.0507066 -0.0615589
-1.69855 2.73808 0.946473 -0.995781 0.0543828 -0.0739048
1.6906 3.23825 -5.60096 0.312483 -0.0773414 -0.94677
-1.51399 4.9993 0.0671402 -0.995152 0.0439344 -0.0879868
1.48483 5.6344 2.57427 0.978796 -0.0396497 0.200965
1.54832 2.69782 0.419185 0.972432 -0.194194 0.12909
1.65416 4.99179 1.65927 0.989347 -0.0568398 0.134019
-1.30544 2.66587 -1.80898 -0.972151 0.0333354 -0.231973
-1.64887 3.59914 0.731339 -0.995288 0.0425117 -0.0871516
1.48118 3.71842 2.01983 0.975819 -0.0974561 0.195651
-0.810057 4.3674 4.44744 -0.20569 0.00797208 0.978585
-1.48431 5.41445 -0.191736 -0.994028 0.0559536 -0.0936923
-1.0275 4.68713 -2.65628 -0.960965 0.0551588 -0.271116
1.01417 5.32914 -5.81286 -0.0487714 0.0743255 -0.996041
1.14285 4.05395 3.69633 0.894153 -0.0677098 0.442613
-0.336866 3.02552 -5.04273 -0.707058 -0.114932 -0.697753
1.92531 5.37219 -0.512328 0.991055 -0.0734554 0.111421
1.74715 3.31286 -0.0834897 0.98621 -0.0946637 0.135756
1.68803 2.6217 -0.355229 0.98291 -0.140353 0.119115
0.476202 2.75001 4.37178 0.506577 -0.191657 0.840623
1.65998 4.75422 0.668565 0.992257 -0.0630011 0.107039
1.8485 3.57947 -1.24408 0.995523 -0.076339 0.055741
-1.39254 3.24252 -1.47567 -0.975114 0.0259839 -0.220175
-1.58372 4.17138 0.390646 -0.994097 0.0461431 -0.0981948
-1.04051 5.24563 4.36621 -0.284213 0.0467316 0.957622
1.86325 4.27015 -0.461651 0.991126 -0.0527995 0.121994
1.81805 3.53953 -0.402644 0.990156 -0.0769825 0.116897
1.33186 4.32642 2.83708 0.973657 -0.0763616 0.214853
-1.56558 3.28636 -0.126598 -0.993899 0.0493085 -0.0986613
-1.51562 3.75855 -0.451209 -0.993691 0.0434604 -0.103389
1.87898 4.08553 -0.86048 0.99528 -0.0566886 0.0787659
-1.25081 4.43956 -1.86157 -0.969943 0.0420033 -0.239679
-1.67259 3.7269 1.17647 -0.997411 0.0488698 -0.05276
-0.128333 2.73955 4.42874 0.25905 -0.365936 0.893859
1.84129 2.92891 -1.80779 0.993896 -0.0990729 0.0485312
-1.27707 4.07903 -1.84713 -0.969841 0.0332008 -0.241465
-0.578471 2.95338 -4.26804 -0.879545 -0.116199 -0.461409
-1.36872 3.04273 4.27631 -0.304683 -0.116938 0.945248
0.534496 3.48305 -5.77831 -0.338308 -0.0876611 -0.936944
1.61643 3.62141 1.24786 0.990445 -0.0866905 0.107251
1.65585 4.0104 0.456985 0.989998 -0.0482894 0.132563
-1.39853 5.22958 -0.928725 -0.987011 0.0461621 -0.153878
0.381953 5.35451 -5.80316 -0.419414 0.0581664 -0.90593
1.62782 3.77785 0.894108 0.993099 -0.0624685 0.0992533
1.74291 2.67809 -0.723624 0.988823 -0.115331 0.0944828
1.82086 4.00968 -0.214119 0.98811 -0.054418 0.143795
1.76702 4.96497 0.211779 0.986895 -0.0672434 0.146686
1.7727 3.18626 -0.320937 0.986376 -0.101941 0.129111
1.39569 5.38031 2.86407 0.968577 -0.0266168 0.247284
-1.50811 4.5501 -0.189837 -0.994965 0.0377155 -0.0928569
1.94599 5.39598 -0.921513 0.994284 -0.0694327 0.0811041
-1.02349 5.73988 4.36165 -0.275146 0.107117 0.955417
-1.06926 2.7467 4.27554 -0.201991 -0.278068 0.939083
-1.00972 4.16818 -2.78522 -0.961079 0.0401844 -0.273336
-1.81961 4.14759 4.13086 -0.394653 -0.00259496 0.918827
-1.60861 4.98534 1.1808 -0.997064 0.061519 -0.045583
0.736518 4.97314 -5.84724 -0.262715 0.0409999 -0.964002
1.91709 4.9033 -5.63506 0.467344 -0.0310816 -0.883529
1.6018 4.3445 -5.69612 0.297168 -0.04249 -0.953879
-1.50524 5.39 0.157256 -0.994799 0.0588479 -0.0831359
1.27712 2.86764 -5.67947 0.0904077 -0.142429 -0.985668
-1.59257 5.19828 1.00256 -0.99647 0.0624336 -0.0561265
1.56424 2.99315 1.01434 0.976906 -0.166463 0.133961
-1.23595 5.79015 -1.62917 -0.974627 0.046981 -0.218849
1.81213 3.26963 -0.672903 0.991203 -0.0906514 0.096435
-1.40446 5.49626 -0.817332 -0.988434 0.0529428 -0.142113
-0.750771 5.64488 -3.30049 -0.945799 0.0934505 -0.311016
1.7254 5.34247 1.00238 0.992367 -0.055267 0.110241
1.55686 2.86822 0.644153 0.970222 -0.200841 0.135394
2.02049 4.11923 -5.56046 0.470349 -0.0363903 -0.88173
1.92001 4.40444 -1.57497 0.99642 -0.0634008 0.0559172
-1.21107 5.40689 -1.78904 -0.97163 0.0485905 -0.231459
1.21637 3.46382 3.03343 0.954998 -0.1379 0.262608
-1.29932 4.16815 4.33641 -0.299894 -0.00561634 0.953956
1.58661 3.34215 1.3912 0.984165 -0.117268 0.132922
-1.55012 3.20653 -0.380172 -0.993013 0.05254 -0.105663
1.82344 4.82637 -0.0983985 0.987294 -0.0618415 0.146379
1.54112 2.99249 1.30787 0.977343 -0.156967 0.141995
1.87797 5.32459 -5.67098 0.403605 0.0146361 -0.914816
-1.17722 4.2177 -2.16239 -0.96735 0.0367246 -0.250769
0.581235 4.84497 4.54269 0.485007 -0.00568313 0.874492
1.40731 5.76485 2.90879 0.954168 0.0688996 0.291232
1.43625 3.48298 -5.6796 0.191177 -0.0783839 -0.978421
1.63033 4.66614 1.70612 0.988084 -0.0613314 0.14117
-1.72733 2.88858 1.5466 -0.997846 0.0459272 -0.0468376
-1.48414 3.35024 -0.910208 -0.988453 0.0407604 -0.14594
1.95345 4.87212 -1.70366 0.996322 -0.0684339 0.0515705
-1.50393 5.22622 -0.0361366 -0.995106 0.0479332 -0.0864143
1.44546 4.3873 2.3999 0.975427 -0.0737713 0.207603
-1.53574 3.0185 -0.654045 -0.990464 0.045397 -0.130076
1.59715 3.19872 0.684923 0.985154 -0.124245 0.118469
-1.46431 4.99078 -0.506713 -0.992976 0.0410242 -0.110972
-1.54426 3.55638 -0.186101 -0.994065 0.0467599 -0.0982283
1.78117 5.64384 0.453659 0.992001 -0.036483 0.120839
-1.21703 3.4122 -2.0655 -0.968545 0.0256427 -0.247512
-1.49264 4.48534 -0.440795 -0.993704 0.0393773 -0.104887
1.9022 4.75598 -0.970944 0.99575 -0.0571373 0.0722269
0.759953 3.04165 4.30215 0.595159 -0.127607 0.793412
-1.34706 3.59192 -1.61686 -0.973013 0.0268491 -0.229185
-0.567379 4.78239 -4.06423 -0.933072 0.112761 -0.341559
-0.869126 3.4368 -3.38269 -0.959858 0.0115492 -0.280249
1.00203 4.95427 4.24632 0.708809 -0.0386362 0.704341
1.56675 5.90616 2.28272 0.983687 -0.0276208 0.177754
-1.51439 4.03041 -0.337082 -0.993966 0.0414227 -0.101562
-1.54398 4.2215 0.0995614 -0.994202 0.0442699 -0.0979894
-1.47732 5.0172 4.23635 -0.336378 0.0377055 0.940972
1.99372 4.969 -2.10715 0.995976 -0.0715264 0.0540051
-1.04188 3.20563 -2.78666 -0.962216 0.0224482 -0.271362
1.9202 4.77543 -1.26972 0.996475 -0.0604176 0.0581979
-1.3177 5.80109 -1.25233 -0.980013 0.0538757 -0.191498
1.68736 3.52805 0.190305 0.984821 -0.0789878 0.154558
-1.26153 4.74448 -1.75671 -0.971739 0.0490269 -0.230912
-1.43672 5.25883 -0.64632 -0.991113 0.0464951 -0.124634
1.91354 5.03672 -0.765597 0.993892 -0.0659708 0.0884714
0.499412 3.246 4.48232 0.457278 -0.147797 0.876957
1.1262 3.4781 3.48747 0.911059 -0.132342 0.390457
1.8627 3.9006 -0.525317 0.99229 -0.0606197 0.108099
-1.67285 5.27144 4.14101 -0.396142 0.0585986 0.916317
-1.59244 4.36794 0.5744 -0.994659 0.0493035 -0.0906832
0.240049 4.71999 4.57938 0.217127 -0.000369648 0.976143
1.94986 4.29632 -2.04028 0.994639 -0.0673284 0.0784864
1.90716 4.75519 -0.614822 0.993167 -0.0565123 0.102108
1.35263 4.89025 2.91707 0.972279 -0.0582059 0.226462
1.54659 4.27799 1.9671 0.980945 -0.0686191 0.181766
-1.39864 4.13707 -1.25964 -0.982988 0.0417039 -0.178874
-1.61474 4.59872 0.991883 -0.99672 0.0536631 -0.0605718
-0.398616 2.18155 0.158296 -0.114126 -0.992172 0.0506925
1.45051 2.85185 1.68403 0.967557 -0.185739 0.171274
1.85178 3.3147 -1.63573 0.99521 -0.0818492 0.0534635
1.67378 3.06324 0.0952043 0.982192 -0.13115 0.134528
1.10259 2.9505 3.37279 0.856307 -0.290685 0.426896
1.62373 3.50147 0.662286 0.989708 -0.0826559 0.116817
-1.60359 2.93931 0.0639818 -0.994192 0.0535061 -0.0933737
-1.52852 2.77264 -0.807005 -0.986771 0.0450932 -0.155726
-1.63952 3.37945 0.597062 -0.994705 0.0416005 -0.0939705
1.90229 5.48575 -0.251466 0.991138 -0.0628635 0.117024
-0.890631 5.38866 -2.95701 -0.952638 0.0800681 -0.293378
2.30846 2.66626 -5.3482 0.555412 -0.0976955 -0.825817
-0.996698 2.86088 -2.97857 -0.960625 0.0187906 -0.277211
1.32266 5.52476 3.36145 0.900386 0.0822505 0.427248
-1.56719 2.74139 -0.531937 -0.99071 0.0454363 -0.128175
1.80609 2.87608 -1.44407 0.99276 -0.113688 0.0387737
1.87939 4.01725 -1.28188 0.996493 -0.0632793 0.0547484
1.01735 3.36726 -5.79271 -0.0472061 -0.10376 -0.993481
1.85834 4.5803 -0.338386 0.989965 -0.0550931 0.130134
1.8339 4.32432 -0.177679 0.98725 -0.0536749 0.149857
-1.33036 4.90265 -1.4269 -0.977852 0.0511589 -0.20295
1.93326 3.65242 -5.55896 0.427728 -0.0542619 -0.902277
1.05652 5.39523 4.18893 0.658559 -0.025143 0.752109
-1.08373 5.60082 -2.21976 -0.964219 0.0641926 -0.257218
0.0847618 3.73219 -5.65461 -0.570355 -0.0347863 -0.820661
0.777448 3.92881 -5.84878 -0.177437 -0.0853674 -0.980423
-1.5623 3.73608 0.0515181 -0.993974 0.0418925 -0.101295
-1.20508 5.0819 -1.89102 -0.969643 0.0519351 -0.238947
1.78346 3.67432 -0.154595 0.987308 -0.066133 0.144394
-0.162458 5.82171 4.48135 0.104641 0.0690136 0.992113
1.1001 4.43967 -5.79357 0.0325319 -0.0550308 -0.997955
-1.57137 5.49423 1.0305 -0.995846 0.0736208 -0.0535866
-0.791594 4.36871 -3.50731 -0.962153 0.0459421 -0.26861
-1.63751 3.11358 0.546448 -0.994934 0.046901 -0.0889177
0.518905 3.80091 4.55726 0.46535 -0.0846204 0.881073
-1.52982 5.76957 0.846638 -0.993866 0.0951317 -0.0564032
1.23845 4.56775 3.32299 0.952415 -0.0660656 0.297559
-1.59649 4.89774 0.884999 -0.996251 0.0562771 -0.0656958
-1.01477 5.15113 -2.58598 -0.959652 0.0671791 -0.273048
1.55026 4.74598 2.11136 0.980785 -0.0609047 0.185342
-0.425529 3.97643 -5.01352 -0.795292 -0.0378596 -0.605044
-1.69033 3.30141 1.19813 -0.997429 0.0442571 -0.0563652
-1.64877 3.84094 0.85147 -0.995831 0.0469684 -0.0781906
-1.26501 3.71465 -1.91337 -0.968976 0.0275932 -0.245611
-1.58167 3.02904 -0.155338 -0.993628 0.0507941 -0.100616
1.59992 3.36519 1.04801 0.988098 -0.10757 0.109964
-1.69359 3.02497 1.07117 -0.996607 0.0458106 -0.0683826
-1.31245 3.30493 -1.78077 -0.970569 0.0258012 -0.239436
0.251567 4.75841 -5.70536 -0.51978 0.0148589 -0.854171
1.43987 3.38949 2.11036 0.973582 -0.120784 0.193777
-0.992908 3.16651 4.38526 -0.221061 -0.114608 0.968503
-1.67138 2.9355 0.757018 -0.995388 0.05134 -0.0810414
-0.711389 2.98862 -3.89406 -0.941311 -0.0429645 -0.334795
1.49891 5.17013 2.40779 0.979227 -0.0552948 0.195083
-0.630882 4.08164 -3.99941 -0.952034 0.0325126 -0.304262
-0.914722 4.70076 -3.09804 -0.955016 0.0588312 -0.290661
1.662 5.88465 1.73168 0.986934 -0.0309338 0.158127
-0.544082 4.88621 4.47662 -0.143074 0.0227031 0.989452
1.40526 3.62829 2.36494 0.97169 -0.105633 0.21133
-0.0769803 5.3542 4.51998 0.110526 -0.0144409 0.993768
-0.439076 4.0633 -5.02015 -0.798086 -0.0316841 -0.60171
0.458828 5.17029 4.58393 0.407309 -0.0199555 0.913073
-0.105116 4.3313 4.53494 0.0461653 -0.0100896 0.998883
1.96943 5.38586 -1.42434 0.995658 -0.0735783 0.0570132
-0.740381 3.43119 4.45893 -0.164105 -0.0894129 0.982382
1.65268 3.72169 0.445583 0.989696 -0.057704 0.131045
-1.49197 5.0369 -0.227176 -0.994833 0.0414493 -0.0926773
1.48273 2.66416 0.909693 0.961075 -0.234288 0.146439
-1.52791 5.38418 0.464003 -0.995119 0.0646425 -0.0745643
2.00987 5.75937 -1.5137 0.995887 -0.0750253 0.0508016
1.82243 3.34319 -0.947303 0.993457 -0.0880465 0.0727432
1.77603 5.26819 0.333908 0.989923 -0.0618435 0.127391
0.843828 4.36286 4.42264 0.636871 -0.0510761 0.769277
-1.8012 3.39037 4.14851 -0.3867 -0.0647881 0.919927
2.00757 5.51993 -1.83167 0.995604 -0.0763099 0.0543157
1.84363 5.14825 -0.0702435 0.988558 -0.063487 0.136829
0.190151 3.14453 -5.66092 -0.546971 -0.0957349 -0.83166
-1.51661 4.28006 -0.20542 -0.994539 0.0406782 -0.0961107
1.71907 4.17961 0.155918 0.986488 -0.0512827 0.155602
-1.65502 4.22336 1.50087 -0.998452 0.053883 -0.0137738
-1.17135 4.52344 -2.12786 -0.967216 0.0436416 -0.250177
-1.4915 4.00912 -0.631166 -0.992782 0.0401048 -0.113031
-1.55384 4.64971 0.396219 -0.994908 0.0459076 -0.0897262
2.28173 3.72167 -5.43471 0.55174 -0.0403135 -0.833041
1.74199 5.40346 0.666249 0.991736 -0.0562495 0.115304
-1.71766 2.83417 1.28039 -0.997172 0.0466768 -0.058893
0.798451 4.00472 4.43987 0.588592 -0.0687782 0.8055
1.92896 5.72074 -0.392842 0.991438 -0.0757708 0.106344
1.38116 2.89627 2.02642 0.967561 -0.173479 0.183658
1.16523 4.62461 3.72778 0.893385 -0.0752905 0.442938
-1.29576 5.52308 -1.44074 -0.977706 0.0462721 -0.204817
2.26633 3.23211 -5.41534 0.539308 -0.055466 -0.84028
2.34404 4.99518 -5.48312 0.613776 -0.0378787 -0.788571
-1.45067 5.50228 -0.482727 -0.992258 0.054843 -0.111428
1.70669 5.969 1.38461 0.98701 -0.0300569 0.157822
-1.45936 5.83013 -0.0501793 -0.991425 0.0952176 -0.0895001
-1.54842 5.74396 1.15279 -0.99543 0.0831668 -0.0469213
-0.120347 4.90004 -5.60154 -0.581522 -0.00330419 -0.813524
-1.53253 4.91052 0.310753 -0.995108 0.0464378 -0.0871992
0.773442 5.34791 4.45812 0.572913 -0.0392184 0.818677
-0.338011 3.7267 4.52075 -0.0451459 -0.0527222 0.997588
-1.51998 3.28376 -0.650593 -0.991306 0.0458658 -0.123322
1.89155 5.83028 -0.120544 0.992916 -0.0490958 0.1082
1.26757 4.00425 3.00139 0.966639 -0.084206 0.241906
0.432317 4.17425 -5.83355 -0.436218 -0.0152093 -0.899713
1.60939 3.95085 1.45383 0.990554 -0.068394 0.118851
1.03436 3.12296 3.85773 0.777976 -0.174217 0.603657
1.65529 5.43732 1.69771 0.987356 -0.0535311 0.149205
-0.959617 3.15757 -3.11698 -0.95934 0.0200514 -0.281541
-1.52936 4.71123 0.126004 -0.995157 0.0401991 -0.0897003
-0.951663 3.77092 4.44543 -0.223485 -0.0404829 0.973866
1.74738 5.88524 0.740335 0.991091 -0.00990028 0.132814
1.7013 4.66708 0.377319 0.988452 -0.0649778 0.136898
1.07966 4.14087 4.04853 0.802717 -0.0735085 0.591812
1.21753 4.99196 3.64258 0.89911 -0.0286436 0.436784
-1.50672 5.76436 0.535882 -0.994084 0.0878828 -0.063823
-0.633905 5.3029 -3.76447 -0.931546 0.142555 -0.334514
-1.07148 3.79835 -2.55934 -0.965212 0.0291575 -0.259836
-1.49344 3.0284 -0.950715 -0.986025 0.0386968 -0.162042
1.31085 3.11647 2.44803 0.969588 -0.14238 0.199064
1.63585 4.08161 0.795963 0.994235 -0.0501968 0.0947486
1.56416 3.57713 1.61802 0.983262 -0.103154 0.150183
-0.0164566 4.10808 4.54746 0.0992738 -0.0258419 0.994725
1.2432 3.22188 2.78382 0.962457 -0.149205 0.226747
-1.2487 2.99365 -1.98865 -0.969861 0.0252049 -0.242351
-1.55471 4.41919 4.23458 -0.346415 0.0127395 0.937995
1.63979 3.32475 0.397633 0.986291 -0.100345 0.130999
-1.34526 4.25765 -1.53687 -0.976185 0.0421847 -0.212801
-1.59427 5.27889 1.33883 -0.997092 0.0683041 -0.0337894
-1.62908 2.74482 0.222968 -0.994325 0.058578 -0.088802
-0.926763 3.61134 -3.16971 -0.957964 0.0278976 -0.285527
-1.52413 5.17567 0.280897 -0.995182 0.0510912 -0.0836803
-0.254538 4.92271 4.51353 -0.042055 0.0125943 0.999036
1.72178 5.11307 0.580896 0.990502 -0.0664195 0.120392
2.33123 5.37714 -5.48357 0.69062 0.656069 -0.30433
1.91126 4.09799 -1.72484 0.996126 -0.0660345 0.0580695
-0.651055 2.85748 4.38942 -0.0374137 -0.293873 0.955112
-1.08831 2.80276 -2.61177 -0.963685 0.0123385 -0.266755
-1.47142 5.24095 -0.380862 -0.993516 0.0475156 -0.103283
-1.27017 5.44841 4.29076 -0.3495 0.0640137 0.934747
1.51109 5.43464 -5.76631 0.208137 0.0537738 -0.97662
1.89486 4.38836 -1.15536 0.996678 -0.0585859 0.056583
1.91837 3.78404 -2.01921 0.994962 -0.0690109 0.0727199
-0.806538 3.9857 -3.5311 -0.962664 0.0361269 -0.268277
1.62993 4.36094 1.53509 0.990294 -0.0623746 0.12421
-1.43405 2.94633 -1.29113 -0.978118 0.0315941 -0.205637
-1.7107 3.14403 1.43041 -0.998165 0.0443778 -0.0412026
-1.5352 4.04128 -0.0649696 -0.994122 0.0414604 -0.100013
0.782695 3.49495 4.41794 0.588983 -0.107141 0.801012
1.25888 4.96054 3.44894 0.933411 -0.0535715 0.354788
-1.55111 5.0726 0.545081 -0.995519 0.0535752 -0.0779191
-1.46321 4.45588 -0.728899 -0.991725 0.0407499 -0.121743
-1.35483 3.92444 -1.54818 -0.975834 0.0347412 -0.215734
1.31581 2.57417 1.93827 0.957694 -0.226185 0.177941
-1.62311 4.70976 1.24552 -0.997584 0.0589242 -0.0367993
1.64056 4.36777 1.12258 0.994187 -0.059251 0.0898936
-1.28788 5.20524 -1.54152 -0.975385 0.05033 -0.21469
1.61109 3.0023 0.409149 0.979562 -0.151628 0.132163
-1.61981 2.99359 0.334126 -0.994546 0.053923 -0.089274
-1.12547 4.92951 -2.19567 -0.966088 0.0527698 -0.252762
1.81651 5.87572 0.272459 0.993089 -0.021326 0.115406
1.58643 5.03505 2.02528 0.98263 -0.0552344 0.177164
1.56219 4.05475 1.78818 0.984486 -0.0740845 0.159059
-1.55736 4.42555 0.287123 -0.994547 0.0445415 -0.0943039
1.69694 5.57619 1.44252 0.989967 -0.047444 0.133093
-1.56874 5.24992 0.733412 -0.995746 0.0614621 -0.068652
-1.56965 3.94788 0.190415 -0.994026 0.0421618 -0.100668
1.25194 2.63544 2.29943 0.961215 -0.202365 0.187389
-1.53226 3.47004 -0.421458 -0.993484 0.0492448 -0.102781
1.65302 4.65191 1.02108 0.994388 -0.0610621 0.0863942
-1.48363 5.6014 0.035328 -0.993846 0.0702841 -0.0856209
-1.654 2.79192 0.51769 -0.994886 0.0585915 -0.0822687
-1.66634 4.00143 1.32248 -0.997938 0.0533391 -0.035698
1.7587 2.89308 -0.565712 0.986547 -0.123129 0.107542
1.8568 3.85713 -0.987025 0.995427 -0.068118 0.0669753
1.83344 2.63932 -5.53746 0.38853 -0.124577 -0.912976
-1.82965 2.70884 4.02769 -0.7281 -0.162392 0.665957
1.77653 2.721 -1.16039 0.990591 -0.12221 0.0616031
-1.42806 4.68072 -0.897701 -0.988841 0.0439056 -0.142355
0.525283 4.27573 4.53016 0.415626 -0.0434956 0.908495
-1.43717 5.78855 -0.424862 -0.99104 0.0747768 -0.11067
-1.50782 4.80471 -0.108115 -0.995148 0.0389168 -0.0903693
1.4566 4.05024 2.23196 0.973695 -0.0818753 0.212637
1.62957 2.72305 0.0664303 0.975615 -0.18134 0.12366
-1.53021 4.47309 0.0342808 -0.994837 0.0413766 -0.0926641
-1.63398 4.55336 1.48103 -0.998328 0.0576808 -0.00379082
1.9746 5.16774 -1.76315 0.996043 -0.0705 0.0541103
-1.59607 3.61739 0.282654 -0.993904 0.0430305 -0.101501
-1.46294 4.71905 -0.620191 -0.9923 0.0397845 -0.117293
-1.16524 3.08483 -2.26453 -0.967418 0.023272 -0.252113
-1.62453 4.30848 0.877416 -0.996068 0.0517069 -0.07194
1.64068 4.45605 0.738086 0.992982 -0.0621324 0.100629
-1.12221 3.51557 -2.40433 -0.966059 0.0245117 -0.257155
-0.705618 4.91456 -3.64519 -0.961211 0.0645637 -0.268151
1.65854 4.78369 1.38861 0.992174 -0.0598984 0.109555
1.88971 4.47837 -0.800923 0.995279 -0.0561968 0.0791279
1.35387 4.90507 -5.78494 0.161644 -0.0121065 -0.986775
0.179652 3.52672 4.59891 0.282559 -0.126671 0.95085
1.72994 5.73369 1.02514 0.990649 -0.0427235 0.129573
-0.97464 5.608 -2.6167 -0.958001 0.0702732 -0.278022
-1.40695 2.64922 -1.43675 -0.974952 0.036163 -0.219457
-1.413 3.82674 -1.24073 -0.983103 0.0359968 -0.179481
-1.69454 3.49357 1.43091 -0.998178 0.04812 -0.0363931
1.83519 5.55758 0.144457 0.990781 -0.0546649 0.123958
-1.50218 5.60067 0.310876 -0.994466 0.0757247 -0.0728203
-1.38351 4.70923 -1.17857 -0.98371 0.0481352 -0.173196
-0.330524 3.32215 4.50233 0.00216261 -0.134555 0.990904
-1.38254 4.98212 -1.09889 -0.984685 0.0476577 -0.167702
-1.63916 4.34514 1.20086 -0.997728 0.052711 -0.0419467
-1.16216 3.82708 -2.22276 -0.967038 0.0303058 -0.252823
1.152 2.73404 2.80937 0.91888 -0.277755 0.280199
-1.41399 3.51605 -1.2934 -0.980882 0.0314673 -0.192042
1.34784 4.09796 2.69733 0.972813 -0.0822289 0.216501
-1.36983 5.80238 -0.926021 -0.985921 0.0593849 -0.15631
-0.0151005 3.06761 4.48132 0.263066 -0.237059 0.9352
-1.57098 5.55803 1.37624 -0.996684 0.0763632 -0.028087
-1.49297 4.24179 -0.523585 -0.993358 0.0392805 -0.108151
-1.54104 5.53318 0.710164 -0.995267 0.0723463 -0.0648832
1.79962 3.03727 -0.931998 0.991253 -0.105395 0.0794251
-1.35617 5.543 -1.10319 -0.983401 0.0521313 -0.173794
-0.515354 4.21976 4.47412 -0.133134 -0.00660577 0.991076
1.846 3.63305 -0.715376 0.993382 -0.0766017 0.0855825
-1.31793 3.54262 4.34325 -0.296229 -0.0609755 0.953169
-0.869678 2.81697 -3.41526 -0.957932 -0.00387518 -0.28697
-1.60125 2.73701 -0.158885 -0.992916 0.0588042 -0.103243
-1.47469 5.83144 0.238866 -0.992424 0.0976125 -0.0746115
1.97462 5.64398 -1.07282 0.994684 -0.0719009 0.0737212
0.535193 4.46642 -5.81138 -0.388644 0.00312985 -0.921383
-1.60914 4.95466 1.48582 -0.997842 0.0645033 -0.012305
-0.0216357 4.35593 -5.63642 -0.566596 -0.04074 -0.822988
-0.483089 5.67171 4.47584 -0.120085 0.0657434 0.990584
-1.62418 4.08427 0.688353 -0.995041 0.0494641 -0.0862893
-1.34517 5.26903 -1.23687 -0.98125 0.0487414 -0.186475
-1.56575 2.93746 -0.385003 -0.992368 0.0476033 -0.113752
1.86659 3.63244 -1.58042 0.99585 -0.0729213 0.0544608
1.87704 5.0384 -0.371901 0.990441 -0.0612927 0.123573
-1.60851 3.92402 0.465639 -0.99409 0.0450864 -0.0987515
-1.57524 3.4593 0.0666892 -0.994054 0.0455829 -0.0988862
-1.10925 4.74088 4.37763 -0.266689 0.026072 0.96343
1.93734 5.1123 -1.22025 0.995915 -0.0667465 0.0608168
-1.21511 2.7272 -2.12041 -0.969592 0.022784 -0.243665
