-1.51754 3.00108 -1.12941 -0.987016 0.0446625 -0.154286
-1.05712 2.25005 0.0164963 -0.114126 -0.992172 0.0506925
1.56609 3.12333 1.5495 0.986279 -0.0834183 0.142458
-1.72557 2.65438 0.502311 -0.991716 0.0477482 -0.119242
-1.50021 2.76976 -1.30353 -0.987291 0.0448164 -0.152474
-0.479465 4.51544 -5.54797 -0.393194 -0.0379356 -0.918673
1.54872 2.69332 1.52496 0.984035 -0.0844997 0.156636
-0.130663 3.57536 4.70034 -0.15528 -0.0281146 0.98747
-1.40915 2.30155 0.231976 -0.114126 -0.992172 0.0506925
-0.804853 3.21923 -4.92511 -0.979629 0.0407537 -0.196636
1.46301 5.26528 3.41558 0.983006 -0.0830017 0.163736
-0.759744 4.38411 -4.90381 -0.979684 0.040914 -0.196331
-0.974432 4.50729 -3.85558 -0.981801 0.0421578 -0.185174
1.73504 5.19268 1.54035 0.987124 -0.0815586 0.1376
0.262021 4.49414 4.78697 -0.153019 -0.0276235 0.987837
1.34173 3.72779 3.36418 0.983081 -0.0837854 0.162887
0.509743 4.53094 4.81862 -0.129311 -0.0293643 0.991169
-0.212583 4.115 -5.65568 -0.382242 -0.0383873 -0.923264
0.116761 5.03749 4.78011 -0.146288 -0.0281714 0.988841
0.449267 3.54004 4.78361 -0.136557 -0.029802 0.990184
2.01596 5.25876 -0.734673 0.989011 -0.0805121 0.123996
0.129231 3.23512 4.73132 -0.15353 -0.0281559 0.987743
1.73079 3.74183 0.681846 0.987399 -0.0825204 0.135035
1.06904 2.03727 0.638634 -0.114126 -0.992172 0.0506925
2.04351 5.808 -0.605026 0.989049 -0.0803356 0.123805
1.74861 2.66432 -0.247161 0.988522 -0.0820777 0.126838
1.94174 4.82017 -0.397932 0.988814 -0.0808416 0.125343
1.29105 4.44289 3.94776 0.980262 -0.0841032 0.178924
-1.88714 3.04112 4.38665 -0.166676 -0.0270528 0.985641
2.15915 5.23241 -1.95223 0.989243 -0.0803799 0.122215
1.29178 3.1706 -5.88783 0.275397 -0.0488555 -0.960088
-1.60694 3.2827 -0.263081 -0.991104 0.0472666 -0.12441
-1.76393 3.2886 1.09639 -0.991864 0.0479463 -0.11793
-1.32763 3.63094 -2.14958 -0.986336 0.0444264 -0.158644
-1.5904 3.1469 -0.476831 -0.990301 0.0466517 -0.130873
1.40116 3.76166 -5.88658 0.275569 -0.048811 -0.960041
1.83552 5.21743 0.83065 0.987165 -0.0814522 0.137371
-1.49875 2.35499 1.07617 -0.114126 -0.992172 0.0506925
1.05977 4.20091 4.37885 0.456695 -0.0762498 0.88635
1.54828 2.43826 1.38446 0.984133 -0.0845285 0.156004
1.21974 4.54504 4.35242 0.979288 -0.0843336 0.184072
2.36454 4.10444 -5.62521 0.276963 -0.0487922 -0.959641
1.5429 5.15632 -5.91522 0.277504 -0.0486895 -0.95949
1.83902 5.84271 1.22254 0.986465 -0.0816003 0.142223
-0.767667 5.11537 -4.80516 -0.981716 0.0421923 -0.185615
-0.0212991 4.84677 4.75274 -0.153826 -0.027521 0.987715
0.394959 4.05366 4.79341 -0.144632 -0.0289511 0.989062
1.25483 3.9921 3.97371 0.981709 -0.0842391 0.170736
-0.277117 3.80452 -5.61605 -0.382249 -0.038387 -0.923262
1.61291 2.97629 1.1903 0.985464 -0.0838824 0.14773
0.181739 2.9612 4.7302 -0.144249 -0.0294683 0.989103
1.73986 5.65863 1.8697 0.985007 -0.0821308 0.151712
-0.960481 3.77471 -4.03246 -0.979649 0.0408146 -0.196526
0.0487194 3.74099 4.73317 -0.15496 -0.0279804 0.987524
1.92548 5.87027 0.525299 0.987618 -0.0809599 0.134373
1.80997 4.55051 0.575732 0.987637 -0.0817058 0.133783
1.21022 4.91238 4.54336 0.978413 -0.0847314 0.18849
0.458391 4.93092 4.8278 -0.145875 -0.0283683 0.988896
-0.854713 5.21562 -4.32131 -0.98171 0.0421982 -0.185649
-1.09283 3.94943 -3.33548 -0.979657 0.0408377 -0.196479
-1.59554 2.65661 -0.638371 -0.989494 0.0460918 -0.137027
1.31318 2.90323 3.09771 0.981905 -0.0848272 0.169314
1.66576 3.03299 0.761034 0.986864 -0.0832303 0.138466
1.60468 2.78252 1.17275 0.984874 -0.0840719 0.151508
1.21038 4.1632 4.31586 0.98176 -0.0841907 0.170469
1.23867 3.10754 3.6322 0.981881 -0.0846836 0.169523
-1.52177 2.62811 -1.21518 -0.986761 0.0444935 -0.155958
-0.981933 4.06756 4.56897 -0.165247 -0.0266285 0.985893
1.69143 2.6377 0.290105 0.987383 -0.0830032 0.134853
-1.25471 4.22717 -2.4305 -0.983157 0.0428009 -0.177683
-1.3747 2.28376 -0.0387903 -0.114126 -0.992172 0.0506925
-1.04583 3.69705 -3.62364 -0.979646 0.0408035 -0.196543
0.427619 4.72379 4.81737 -0.145788 -0.0284183 0.988908
1.89393 4.56461 -5.78364 0.277601 -0.0487118 -0.959461
2.01129 3.8553 -1.63925 0.989102 -0.0810578 0.122911
0.166888 2.79948 4.72322 -0.144285 -0.0294872 0.989097
-1.15968 2.17593 -1.6652 -0.114126 -0.992172 0.0506925
-1.33846 4.49188 4.52575 -0.161663 -0.0267333 0.986484
1.61593 4.63167 -5.87571 0.26671 -0.04871 -0.962545
2.02398 3.56005 -1.95277 0.989163 -0.0811085 0.122387
-0.853035 3.90807 -4.63712 -0.981808 0.042131 -0.185143
1.59275 3.74606 1.77019 0.985263 -0.083371 0.149351
-1.57602 2.61594 -0.811149 -0.988801 0.0456433 -0.142092
-1.78661 2.74859 1.0615 -0.991816 0.0478408 -0.118377
-1.64488 3.16691 0.00950447 -0.991319 0.0474257 -0.12263
0.983603 3.27529 4.3419 0.44887 -0.0767401 0.890296
1.30121 5.18091 4.23333 0.980136 -0.0838408 0.179735
-1.49819 3.08687 -1.21158 -0.987971 0.0452306 -0.147874
1.00364 2.07103 1.15217 -0.114126 -0.992172 0.0506925
1.63775 4.36955 1.77712 0.986328 -0.0825241 0.142642
1.60948 2.51083 0.821904 0.98723 -0.0831287 0.135894
-1.63699 2.6221 -0.265678 -0.991289 0.0473545 -0.122895
-1.18308 4.44283 -2.77969 -0.979681 0.0409041 -0.196346
1.6721 4.8455 1.87634 0.984852 -0.0826125 0.15245
1.59226 4.43117 2.17439 0.984613 -0.083056 0.153751
-1.6601 3.37212 0.238617 -0.991646 0.047759 -0.119823
1.63159 5.41685 2.43694 0.985278 -0.0821174 0.149946
-1.68165 3.13154 0.314541 -0.991567 0.0476467 -0.120516
1.17899 2.08161 1.75401 -0.114126 -0.992172 0.0506925
-1.58583 2.8519 -0.611189 -0.990478 0.0467325 -0.129495
-1.76568 2.58247 0.774075 -0.991436 0.0474656 -0.121664
-1.75936 3.17709 1.00807 -0.99183 0.0478983 -0.118229
1.16476 1.98174 -0.232822 -0.114126 -0.992172 0.0506925
1.94165 3.38528 -1.38699 0.989072 -0.0812946 0.122994
1.06999 2.87458 -5.9367 0.270061 -0.0489106 -0.9616
-0.929839 2.87139 4.54425 -0.1663 -0.0270232 0.985705
1.74975 2.33717 -0.493299 0.988702 -0.0819694 0.125496
-1.36964 4.45529 -1.66808 -0.989656 0.046786 -0.135618
0.863925 4.59465 4.52944 0.430673 -0.0747454 0.899407
1.38178 4.11487 3.32648 0.983386 -0.0834883 0.161188
1.68361 2.33708 0.123254 0.987772 -0.0827381 0.132143
-1.72977 2.99494 0.657614 -0.991576 0.0476319 -0.120448
-1.39509 2.64045 -2.00527 -0.986161 0.0442058 -0.15979
-1.74589 3.34067 0.955187 -0.991786 0.0478724 -0.118608
1.73426 4.99169 1.43618 0.986945 -0.0817323 0.13878
-1.3737 2.85583 -2.07613 -0.985667 0.0439842 -0.162869
-0.815436 4.72444 -4.64477 -0.981753 0.0421766 -0.185422
1.68506 3.79042 1.12962 0.986085 -0.0832188 0.143916
1.85376 3.76469 -0.344093 0.988481 -0.0816362 0.127438
0.504162 4.77236 -5.97715 -0.377565 -0.0385917 -0.925179
0.797659 3.73725 4.62108 0.224922 -0.0612734 0.972448
-1.08828 5.63679 -3.00703 -0.983342 0.043153 -0.17657
-1.47393 2.42116 -1.57964 -0.988303 0.0453152 -0.145612
-1.46198 3.00942 -1.4784 -0.988837 0.0457211 -0.141815
-1.77809 2.92337 1.06182 -0.991824 0.0478676 -0.118292
2.02088 5.57296 -0.574277 0.989036 -0.0804175 0.123859
0.375513 3.36722 4.7684 -0.137025 -0.0299472 0.990115
-1.14072 4.17025 -3.05323 -0.981849 0.0421292 -0.184924
1.40108 2.38534 2.32507 0.98197 -0.0850167 0.168841
-1.52945 2.87469 -1.05235 -0.988784 0.0456602 -0.142201
1.31532 3.84765 3.55921 0.981946 -0.0843653 0.169308
0.625996 3.04248 4.64178 0.172228 -0.0577136 0.983365
1.75141 2.49617 -0.379785 0.988534 -0.0820916 0.126737
0.239243 3.62978 4.75929 -0.152064 -0.028054 0.987972
1.78525 2.78414 -0.438031 0.9884 -0.082146 0.12774
-0.691683 3.12274 4.59446 -0.161884 -0.0273769 0.98643
-1.29893 2.50783 -2.5988 -0.981928 0.0419528 -0.184545
-1.61478 2.4931 -0.511766 -0.990704 0.0468704 -0.127702
-0.237541 4.41271 -5.66487 -0.373378 -0.0387471 -0.92687
-0.736761 3.66829 -5.09126 -0.977747 0.0397104 -0.205994
0.314102 5.28571 4.81664 -0.152998 -0.0273844 0.987847
-1.6916 3.20137 0.439479 -0.991728 0.0478093 -0.119119
-1.54216 2.5651 -1.04854 -0.990451 0.046691 -0.129721
2.01497 3.69826 -1.78648 0.989158 -0.0810703 0.122449
1.98474 5.14562 -0.548689 0.988947 -0.0806106 0.124442
-1.67269 3.08503 0.231643 -0.99168 0.0477546 -0.119538
-1.70868 2.89777 0.419872 -0.991301 0.0473685 -0.122791
-0.170556 4.66154 4.72171 -0.16074 -0.0266102 0.986638
-1.41546 2.46141 -1.93158 -0.986442 0.0443075 -0.158019
-0.596692 4.73619 -5.64372 -0.979694 0.0409386 -0.196275
-0.618624 3.71032 -5.48858 -0.974203 0.038222 -0.222415
-0.988911 5.14864 -3.62883 -0.981744 0.04219 -0.185467
-1.09168 4.4739 -3.27238 -0.983188 0.0428818 -0.177488
-0.0383137 2.16677 0.680142 -0.114126 -0.992172 0.0506925
-1.39818 2.23235 -1.09784 -0.114126 -0.992172 0.0506925
-1.31604 3.83481 4.50548 -0.166171 -0.026713 0.985735
0.746564 5.09837 4.87861 -0.153072 -0.0274484 0.987834
-1.62517 2.60438 -0.409359 -0.990243 0.0465592 -0.131345
1.76288 2.46498 -0.511661 0.988697 -0.0819349 0.125558
1.69729 5.16323 1.81265 0.986583 -0.0819189 0.141223
0.666824 5.3258 4.86541 -0.137957 -0.0283252 0.990033
1.78627 4.83279 0.927533 0.987571 -0.0815617 0.134354
0.164877 3.40434 4.74312 -0.164018 -0.0269384 0.986089
-1.38194 3.87904 -1.76245 -0.989156 0.0462129 -0.139406
1.38567 4.61661 3.57176 0.98381 -0.0829674 0.158853
-0.856107 2.23045 0.0853339 -0.114126 -0.992172 0.0506925
-1.08927 2.2699 0.332611 -0.114126 -0.992172 0.0506925
-1.43408 2.31688 0.47583 -0.114126 -0.992172 0.0506925
-0.995945 4.17592 -3.81867 -0.98182 0.0421385 -0.18508
-0.722022 3.47311 -5.28394 -0.979647 0.0408083 -0.196537
0.420469 3.63937 -6.16151 0.274862 -0.0487839 -0.960245
-0.877913 2.24704 0.361019 -0.114126 -0.992172 0.0506925
-1.00728 3.91315 -3.82063 -0.981848 0.0421168 -0.184935
-1.60755 2.65262 -0.495002 -0.991165 0.0472492 -0.123933
0.543171 5.56521 4.85494 -0.138039 -0.0282626 0.990024
-0.848742 3.59467 -4.6271 -0.979646 0.0408059 -0.196542
-1.20433 2.19894 -1.31529 -0.114126 -0.992172 0.0506925
-1.69603 2.6001 0.232253 -0.991685 0.0477297 -0.119508
0.158059 5.22011 4.79031 -0.164097 -0.0263148 0.986093
-1.50553 2.46086 -1.35156 -0.988941 0.0457414 -0.141082
1.46693 2.97086 2.18054 0.98453 -0.0841459 0.153687
1.28749 5.26454 4.41314 0.981785 -0.0837679 0.170533
1.34061 4.08589 3.55227 0.982976 -0.0835734 0.163625
1.55513 2.29498 1.16824 0.985787 -0.0838958 0.14555
1.11055 2.01617 0.318993 -0.114126 -0.992172 0.0506925
1.34444 2.00007 0.530465 -0.114126 -0.992172 0.0506925
1.1337 3.26949 4.3179 0.981809 -0.0845069 0.170026
0.514018 4.05909 -6.15618 0.275024 -0.048762 -0.9602
1.70417 2.42183 0.00610737 0.987927 -0.0826058 0.131058
0.183816 4.87591 4.78562 -0.164769 -0.0263562 0.98598
1.57018 3.96563 2.02879 0.98568 -0.0831363 0.146706
-1.56003 2.69072 -0.881455 -0.989589 0.0461672 -0.136316
-1.65525 2.71621 -0.0598779 -0.991685 0.0477402 -0.119504
-1.61302 2.34523 0.627925 -0.114126 -0.992172 0.0506925
0.365515 4.19471 -6.20081 0.268296 -0.0488013 -0.9621
1.33182 5.42549 4.28132 0.982926 -0.083089 0.164174
0.792294 2.06209 0.501291 -0.114126 -0.992172 0.0506925
1.46119 4.68683 3.13007 0.980238 -0.0838855 0.179157
-1.5189 2.29461 -0.151084 -0.114126 -0.992172 0.0506925
-1.66122 2.61273 -0.0537276 -0.991647 0.0476972 -0.11984
1.54589 2.56974 1.46169 0.984345 -0.0843791 0.15474
0.615488 4.1696 4.83322 -0.153707 -0.0277568 0.987727
-0.872649 4.40839 -4.25591 -0.974206 0.0382238 -0.222401
-0.17454 5.21179 -5.71855 -0.377521 -0.0385933 -0.925196
0.804861 4.82093 4.87575 -0.145726 -0.0284316 0.988916
-0.690699 4.35062 -5.25597 -0.979675 0.0408886 -0.196378
1.69963 2.63658 0.166167 0.988027 -0.0824943 0.13037
1.41369 1.95723 -0.152073 -0.114126 -0.992172 0.0506925
1.32542 2.37998 2.76325 0.981939 -0.0849543 0.169053
1.67998 3.54873 0.955054 0.987092 -0.0828466 0.137065
1.7627 2.7877 -0.294608 0.988667 -0.0818987 0.125819
-1.56803 2.50334 -0.913249 -0.988389 0.0453829 -0.145006
-1.70812 2.77427 0.401914 -0.991684 0.0477328 -0.119521
0.465531 5.39194 4.84471 -0.160901 -0.0264339 0.986616
1.59157 2.40429 0.836036 0.98806 -0.0824835 0.130131
1.19227 3.90535 4.29413 0.981783 -0.0843133 0.170273
-1.68737 2.55845 0.103189 -0.991101 0.047174 -0.124472
-1.71145 2.69456 0.299089 -0.990552 0.0467635 -0.128916
-1.20223 3.96421 -2.78517 -0.983191 0.0427948 -0.177494
-1.76146 2.69398 0.818955 -0.991736 0.0477729 -0.119066
0.848895 2.75191 4.38042 0.425631 -0.0760758 0.901693
1.9775 3.13294 -1.84779 0.989091 -0.0813354 0.122814
-1.49477 2.6889 -1.36417 -0.987153 0.0447246 -0.153388
-0.515611 3.01811 -5.59321 -0.932072 0.0250481 -0.361406
-1.65658 3.23481 4.43131 -0.166471 -0.0269419 0.985678
-0.0961242 3.97244 -5.71351 -0.363553 -0.0391064 -0.930752
1.62805 2.38991 0.714993 0.985961 -0.0838342 0.144406
1.57771 2.51955 1.05586 0.987277 -0.083074 0.135585
-0.689949 4.89602 -5.26969 -0.981748 0.0421765 -0.18545
1.56231 2.46194 1.16553 0.986665 -0.0834416 0.139745
1.58305 2.18801 0.756699 0.988168 -0.0824094 0.129355
1.67225 2.48128 0.271026 0.988072 -0.0824759 0.130041
1.63998 4.15392 1.58616 0.987716 -0.0819153 0.133068
1.63717 2.29004 0.41615 0.988072 -0.0824901 0.130035
1.31476 4.97514 4.06449 0.98017 -0.0838666 0.179534
-0.0518339 5.59856 4.7658 -0.160802 -0.0264005 0.986633
0.359037 3.01366 4.7611 -0.154554 -0.0281118 0.987584
-1.33456 2.85586 -2.32234 -0.983256 0.0426537 -0.177169
-0.825628 5.25456 4.62627 -0.165319 -0.0262045 0.985892
-0.772891 3.79555 -4.96274 -0.979656 0.0408347 -0.196488
0.405521 4.41001 -6.20494 0.274698 -0.0487442 -0.960294
0.270964 3.90769 -6.21263 0.268368 -0.0488136 -0.962079
-0.432546 3.03295 -5.8065 -0.93209 0.0250525 -0.361359
1.29736 2.0238 0.888941 -0.114126 -0.992172 0.0506925
-0.832815 4.91841 -4.42697 -0.979698 0.0409465 -0.196252
1.67496 2.17106 0.150947 0.9871 -0.083242 0.136763
0.386156 3.84756 -6.18195 0.27485 -0.0487667 -0.960249
-1.27023 3.99463 -2.40107 -0.98321 0.042807 -0.177386
1.15563 3.78708 4.44662 0.981778 -0.0843372 0.170293
0.382154 4.39353 4.80501 -0.162092 -0.0265517 0.986418
1.54214 2.35376 1.29017 0.985788 -0.0838821 0.145556
-1.2656 2.26697 -0.121758 -0.114126 -0.992172 0.0506925
1.56957 2.85791 1.47954 0.984118 -0.0844169 0.156161
0.468253 5.00894 -6.21733 0.274453 -0.0487182 -0.960366
-1.3543 3.1301 -2.15995 -0.98192 0.0420302 -0.18457
0.585667 4.372 4.8211 -0.119818 -0.0314108 0.992299
1.31413 5.51826 4.38401 0.981788 -0.0837096 0.170543
0.0972585 3.47023 -6.23257 0.261739 -0.0487929 -0.963904
1.64997 5.22047 2.21919 0.98494 -0.0824132 0.151992
-0.590141 2.23482 0.769639 -0.114126 -0.992172 0.0506925
-1.60287 2.54497 -0.614686 -0.989741 0.0462473 -0.13518
2.06748 4.33037 -1.78362 0.989137 -0.0808422 0.122772
1.2756 4.61222 4.21191 0.983014 -0.0833176 0.163531
-1.72714 2.51474 0.331862 -0.990292 0.0465856 -0.130962
1.18706 2.01942 0.554939 -0.114126 -0.992172 0.0506925
-1.25142 2.21633 -1.08102 -0.114126 -0.992172 0.0506925
1.97417 4.31569 -0.943551 0.988602 -0.0812597 0.126743
1.24567 3.36992 3.7217 0.981831 -0.0845339 0.169887
-1.45442 2.72939 -1.71923 -0.981926 0.0420099 -0.184544
-0.678743 4.6282 -5.25743 -0.979683 0.0409078 -0.196337
-0.850981 3.35725 -4.66547 -0.979644 0.0407993 -0.196551
1.30192 5.41664 4.50651 0.983822 -0.0827621 0.158886
0.0326105 4.57665 4.75248 -0.163997 -0.0264705 0.986106
-1.30282 2.64778 -2.56377 -0.979626 0.0407339 -0.196656
1.56425 2.40771 1.05718 0.987834 -0.0826493 0.13173
-1.39793 3.05462 -1.87369 -0.986221 0.0442598 -0.159402
1.23222 3.72852 3.97706 0.981809 -0.084396 0.170085
0.632112 3.33772 4.80717 -0.144539 -0.0291955 0.989068
1.77513 2.91761 -0.29262 0.988554 -0.0819668 0.12666
-1.08953 4.34303 4.55771 -0.165711 -0.0265032 0.985818
1.22784 5.07152 4.66264 0.981782 -0.0838903 0.17049
2.11169 4.49303 -2.05252 0.98922 -0.0806992 0.122198
1.2572 4.89075 4.40498 0.981781 -0.0839507 0.170464
1.43115 4.79314 3.38495 0.983945 -0.0829055 0.158047
-0.309712 2.13673 -0.518769 -0.114126 -0.992172 0.0506925
0.76204 2.0819 0.821003 -0.114126 -0.992172 0.0506925
1.80668 2.51286 -0.848139 0.988847 -0.0817609 0.124488
1.56624 2.28412 0.962316 0.987875 -0.0826294 0.131432
1.07855 3.18406 4.52 0.980314 -0.0850296 0.178199
1.63338 2.35979 0.56585 0.987105 -0.0832152 0.136743
-1.50169 2.28278 -0.343747 -0.114126 -0.992172 0.0506925
0.057931 2.11545 -0.107538 -0.114126 -0.992172 0.0506925
-1.02051 2.23593 -0.177457 -0.114126 -0.992172 0.0506925
-0.722616 4.92467 -4.97621 -0.979692 0.0409298 -0.196288
1.68556 2.89947 -5.76083 0.275583 -0.0488737 -0.960034
-1.28317 2.55311 -2.71537 -0.977677 0.0396602 -0.206337
0.707789 5.66667 4.88079 -0.138039 -0.0282623 0.990023
-1.44745 2.25561 -0.753488 -0.114126 -0.992172 0.0506925
1.43839 1.94066 -0.420679 -0.114126 -0.992172 0.0506925
-0.370667 3.15378 -5.95765 -0.932077 0.0250491 -0.361394
-1.08393 5.21651 -3.1108 -0.981751 0.0421865 -0.185432
0.705275 3.48551 -6.07207 0.274655 -0.0487929 -0.960304
0.221864 4.05777 4.7701 -0.163797 -0.0266131 0.986135
-0.939147 4.76836 -3.92791 -0.979692 0.0409331 -0.196283
-0.638352 4.10695 -5.33402 -0.974204 0.0382228 -0.222409
0.619754 4.25131 -6.02491 -0.413584 -0.0367862 -0.909722
-1.01452 4.61093 -3.61889 -0.981793 0.0421618 -0.185218
1.72291 2.36663 -0.187932 0.988081 -0.0824883 0.129966
0.766974 4.20307 4.84738 -0.137326 -0.0290822 0.990099
-0.0219951 4.62239 -6.29698 0.236045 -0.0486366 -0.970524
-0.693913 3.99324 -5.45789 -0.98178 0.0421573 -0.185283
-0.909184 2.26589 0.6596 -0.114126 -0.992172 0.0506925
-0.344599 4.00409 4.67426 -0.164722 -0.0266291 0.985981
1.24606 5.26074 4.57449 0.980212 -0.083827 0.179322
1.25693 4.28119 4.01852 0.978489 -0.0846914 0.188113
0.277967 3.48682 -6.12993 0.177513 -0.0486655 -0.982914
-1.77973 2.58936 0.928588 -0.991731 0.0477611 -0.119113
-1.74767 2.72032 0.712611 -0.991719 0.0477585 -0.119219
-0.956465 2.1965 -0.805064 -0.114126 -0.992172 0.0506925
-1.25156 2.223 -0.95076 -0.114126 -0.992172 0.0506925
1.63953 2.52928 0.698031 0.986206 -0.0836662 0.142817
-1.33451 2.31119 0.588566 -0.114126 -0.992172 0.0506925
-1.52655 2.50456 -1.21268 -0.987199 0.0447431 -0.15309
-0.789797 4.14799 -4.80421 -0.979669 0.0408723 -0.196412
1.49896 2.37587 1.66088 0.984165 -0.0844926 0.155822
1.1456 3.20408 4.16141 0.980342 -0.0850901 0.178016
-1.67244 2.46897 -0.0352901 -0.991351 0.0474035 -0.122381
-0.655495 3.3573 -5.63935 -0.979653 0.0408256 -0.196502
1.38118 5.46077 4.00523 0.982962 -0.0830993 0.16395
-0.607679 4.56067 -5.62628 -0.979679 0.0408983 -0.196356
-0.81105 4.51498 -4.71765 -0.981773 0.0421643 -0.185321
0.654518 3.87396 4.83104 -0.153661 -0.0278643 0.987731
1.19829 3.51479 4.12072 0.983086 -0.0835786 0.162959
0.877524 4.96736 4.87953 -0.129311 -0.0293643 0.991169
-0.718542 4.52488 -5.08058 -0.97968 0.0408991 -0.196355
0.631652 4.71247 4.84715 -0.145693 -0.0284673 0.98892
1.14282 3.60832 4.4327 0.981792 -0.084375 0.170193
0.613507 3.56165 4.81601 -0.153857 -0.0279528 0.987698
1.71277 2.83951 0.260753 0.987361 -0.0829749 0.135031
1.21807 2.0636 1.4894 -0.114126 -0.992172 0.0506925
1.16536 3.98392 4.42076 0.980252 -0.0844527 0.178811
-1.12167 3.38077 4.52611 -0.166047 -0.026839 0.985752
0.465212 3.41764 -6.13747 0.274932 -0.0487851 -0.960225
-1.42262 2.92197 -1.75761 -0.986365 0.0443058 -0.158496
0.533836 3.90727 -6.14273 0.274906 -0.0487691 -0.960234
-1.81924 2.63175 1.28767 -0.991815 0.0478375 -0.118382
1.21285 4.6303 4.53273 0.981781 -0.0840539 0.170417
1.51894 2.23928 1.45838 0.984213 -0.0844749 0.155529
1.18294 4.74464 4.64119 0.979328 -0.0842814 0.183882
1.5071 4.17523 -5.87714 0.275715 -0.0487685 -0.960002
0.587761 4.92596 -6.17921 0.275378 -0.0487393 -0.9601
-0.672345 5.17223 -5.29987 -0.981747 0.0421774 -0.185458
0.581284 4.95519 4.84935 -0.15332 -0.0275473 0.987793
0.768243 4.39508 4.85812 -0.145432 -0.0285972 0.988955
1.2059 4.39143 4.45528 0.98178 -0.0841363 0.170378
-0.804094 3.64371 -4.83877 -0.979656 0.0408348 -0.196485
1.54813 3.42981 1.87749 0.985542 -0.0835628 0.147391
1.15933 2.89673 3.9852 0.981835 -0.0845862 0.169839
1.58579 5.30273 2.67918 0.984976 -0.0823714 0.151779
-0.912783 3.84165 -4.33592 -0.981816 0.0421313 -0.185103
0.63982 4.57242 4.84812 -0.153594 -0.0276658 0.987747
1.16764 4.8528 4.74033 0.978489 -0.0846914 0.188115
0.743399 4.05253 4.84456 -0.145281 -0.0287003 0.988974
-0.715848 5.22235 -5.05794 -0.981744 0.0421788 -0.18547
-1.24528 3.47456 -2.67605 -0.979646 0.0407978 -0.196544
-1.55595 2.43504 -0.998397 -0.989528 0.0461032 -0.136778
1.43427 2.46326 2.17242 0.981944 -0.0849744 0.169015
1.65947 2.50198 0.473369 0.987001 -0.083276 0.137457
1.52689 2.42052 1.48429 0.984722 -0.0841895 0.15243
1.15978 4.16846 4.61131 0.981782 -0.0842009 0.170335
1.35091 2.58229 2.71759 0.981914 -0.0848925 0.169228
-1.49234 2.40885 -1.46414 -0.986769 0.0444916 -0.155908
-0.630929 4.49326 4.63933 -0.164922 -0.0264969 0.985951
-1.36345 3.20833 -2.07603 -0.983226 0.0427097 -0.177318
-1.56063 2.31483 0.150849 -0.114126 -0.992172 0.0506925
-0.832427 4.10915 -4.59979 -0.979668 0.0408676 -0.196421
0.791608 4.67143 4.86953 -0.145565 -0.0285278 0.988937
0.699 4.47526 -6.04473 -0.373611 -0.0387384 -0.926776
1.07577 2.81257 4.42565 0.981817 -0.0845347 0.169968
-1.39369 2.3715 -2.22664 -0.977677 0.0396601 -0.206337
-0.734327 4.03366 4.61162 -0.162669 -0.0267682 0.986317
1.01511 4.9829 -6.05993 0.26732 -0.048717 -0.962376
-0.675011 4.24579 -5.49931 -0.98177 0.0421634 -0.185337
1.58179 2.87329 1.35023 0.985281 -0.0838829 0.148947
-0.826897 2.21983 -0.0567399 -0.114126 -0.992172 0.0506925
-1.79555 2.55915 1.05049 -0.991748 0.0477738 -0.118971
1.28609 3.18302 3.41929 0.983066 -0.0838556 0.162943
1.18266 4.50986 4.56966 0.980178 -0.0841162 0.179374
-1.58619 2.67637 -0.743006 -0.988159 0.0452617 -0.146603
1.1496 2.09574 1.96434 -0.114126 -0.992172 0.0506925
1.51405 4.36131 2.62799 0.986317 -0.0825103 0.142727
0.575634 2.08711 0.503337 -0.114126 -0.992172 0.0506925
-0.807635 2.21139 -0.178567 -0.114126 -0.992172 0.0506925
1.52154 4.14701 2.47102 0.984798 -0.083099 0.152539
1.44221 3.80684 2.79732 0.984578 -0.0834841 0.153743
-1.60557 2.80591 -0.438877 -0.991602 0.047664 -0.120225
1.52987 5.47208 3.11795 0.981807 -0.0834665 0.170556
1.36948 2.03449 1.26048 -0.114126 -0.992172 0.0506925
-1.7316 2.45194 0.454123 -0.991533 0.0475712 -0.120824
1.36237 1.98455 0.267064 -0.114126 -0.992172 0.0506925
1.8224 2.65204 -0.887208 0.988886 -0.0816946 0.124222
0.380217 2.92765 -6.13285 0.269352 -0.048865 -0.961801
0.0359238 2.83595 4.70622 -0.165054 -0.026864 0.985919
0.695334 2.02233 -0.495069 -0.114126 -0.992172 0.0506925
1.39096 5.15919 3.76599 0.981788 -0.0837884 0.170502
1.23948 3.97564 4.11526 0.983236 -0.0834044 0.162142
1.68119 2.13606 0.00320773 0.987889 -0.0826491 0.131317
-1.68465 2.64217 0.148577 -0.991602 0.0476492 -0.120228
-1.45648 2.42673 -1.68553 -0.986313 0.0442576 -0.158834
-1.74028 2.83601 0.697442 -0.991719 0.0477636 -0.119214
-1.4752 2.54669 -1.54002 -0.985943 0.0441091 -0.161156
-0.653001 4.68348 -5.51512 -0.98176 0.0421694 -0.185388
1.54926 2.93189 1.56628 0.985997 -0.0836548 0.14426
1.74724 2.86899 -0.0849845 0.988365 -0.0821597 0.128002
1.24456 5.03999 -5.99725 0.273989 -0.0486996 -0.960499
1.26377 3.8504 3.85402 0.981761 -0.0843092 0.170401
-0.900527 5.4295 -4.03219 -0.981733 0.0421892 -0.185525
-0.903411 2.17818 -1.04405 -0.114126 -0.992172 0.0506925
-1.30956 3.31496 -2.34903 -0.983207 0.0427095 -0.177426
-1.3584 2.3209 0.724925 -0.114126 -0.992172 0.0506925
1.95973 5.60422 -0.0526575 0.988941 -0.0804943 0.124568
0.735578 3.57066 4.82429 -0.136981 -0.0296239 0.990131
1.23622 2.55902 3.37194 0.981888 -0.0847659 0.16944
1.16272 3.40266 4.21654 0.981808 -0.0844313 0.170073
1.19165 2.86005 3.78067 0.98186 -0.0846279 0.169673
1.19 1.96914 -0.422604 -0.114126 -0.992172 0.0506925
1.12285 3.13113 4.3123 0.981819 -0.0844881 0.169981
1.66649 2.39354 0.241756 0.988263 -0.0823165 0.12869
0.162781 3.10214 4.7344 -0.16336 -0.026906 0.9862
-1.29583 2.18645 -1.76564 -0.114126 -0.992172 0.0506925
-0.973904 2.21357 -0.510089 -0.114126 -0.992172 0.0506925
-0.782133 4.87256 -4.78751 -0.981753 0.042174 -0.185424
-0.598417 3.80797 -5.72164 -0.977768 0.039725 -0.205894
1.32572 5.36289 4.18712 0.980224 -0.0838179 0.179262
-1.2278 2.25168 -0.335873 -0.114126 -0.992172 0.0506925
-0.904758 2.26049 0.563893 -0.114126 -0.992172 0.0506925
0.424583 3.91797 4.79944 -0.162443 -0.0266881 0.986357
-0.877852 2.16634 -1.21839 -0.114126 -0.992172 0.0506925
0.0498554 4.85233 -6.32921 0.274764 -0.0487374 -0.960276
-0.524262 3.60062 -5.92075 -0.974203 0.038222 -0.222414
-0.84087 4.61014 -4.36043 -0.974206 0.0382239 -0.2224
-0.936647 4.31077 -4.03747 -0.979673 0.0408833 -0.19639
0.664391 2.12835 1.51015 -0.114126 -0.992172 0.0506925
-1.52724 2.35009 -1.23547 -0.988914 0.0457168 -0.141275
-0.511742 3.88771 4.64301 -0.165119 -0.0266623 0.985913
0.965205 5.08099 4.9124 -0.153277 -0.0275402 0.987799
-1.31152 2.25021 -0.553149 -0.114126 -0.992172 0.0506925
1.73377 2.19178 -0.449176 0.988608 -0.0820289 0.126196
1.37711 5.32448 3.92696 0.98179 -0.0837798 0.170498
1.8199 4.968 0.762797 0.987565 -0.0814835 0.134448
0.624468 3.68749 4.82693 -0.163633 -0.0267075 0.98616
-1.42469 3.03463 -1.7356 -0.989092 0.0459043 -0.13996
1.23149 4.06954 4.23159 0.983629 -0.0830937 0.159907
-1.18466 2.22889 -0.684767 -0.114126 -0.992172 0.0506925
-0.212441 2.19912 0.921382 -0.114126 -0.992172 0.0506925
-1.62452 2.35369 0.767471 -0.114126 -0.992172 0.0506925
-0.88821 4.16176 -4.3105 -0.979669 0.0408712 -0.196414
-0.628128 3.26897 -5.79406 -0.979655 0.0408305 -0.196493
0.0165922 4.13786 -6.30249 0.274846 -0.0487576 -0.960251
-1.28371 2.28379 0.166656 -0.114126 -0.992172 0.0506925
-0.816694 3.95417 -4.81707 -0.981788 0.042151 -0.185242
-0.795498 2.20419 -0.292081 -0.114126 -0.992172 0.0506925
0.8918 5.48461 4.90132 -0.137975 -0.028326 0.990031
-0.650547 4.11751 -5.50518 -0.979669 0.0408709 -0.196413
-1.37035 2.54105 -2.19932 -0.983271 0.042671 -0.177079
-1.644 2.43133 -0.269365 -0.991624 0.0476705 -0.120041
0.643172 4.8183 4.86017 -0.163416 -0.0265102 0.986201
-0.736774 2.17538 -0.723785 -0.114126 -0.992172 0.0506925
1.49653 2.49596 1.73278 0.984423 -0.0843472 0.154263
0.695136 5.49976 4.87435 -0.137979 -0.0283235 0.99003
1.28221 4.77119 4.25439 0.983042 -0.0832824 0.16338
0.655119 2.10601 1.05202 -0.114126 -0.992172 0.0506925
1.62838 2.77172 1.0134 0.984869 -0.0840547 0.15155
1.61708 2.16912 0.565894 0.987124 -0.0832129 0.136606
1.12846 3.81704 4.61879 0.981791 -0.0843123 0.170231
0.0620761 3.81793 -6.27322 0.274865 -0.0487648 -0.960245
1.70763 2.16985 -0.189288 0.988016 -0.0825517 0.130421
0.601384 4.02513 4.83226 -0.163751 -0.0266393 0.986142
1.51922 3.01285 1.82917 0.985679 -0.083709 0.146386
-0.775322 2.19208 -0.483716 -0.114126 -0.992172 0.0506925
-1.72998 2.54296 0.489687 -0.99167 0.0477078 -0.119646
-1.7211 3.33184 0.740844 -0.991757 0.047837 -0.118871
-0.00557981 4.44544 -6.31693 0.268186 -0.0487933 -0.962131
0.194957 5.4728 4.80331 -0.163919 -0.0263843 0.986121
1.14362 2.0464 0.985165 -0.114126 -0.992172 0.0506925
1.30765 4.81525 4.03009 0.980215 -0.0839441 0.179253
-1.61591 2.36848 -0.585564 -0.989571 0.0461301 -0.136461
-1.51467 2.31588 0.274882 -0.114126 -0.992172 0.0506925
1.07427 2.08066 1.49964 -0.114126 -0.992172 0.0506925
1.28914 4.22086 3.89184 0.981788 -0.0842215 0.170289
-0.686415 4.26354 -5.09658 -0.974205 0.0382231 -0.222406
-0.471634 5.04988 -5.59067 -0.377462 -0.0385955 -0.92522
1.2568 4.2588 4.15036 0.983123 -0.0833842 0.16284
-0.580103 4.25438 -5.82796 -0.979672 0.0408785 -0.196397
1.68861 2.28589 0.0244279 0.988055 -0.0825096 0.130155
1.78152 2.63661 -0.52912 0.988579 -0.0820086 0.126434
0.979977 2.1244 2.14333 -0.114126 -0.992172 0.0506925
1.64047 2.76359 0.760527 0.987111 -0.0831527 0.136739
0.860612 2.01947 -0.178996 -0.114126 -0.992172 0.0506925
-1.1661 2.22023 -0.81243 -0.114126 -0.992172 0.0506925
-1.44937 2.32709 0.64133 -0.114126 -0.992172 0.0506925
0.822676 5.22781 4.89974 -0.162151 -0.0264755 0.986411
1.63482 2.16972 0.359398 0.988052 -0.0825103 0.130176
1.1159 3.60403 4.58596 0.981794 -0.0843579 0.170189
-1.30917 2.29554 0.339362 -0.114126 -0.992172 0.0506925
-1.70957 2.50817 0.215388 -0.990532 0.0467429 -0.129081
-1.16046 3.39515 -3.12876 -0.98189 0.0420607 -0.184722
-0.918112 2.27193 0.757644 -0.114126 -0.992172 0.0506925
1.1982 2.55637 3.59101 0.981866 -0.0846865 0.169611
1.84043 2.52586 -1.11761 0.988906 -0.0816917 0.124065
-1.14176 2.20619 -1.03243 -0.114126 -0.992172 0.0506925
-0.367002 2.98092 -5.97908 -0.932076 0.0250491 -0.361395
-1.38917 3.30778 4.47901 -0.166085 -0.0268667 0.985745
-0.698996 3.81845 -5.32605 -0.979664 0.0408557 -0.196443
1.38417 2.00137 0.645353 -0.114126 -0.992172 0.0506925
1.582 2.25195 0.864528 0.987211 -0.0831452 0.136018
0.324972 4.90989 -6.24819 0.267854 -0.0487637 -0.962225
1.48641 2.26781 1.58335 0.986734 -0.0834203 0.139273
1.5428 2.10569 1.01736 0.988054 -0.0824992 0.130163
0.699777 2.07826 0.609587 -0.114126 -0.992172 0.0506925
1.57216 3.08856 1.43241 0.987651 -0.0826302 0.133109
1.53765 2.175 1.10219 0.988015 -0.082526 0.130447
1.17716 4.2501 4.47919 0.980205 -0.0842089 0.179182
0.547106 5.12347 4.8516 -0.16205 -0.026483 0.986427
0.683815 2.907 4.80861 -0.15413 -0.0280489 0.987652
-1.45528 2.54796 -1.72611 -0.983254 0.0426783 -0.177172
0.199248 5.32934 4.80025 -0.164013 -0.026403 0.986105
-0.603528 4.33404 -5.69449 -0.979673 0.0408804 -0.196393
0.0686785 3.6867 -6.26466 0.274863 -0.0487674 -0.960246
-0.0962659 3.57336 -6.29827 0.268516 -0.0488187 -0.962037
0.72855 3.11768 -6.04487 0.268941 -0.0488587 -0.961916
1.4727 2.35536 1.89469 0.981951 -0.084973 0.168972
-0.633705 4.89548 -5.42663 -0.979681 0.0409018 -0.196348
1.50573 1.96538 0.214749 -0.114126 -0.992172 0.0506925
-0.639619 4.01603 -5.58086 -0.979668 0.0408681 -0.196418
-1.37121 3.09206 -2.0613 -0.983236 0.0426958 -0.177266
0.253886 4.32893 4.78131 -0.153366 -0.0277267 0.98778
0.764034 4.50646 4.87147 -0.162928 -0.0265447 0.986281
1.25377 2.04622 1.22966 -0.114126 -0.992172 0.0506925
-1.5803 3.26961 -0.53183 -0.989745 0.0463225 -0.135124
1.38889 2.70671 2.53607 0.984234 -0.0843524 0.155458
-0.619668 5.08234 -5.60001 -0.981753 0.0421734 -0.185425
-1.48086 2.68416 -1.5888 -0.981925 0.0420108 -0.184549
1.31483 4.60204 3.93137 0.981781 -0.0840751 0.170404
1.26207 5.48784 4.6703 0.981786 -0.083859 0.170482
-0.69838 3.2287 -5.35791 -0.977737 0.0397029 -0.206045
1.52645 5.09887 2.95453 0.984928 -0.0825345 0.152002
0.194918 2.17961 1.45649 -0.114126 -0.992172 0.0506925
-1.57563 2.39217 -0.866521 -0.989739 0.0462388 -0.135201
2.07393 4.66256 -1.60825 0.989106 -0.080722 0.123102
1.17391 4.06748 4.55197 0.983108 -0.0834002 0.162918
-1.63062 2.3309 0.307685 -0.114126 -0.992172 0.0506925
1.35906 2.01158 0.788752 -0.114126 -0.992172 0.0506925
-1.51721 3.24167 -1.00384 -0.989722 0.0463127 -0.1353
1.32054 2.72922 2.96837 0.981881 -0.0847794 0.169476
-1.43316 3.71999 -1.45113 -0.989122 0.0460769 -0.139693
0.260321 4.6255 -6.24635 0.260922 -0.0487127 -0.96413
-0.681398 3.40781 -5.49944 -0.979659 0.0408427 -0.196468
1.25054 5.23896 4.72839 0.983756 -0.082853 0.159247
0.517671 3.68865 4.8092 -0.163601 -0.0266802 0.986166
1.09134 2.06819 1.29388 -0.114126 -0.992172 0.0506925
-1.25033 2.98629 -2.78755 -0.977682 0.0396639 -0.206311
1.18351 4.12923 4.45552 0.981787 -0.0842344 0.170288
0.8304 3.25589 4.83389 -0.144776 -0.029043 0.989038
1.73924 2.42205 -0.324584 0.988471 -0.0821321 0.127195
-0.561513 3.52519 4.62497 -0.165006 -0.0267526 0.98593
1.13181 4.15489 4.76608 0.981785 -0.0842189 0.170307
1.17414 4.43696 4.6611 0.981784 -0.0841486 0.170353
1.29924 4.71646 4.15761 0.983788 -0.0828903 0.159027
0.674319 2.03713 -0.252709 -0.114126 -0.992172 0.0506925
1.0288 2.10117 1.79876 -0.114126 -0.992172 0.0506925
1.75551 2.21574 -0.617532 0.988706 -0.0819282 0.12549
0.8643 2.09035 1.21663 -0.114126 -0.992172 0.0506925
0.0235751 3.47067 4.72157 -0.154618 -0.0280069 0.987577
1.22485 1.99711 0.203264 -0.114126 -0.992172 0.0506925
-1.62933 2.39131 -0.436929 -0.99069 0.046858 -0.127821
0.834386 2.03834 0.131256 -0.114126 -0.992172 0.0506925
-0.129236 2.15892 0.321773 -0.114126 -0.992172 0.0506925
-0.578552 4.89861 -5.70125 -0.979679 0.040897 -0.196358
2.01449 3.30588 -5.68675 0.275926 -0.0488536 -0.959937
-1.42951 2.38356 -2.05453 -0.977678 0.0396609 -0.206332
0.899842 4.73806 4.88123 -0.137723 -0.0286001 0.990058
-1.6091 3.10658 -0.293383 -0.991543 0.0476225 -0.120729
1.83536 2.84743 -0.867237 0.988924 -0.081617 0.12397
0.621859 3.65499 -6.10472 0.274963 -0.0487747 -0.960217
0.203754 3.33586 -6.20817 0.274886 -0.0487755 -0.960239
0.68853 4.3252 4.85447 -0.163355 -0.0265773 0.986209
-0.75806 4.5713 -4.8739 -0.979677 0.0408934 -0.196367
-0.524146 3.9717 -5.8575 -0.974203 0.0382225 -0.222411
1.26774 3.43827 -5.91006 0.270088 -0.0488524 -0.961596
1.71664 2.1423 -0.286449 0.988112 -0.0824703 0.129743
1.29309 3.98901 3.85177 0.984607 -0.0832772 0.15367
-0.581196 4.15354 -5.73662 -0.977764 0.0397221 -0.205914
0.224078 4.31338 -6.24043 0.261049 -0.048731 -0.964095
0.0825422 2.17328 1.07962 -0.114126 -0.992172 0.0506925
0.359743 3.79985 4.78608 -0.163808 -0.0266658 0.986132
0.304691 5.0668 4.80947 -0.15319 -0.0275335 0.987813
1.18918 4.50004 4.47114 0.978545 -0.0846643 0.187834
-0.0398393 3.24962 -6.17559 0.177513 -0.0486655 -0.982914
-0.860461 2.27816 1.00937 -0.114126 -0.992172 0.0506925
-1.18902 2.3027 0.750059 -0.114126 -0.992172 0.0506925
-1.18625 2.18687 -1.51089 -0.114126 -0.992172 0.0506925
-1.33379 2.20012 -1.58374 -0.114126 -0.992172 0.0506925
1.61875 2.25625 0.687224 0.986134 -0.0837355 0.143276
-1.48002 2.29804 0.00363662 -0.114126 -0.992172 0.0506925
-1.28844 2.24064 -0.688447 -0.114126 -0.992172 0.0506925
-0.651036 3.84214 -5.56021 -0.979666 0.0408617 -0.196431
1.47408 2.21715 1.72875 0.984261 -0.0844412 0.155241
1.09472 3.37404 4.52091 0.980287 -0.0847908 0.178462
-1.27281 2.27549 0.0288139 -0.114126 -0.992172 0.0506925
-0.576433 3.4737 -6.00903 -0.979662 0.040852 -0.19645
1.30811 5.54141 4.48692 0.982995 -0.0831634 0.163724
0.499947 4.70917 -6.18575 0.260941 -0.0487094 -0.964125
-0.659595 4.33768 -5.55961 -0.981766 0.0421657 -0.185357
1.1164 3.47329 4.41406 0.97942 -0.0847647 0.183172
1.16482 3.90121 4.52423 0.983149 -0.0833963 0.162676
1.3397 4.91011 3.93958 0.981783 -0.0839729 0.170444
-0.612549 4.01015 -5.7171 -0.979668 0.040868 -0.196418
0.874288 4.43625 4.87492 -0.145453 -0.0285932 0.988952
0.27681 3.74171 4.77078 -0.163951 -0.0266765 0.986108
1.23692 3.53658 3.85502 0.981817 -0.084422 0.170024
1.35255 2.2975 2.56509 0.981917 -0.0848995 0.169205
1.12908 4.07947 4.66381 0.980236 -0.084358 0.178945
-0.112534 3.32096 4.69461 -0.164586 -0.0267537 0.986
0.00107235 3.43561 -6.27126 0.274878 -0.048772 -0.960241
-1.50832 2.58071 -1.31935 -0.986401 0.0443056 -0.158273
0.060807 3.94094 -6.27984 0.274868 -0.048765 -0.960245
-0.825133 2.29292 1.37784 -0.114126 -0.992172 0.0506925
1.18256 4.67337 4.72889 0.981783 -0.084087 0.170385
0.641255 2.11492 1.19521 -0.114126 -0.992172 0.0506925
0.910862 3.82175 4.86954 -0.153772 -0.0278452 0.987714
0.565478 4.34742 -6.15606 0.274915 -0.0487549 -0.960231
-0.574822 5.07197 -5.84011 -0.981755 0.0421719 -0.185413
0.247844 5.22053 -6.20236 0.14693 -0.0481608 -0.987974
1.21329 4.27693 4.35675 0.981788 -0.0841923 0.170305
1.29911 4.33931 3.89277 0.981788 -0.0841775 0.170314
0.145639 4.37117 4.76577 -0.153855 -0.0277358 0.987704
-0.958503 3.23478 -4.15497 -0.979646 0.0408024 -0.196541
1.49575 2.74447 1.83543 0.985623 -0.0837971 0.146713
1.27736 2.49263 3.10011 0.981885 -0.0847896 0.169447
1.40205 4.8159 3.60604 0.984853 -0.0827558 0.15237
-0.724512 3.71695 -5.35861 -0.98178 0.042156 -0.185287
0.865738 4.32257 4.87632 -0.153581 -0.0277279 0.987747
1.15734 4.95903 4.84382 0.978543 -0.0846644 0.187844
1.07944 3.60375 4.71298 0.980267 -0.084629 0.178648
-0.596581 5.09703 -5.71915 -0.981755 0.0421723 -0.185415
-1.42179 2.84083 -1.92979 -0.979634 0.0407599 -0.196612
-1.41391 2.24069 -0.970065 -0.114126 -0.992172 0.0506925
1.18507 2.10205 2.16768 -0.114126 -0.992172 0.0506925
0.734484 2.06413 0.411178 -0.114126 -0.992172 0.0506925
1.45805 2.25254 1.84191 0.984529 -0.0843062 0.153606
0.784859 3.85004 4.83945 -0.137113 -0.0293593 0.99012
0.969402 2.11667 1.96825 -0.114126 -0.992172 0.0506925
-1.35877 2.21314 -1.38508 -0.114126 -0.992172 0.0506925
0.284989 4.80376 4.80055 -0.163777 -0.0265139 0.986141
-1.41091 2.70092 -1.93548 -0.983248 0.0426812 -0.177207
-1.69431 2.43999 0.11823 -0.991169 0.0472329 -0.123904
-0.675354 3.81459 -5.44469 -0.979665 0.0408595 -0.196435
1.21629 4.95286 4.67201 0.981784 -0.0840267 0.17041
1.34477 4.6839 -5.95033 0.274414 -0.0487316 -0.960376
1.04067 2.84595 4.64499 0.981813 -0.0844733 0.170021
-1.37491 2.18867 -1.90023 -0.114126 -0.992172 0.0506925
0.165031 3.81465 4.7541 -0.16355 -0.0266782 0.986174
0.293156 4.46395 -6.23457 0.268133 -0.0487882 -0.962146
-0.613505 3.80705 -5.92507 -0.981771 0.0421625 -0.185333
1.50829 2.46994 1.60505 0.98537 -0.0839335 0.148326
0.18008 2.11962 0.2491 -0.114126 -0.992172 0.0506925
-1.32004 2.34171 1.21848 -0.114126 -0.992172 0.0506925
1.44826 3.37801 2.52233 0.984808 -0.0836662 0.152158
0.154364 4.59306 4.7733 -0.164212 -0.0265351 0.986068
1.38287 2.90002 2.68694 0.983107 -0.0841648 0.16253
1.38073 4.46194 3.60649 0.9863 -0.0824896 0.142858
1.09324 2.02417 0.436693 -0.114126 -0.992172 0.0506925
-0.362547 2.19233 0.450525 -0.114126 -0.992172 0.0506925
1.45512 3.11585 2.33519 0.984622 -0.0839606 0.153201
1.42986 2.93984 2.40179 0.984473 -0.0841369 0.154058
-1.65197 2.56368 -0.152368 -0.991596 0.0476455 -0.120284
1.35346 5.26683 4.03565 0.981787 -0.0839023 0.170456
1.43656 2.19952 2.02721 0.981935 -0.0849468 0.169076
-1.58861 2.33423 0.46754 -0.114126 -0.992172 0.0506925
1.47848 1.97908 0.421474 -0.114126 -0.992172 0.0506925
0.896039 2.00013 -0.477773 -0.114126 -0.992172 0.0506925
-0.712686 2.96374 -5.3409 -0.97773 0.0396979 -0.206079
1.09075 2.72821 4.29777 0.98183 -0.0845341 0.169896
1.22985 1.94521 -0.80122 -0.114126 -0.992172 0.0506925
1.27241 4.97605 4.36 0.981784 -0.084004 0.17042
1.37827 3.67889 3.11955 0.983156 -0.0836759 0.162488
1.25948 1.97851 -0.0828223 -0.114126 -0.992172 0.0506925
-1.44379 2.30896 -1.79739 -0.986359 0.0442757 -0.158544
-1.74712 2.59402 0.654194 -0.991689 0.0477269 -0.119478
-1.29814 2.99663 -2.48948 -0.981934 0.042027 -0.1845
0.428506 4.83819 -6.22012 0.27473 -0.0487408 -0.960285
1.46762 2.50843 1.88175 0.985884 -0.083773 0.144964
1.71158 2.40219 -0.101478 0.988285 -0.0822992 0.128528
0.417287 4.66669 -6.21463 0.274756 -0.0487456 -0.960278
1.13473 3.36487 4.3592 0.981803 -0.0844009 0.170118
-0.738602 5.32929 -4.91336 -0.981746 0.0421779 -0.185461
0.143294 2.07366 -0.733329 -0.114126 -0.992172 0.0506925
-1.39071 2.75222 -2.03525 -0.983246 0.0426813 -0.177215
-1.58668 2.3557 0.892019 -0.114126 -0.992172 0.0506925
1.22451 3.37487 3.84665 0.98183 -0.0844641 0.169929
1.13588 2.62573 3.98605 0.98184 -0.0845843 0.169812
0.0600918 3.12786 4.71818 -0.164488 -0.0267597 0.986016
1.30745 2.46876 2.91361 0.981893 -0.0848115 0.169388
1.78148 2.3202 -0.754143 0.988709 -0.0819178 0.125476
0.697508 3.0645 4.81517 -0.154059 -0.0279875 0.987665
0.621773 3.4557 4.82025 -0.163717 -0.0266994 0.986146
-1.33291 2.5312 -2.40951 -0.983265 0.0426725 -0.177113
-0.137063 2.14592 0.049749 -0.114126 -0.992172 0.0506925
-0.638431 4.80654 -5.56405 -0.981758 0.0421704 -0.185398
-0.531347 3.75816 -6.04928 -0.977756 0.0397165 -0.205952
0.664936 5.18919 4.86576 -0.145701 -0.0284582 0.988919
-1.40204 2.25503 -0.662622 -0.114126 -0.992172 0.0506925
-1.37497 2.33336 0.931544 -0.114126 -0.992172 0.0506925
1.15908 3.69907 4.38414 0.981797 -0.0843337 0.170183
-0.0912594 2.09434 -0.856731 -0.114126 -0.992172 0.0506925
-0.507223 4.56346 -6.12711 -0.979674 0.0408826 -0.196388
0.0392051 4.29285 -6.30387 0.274828 -0.0487565 -0.960256
-0.6004 4.73928 -5.39159 -0.974205 0.0382234 -0.222404
-0.765018 4.03293 -4.95194 -0.979667 0.0408655 -0.196424
0.917297 2.14882 2.48019 -0.114126 -0.992172 0.0506925
-0.698198 2.15777 -0.981633 -0.114126 -0.992172 0.0506925
0.258383 3.50174 4.76126 -0.164022 -0.0267065 0.986095
1.09024 5.15681 4.93402 -0.153323 -0.0275677 0.987792
1.46559 1.92745 -0.617992 -0.114126 -0.992172 0.0506925
0.559785 4.8094 4.83612 -0.137442 -0.0288046 0.990091
1.27148 3.727 3.84925 0.984624 -0.0833779 0.153503
1.1264 3.47397 4.54785 0.983312 -0.0833371 0.161716
-0.611487 2.19783 -0.00231272 -0.114126 -0.992172 0.0506925
-1.00795 2.29108 0.930256 -0.114126 -0.992172 0.0506925
-1.7829 2.45993 0.900217 -0.991709 0.0477387 -0.119307
-0.759519 4.19668 -4.94511 -0.97967 0.0408729 -0.196409
0.303616 3.05677 -6.16083 0.269195 -0.0488468 -0.961846
-0.223246 3.79572 -6.35376 0.274855 -0.048764 -0.960248
-0.661013 2.22528 0.423399 -0.114126 -0.992172 0.0506925
-0.658557 4.1351 -5.61141 -0.981768 0.0421644 -0.185348
-1.21051 2.24454 -0.436687 -0.114126 -0.992172 0.0506925
1.05763 5.48225 4.92444 -0.137908 -0.0283936 0.990038
-0.552894 4.29085 -5.95613 -0.979671 0.040876 -0.196402
-1.13501 2.25139 -0.13261 -0.114126 -0.992172 0.0506925
1.19953 4.07222 4.33518 0.981791 -0.0842472 0.17026
-1.09634 2.18945 -1.25789 -0.114126 -0.992172 0.0506925
1.44247 2.29029 1.96618 0.984393 -0.0843454 0.154454
1.39632 5.60408 3.95402 0.98179 -0.0838047 0.170485
1.18866 4.28865 4.57722 0.983127 -0.0833611 0.162823
1.5279 2.70616 1.65788 0.984162 -0.0844433 0.155865
1.39229 1.97138 0.0766396 -0.114126 -0.992172 0.0506925
0.0492377 3.9384 4.73826 -0.164102 -0.0266567 0.986083
-0.176795 4.18257 -6.36011 0.274845 -0.048759 -0.960251
1.57255 1.92642 -0.397395 -0.114126 -0.992172 0.0506925
0.853908 4.08795 4.87569 -0.163553 -0.0266228 0.986175
0.207338 2.08061 -0.45316 -0.114126 -0.992172 0.0506925
-1.17089 2.29471 0.634475 -0.114126 -0.992172 0.0506925
-1.32795 2.33573 1.0837 -0.114126 -0.992172 0.0506925
-0.213078 4.49657 -6.37742 0.268231 -0.048795 -0.962118
0.671581 5.0239 4.87036 -0.163343 -0.0265131 0.986213
1.29918 2.04772 1.36125 -0.114126 -0.992172 0.0506925
1.22178 4.76653 4.47724 0.98021 -0.0840534 0.179229
-1.53649 2.27025 -0.66739 -0.114126 -0.992172 0.0506925
-1.64096 3.30397 0.0192682 -0.991152 0.0472878 -0.124026
1.38495 2.48818 2.49493 0.980464 -0.0854262 0.177181
1.233 4.64119 4.42256 0.981786 -0.0840996 0.170365
-0.524351 4.61339 -5.74634 -0.974205 0.0382231 -0.222406
-0.798647 5.27128 -4.60858 -0.981745 0.0421792 -0.185465
0.157047 4.46196 4.77026 -0.164163 -0.02657 0.986075
-0.52224 4.22448 -6.12286 -0.979671 0.0408744 -0.196405
1.25657 2.01523 0.629363 -0.114126 -0.992172 0.0506925
1.15526 2.11526 2.3591 -0.114126 -0.992172 0.0506925
1.15768 2.03426 0.779174 -0.114126 -0.992172 0.0506925
-1.48279 3.05933 -1.31691 -0.989135 0.0459293 -0.139652
1.25054 5.35746 4.6735 0.981785 -0.0839501 0.170441
0.89546 2.04043 0.309575 -0.114126 -0.992172 0.0506925
0.631741 4.46249 4.84889 -0.163544 -0.0265782 0.986178
-1.52616 2.32356 0.399306 -0.114126 -0.992172 0.0506925
-1.19508 2.28162 0.323742 -0.114126 -0.992172 0.0506925
-1.31186 2.79438 -2.46294 -0.981924 0.0420093 -0.184556
-1.3551 2.32594 0.830974 -0.114126 -0.992172 0.0506925
1.28147 2.32676 2.99313 0.981894 -0.0848122 0.169384
1.79333 2.21416 -0.92677 0.988771 -0.0818619 0.125022
-1.39376 2.54705 -2.06776 -0.983259 0.0426778 -0.177143
0.053841 2.94571 -6.22488 0.268979 -0.0488449 -0.961907
-0.614829 3.39427 -5.83407 -0.979663 0.0408524 -0.196449
1.68371 2.99207 0.573068 0.987292 -0.0829792 0.135529
1.56772 2.12708 0.894414 0.987169 -0.0831723 0.136306
-0.0332107 4.98479 -6.35189 0.268076 -0.048782 -0.962162
1.3392 2.05236 1.54217 -0.114126 -0.992172 0.0506925
1.50477 1.99141 0.722019 -0.114126 -0.992172 0.0506925
1.01516 2.09219 1.59223 -0.114126 -0.992172 0.0506925
1.59186 2.52825 0.935896 0.987666 -0.0827695 0.132908
0.800587 2.09147 1.09513 -0.114126 -0.992172 0.0506925
0.416565 4.57827 4.81166 -0.14558 -0.0285338 0.988935
0.863249 5.09355 4.90369 -0.163022 -0.0265139 0.986266
1.12414 2.90712 4.13771 0.980333 -0.0850297 0.178092
-0.67531 2.1429 -1.22114 -0.114126 -0.992172 0.0506925
1.30313 5.38649 4.38458 0.981786 -0.0839215 0.17045
-0.5505 3.96207 -6.0366 -0.979668 0.0408677 -0.196419
-0.553771 3.55219 -6.10565 -0.979665 0.0408588 -0.196437
-0.264721 3.65684 -6.3496 0.268569 -0.0488186 -0.962023
0.13449 3.24187 -6.21726 0.268821 -0.0488354 -0.961951
1.41869 2.22625 2.14493 0.981929 -0.0849218 0.169128
-0.54234 4.77534 -5.90778 -0.979675 0.0408853 -0.196383
1.65707 2.04541 0.117385 0.987994 -0.0825628 0.130582
0.368781 4.03313 -6.19636 0.274846 -0.0487611 -0.960251
-1.20521 3.73543 -2.81251 -0.981888 0.0420828 -0.184731
1.29564 4.94753 4.26234 0.983021 -0.0832718 0.163509
1.26054 4.51502 4.14822 0.980235 -0.0841281 0.179058
1.44478 2.36711 2.06402 0.981933 -0.0849229 0.169103
1.24235 2.71877 3.47762 0.98441 -0.0840524 0.154507
0.465812 5.18042 -6.22679 0.274654 -0.0487343 -0.960307
1.4853 4.57419 2.9353 0.981795 -0.0840367 0.17034
0.88818 5.61636 4.90465 -0.137935 -0.0283677 0.990035
-0.598869 3.15904 -5.84395 -0.977748 0.0397108 -0.205991
1.34345 4.73046 3.93673 0.984786 -0.0829342 0.152701
0.727231 2.15788 2.22968 -0.114126 -0.992172 0.0506925
-0.840669 2.18045 -0.858417 -0.114126 -0.992172 0.0506925
0.685774 3.77966 4.8396 -0.163686 -0.0266519 0.986152
-1.75647 2.44711 0.673865 -0.991695 0.0477286 -0.119429
1.59689 2.6663 1.10843 0.985661 -0.0838451 0.146431
-1.5136 2.73094 -1.20481 -0.989711 0.0462468 -0.135403
1.15667 2.72878 3.91722 0.98184 -0.0845817 0.169813
-1.55628 3.01102 -0.812443 -0.989129 0.0459089 -0.139701
-0.514754 4.7769 -6.04509 -0.979674 0.0408845 -0.196384
-0.599188 3.33842 -5.92367 -0.979663 0.0408535 -0.196447
1.24131 5.35326 4.84057 0.983692 -0.0828996 0.159617
0.768334 3.4315 4.84394 -0.163729 -0.0266822 0.986144
1.25639 2.06811 1.6639 -0.114126 -0.992172 0.0506925
-1.36995 2.5903 -2.29704 -0.977677 0.0396603 -0.206337
1.13131 3.96827 4.67712 0.98179 -0.084252 0.170262
1.04916 3.21178 4.69418 0.980288 -0.0847958 0.178451
1.27283 2.00465 0.458876 -0.114126 -0.992172 0.0506925
0.221041 3.18255 4.74641 -0.164042 -0.0267278 0.986091
0.281509 4.18302 4.78136 -0.152569 -0.027792 0.987902
1.17588 4.74988 4.80518 0.981785 -0.0840764 0.170383
0.444968 5.0712 4.83358 -0.162284 -0.0265097 0.986388
1.81291 2.43707 -0.96155 0.988933 -0.0816761 0.123856
1.41233 2.87215 2.49363 0.983131 -0.0842035 0.16237
0.813916 1.99674 -0.729043 -0.114126 -0.992172 0.0506925
1.19769 2.04705 1.1196 -0.114126 -0.992172 0.0506925
0.522686 3.33874 4.79562 -0.153977 -0.0279492 0.987679
1.32314 2.03257 1.1186 -0.114126 -0.992172 0.0506925
-1.4255 2.26939 -0.434328 -0.114126 -0.992172 0.0506925
1.21449 2.00598 0.35357 -0.114126 -0.992172 0.0506925
0.758118 2.05176 0.222154 -0.114126 -0.992172 0.0506925
0.263628 5.09392 -6.19385 0.14693 -0.0481608 -0.987974
1.54231 3.09022 -5.81196 0.275371 -0.0488312 -0.960097
-0.654231 2.1319 -1.38899 -0.114126 -0.992172 0.0506925
1.00693 4.44461 4.88768 -0.137527 -0.0288193 0.990079
0.117277 4.14567 -6.27406 0.274844 -0.0487589 -0.960252
-0.120352 3.23375 -6.29577 0.274873 -0.0487694 -0.960243
1.11903 3.70984 4.62037 0.981795 -0.084307 0.170209
-0.610103 4.44254 -5.63914 -0.979672 0.0408792 -0.196395
-0.465998 3.88733 -6.1267 -0.974204 0.0382225 -0.222411
0.497729 3.201 -6.11382 0.269155 -0.0488427 -0.961858
1.55233 1.93814 -0.213558 -0.114126 -0.992172 0.0506925
1.33509 3.23893 3.17273 0.984529 -0.0838392 0.153864
0.167611 3.61854 -6.22705 0.268697 -0.048826 -0.961986
-0.571579 4.57561 -5.97105 -0.981762 0.0421683 -0.18538
0.768645 2.11116 1.40848 -0.114126 -0.992172 0.0506925
1.11412 3.23371 4.41331 0.981808 -0.0844172 0.170078
1.32414 5.31623 4.27701 0.982999 -0.083209 0.163676
-0.287856 3.31112 -6.22342 0.177513 -0.0486655 -0.982914
-0.0666151 2.21802 1.61952 -0.114126 -0.992172 0.0506925
-1.40727 2.2938 0.0843834 -0.114126 -0.992172 0.0506925
-1.35533 2.96798 -2.1917 -0.981922 0.0420218 -0.184565
-1.54628 2.88329 -0.898265 -0.990973 0.0471047 -0.125513
1.1307 2.00901 0.224292 -0.114126 -0.992172 0.0506925
-1.64725 3.36804 0.130273 -0.991639 0.0477326 -0.119894
-0.550465 4.17429 -5.99255 -0.97967 0.0408725 -0.196409
0.824832 2.11432 1.59691 -0.114126 -0.992172 0.0506925
1.0884 3.72115 4.7191 0.98026 -0.0845664 0.178712
-1.36436 2.23951 -0.881596 -0.114126 -0.992172 0.0506925
-0.553239 3.39746 -6.14051 -0.979665 0.0408576 -0.196438
1.19201 4.54162 4.68383 0.983092 -0.0833203 0.163055
-0.643468 5.01145 -5.49048 -0.981756 0.042172 -0.185409
-0.590667 4.07311 -5.98486 -0.981766 0.0421656 -0.185358
1.06484 3.35668 4.64102 0.979534 -0.0847347 0.182576
0.294291 3.88922 4.77765 -0.163897 -0.0266515 0.986117
