-1.32532 3.36346 -1.72097
-1.32532 3.35053 -1.72097
-1.32532 3.33759 -1.72097
-1.31039 3.32676 -1.70158
-1.26548 3.32014 -1.64327
-1.28047 3.30507 -1.66273
-1.29544 3.29002 -1.68217
-1.29544 3.27706 -1.68217
-1.29544 3.26411 -1.68217
-1.31039 3.2491 -1.70158
-1.31039 3.23615 -1.70158
-1.31039 3.22321 -1.70158
-1.31039 3.21026 -1.70158
-1.31039 3.19732 -1.70158
-1.37 3.17632 -1.77899
-1.31039 3.17143 -1.70158
-1.26548 3.16451 -1.64327
-1.26548 3.15154 -1.64327
-1.26548 3.13857 -1.64327
-1.26548 3.1256 -1.64327
-1.34023 3.10277 -1.74034
-1.34023 3.08984 -1.74034
-1.34023 3.07691 -1.74034
-1.34023 3.06399 -1.74034
-1.34023 3.05106 -1.74034
-1.34023 3.03813 -1.74034
-1.35512 3.02329 -1.75967
-1.35512 3.01037 -1.75967
-1.38485 2.99366 -1.79827
-1.35512 2.98453 -1.75967
-1.35512 2.97161 -1.75967
-1.38485 2.95495 -1.79827
-1.38485 2.94205 -1.79827
-1.35512 2.93285 -1.75967
-1.34023 2.92178 -1.74034
-1.39968 2.9015 -1.81754
-1.35512 2.89409 -1.75967
-1.34023 2.88299 -1.74034
-1.32532 2.87188 -1.72097
-1.34023 2.85713 -1.74034
-1.37 2.84061 -1.77899
-1.38485 2.82591 -1.79827
-1.38485 2.81301 -1.79827
-1.32532 2.8072 -1.72097
-1.34023 2.79249 -1.74034
-1.34023 2.77957 -1.74034
-1.34023 2.76664 -1.74034
-1.29544 2.75895 -1.68217
-1.29544 2.746 -1.68217
-1.31039 2.73131 -1.70158
-1.31039 2.71837 -1.70158
-1.32532 2.70371 -1.72097
-1.31039 2.69248 -1.70158
-1.26548 2.68464 -1.64327
-1.26548 2.67167 -1.64327
-1.32532 2.65196 -1.72097
-1.34023 2.63735 -1.74034
-1.35512 2.62277 -1.75967
-1.35512 2.60985 -1.75967
-1.32532 2.60022 -1.72097
-1.34023 2.58564 -1.74034
-1.26548 2.58089 -1.64327
-1.26548 2.56792 -1.64327
-1.16966 5.87883 -1.68293
-1.16966 5.86585 -1.68293
-1.16966 5.85287 -1.68293
-1.1837 5.83618 -1.70313
-1.1837 5.82321 -1.70313
-1.1837 5.81024 -1.70313
-1.19772 5.79359 -1.7233
-1.19772 5.78063 -1.7233
-1.25362 5.75305 -1.80373
-1.25362 5.74013 -1.80373
-1.23967 5.73083 -1.78366
-1.1837 5.73243 -1.70313
-1.1837 5.71946 -1.70313
-1.19772 5.70286 -1.7233
-1.19772 5.6899 -1.7233
-1.19772 5.67694 -1.7233
-1.19772 5.66398 -1.7233
-1.19772 5.65102 -1.7233
-1.19772 5.63806 -1.7233
-1.19772 5.6251 -1.7233
-1.21172 5.60857 -1.74345
-1.2257 5.59207 -1.76357
-1.2257 5.57912 -1.76357
-1.21172 5.56971 -1.74345
-1.19772 5.56029 -1.7233
-1.1837 5.55086 -1.70313
-1.1837 5.53789 -1.70313
-1.21172 5.5179 -1.74345
-1.21172 5.50495 -1.74345
-1.2257 5.48851 -1.76357
-1.23967 5.4721 -1.78366
-1.25362 5.4557 -1.80373
-1.23967 5.44622 -1.78366
-1.23967 5.43329 -1.78366
-1.1837 5.43413 -1.70313
-1.23967 5.40742 -1.78366
-1.23967 5.39448 -1.78366
-1.19772 5.3918 -1.7233
-1.21172 5.37542 -1.74345
-1.21172 5.36247 -1.74345
-1.21172 5.34951 -1.74345
-1.21172 5.33656 -1.74345
-1.21172 5.32361 -1.74345
-1.21172 5.31066 -1.74345
-1.2257 5.29434 -1.76357
-1.2257 5.2814 -1.76357
-1.2257 5.26845 -1.76357
-1.23967 5.25218 -1.78366
-1.23967 5.23924 -1.78366
-1.23967 5.22631 -1.78366
-1.1837 5.22662 -1.70313
-1.1837 5.21365 -1.70313
-1.1837 5.20069 -1.70313
-1.1837 5.18772 -1.70313
-1.1837 5.17475 -1.70313
-1.1837 5.16178 -1.70313
-1.1837 5.14881 -1.70313
-1.1837 5.13584 -1.70313
-1.1837 5.12287 -1.70313
-1.1837 5.1099 -1.70313
-1.1837 5.09693 -1.70313
-1.2257 5.07429 -1.76357
-1.1837 5.07099 -1.70313
-1.1837 5.05802 -1.70313
-1.28146 5.02272 -1.84379
-1.28146 5.0098 -1.84379
-1.28146 4.99689 -1.84379
-1.26755 4.98713 -1.82377
-1.28146 4.97107 -1.84379
-1.2257 4.97073 -1.76357
-1.2257 4.95778 -1.76357
-1.2257 4.94484 -1.76357
-1.2257 4.93189 -1.76357
-1.23967 4.91583 -1.78366
-1.25362 4.89979 -1.80373
-1.25362 4.88686 -1.80373
-1.25362 4.87394 -1.80373
-1.1837 4.87645 -1.70313
-1.1837 4.86348 -1.70313
-1.1837 4.85051 -1.70313
-1.1837 4.83755 -1.70313
-1.21172 4.81845 -1.74345
-1.23967 4.7994 -1.78366
-1.25362 4.78344 -1.80373
-1.29535 4.76147 -1.86378
-1.29535 4.74857 -1.86378
-1.29535 4.73566 -1.86378
-1.28146 4.72574 -1.84379
-1.28146 4.71283 -1.84379
-1.30923 4.69399 -1.88374
-1.28146 4.68701 -1.84379
-1.28146 4.6741 -1.84379
-1.28146 4.66118 -1.84379
-1.28146 4.64827 -1.84379
-1.28146 4.63536 -1.84379
-1.28146 4.62245 -1.84379
-1.28146 4.60954 -1.84379
-1.28146 4.59662 -1.84379
-1.28146 4.58371 -1.84379
-1.28146 4.5708 -1.84379
-1.30923 4.55214 -1.88374
-1.26755 4.54785 -1.82377
-1.28146 4.53206 -1.84379
-1.29535 4.5163 -1.86378
-1.29535 4.5034 -1.86378
-1.30923 4.48766 -1.88374
-1.30923 4.47476 -1.88374
-1.30923 4.46187 -1.88374
-1.30923 4.44897 -1.88374
-1.23967 4.45012 -1.78366
-1.28146 4.42877 -1.84379
-1.28146 4.41586 -1.84379
-1.28146 4.40295 -1.84379
-1.29535 4.38726 -1.86378
-1.29535 4.37436 -1.86378
-1.28146 4.36421 -1.84379
-1.28146 4.3513 -1.84379
-1.30923 4.33291 -1.88374
-1.30923 4.32002 -1.88374
-1.29535 4.30984 -1.86378
-1.29535 4.29694 -1.86378
-1.30923 4.28133 -1.88374
-1.30923 4.26843 -1.88374
-1.28146 4.26092 -1.84379
-1.29535 4.24532 -1.86378
-1.29535 4.23242 -1.86378
-1.28146 4.22218 -1.84379
-1.28146 4.20927 -1.84379
-1.30923 4.19106 -1.88374
-1.30923 4.17816 -1.88374
-1.30923 4.16527 -1.88374
-1.30923 4.15237 -1.88374
-1.30923 4.13948 -1.88374
-1.28146 4.1318 -1.84379
-1.29535 4.11628 -1.86378
-1.29535 4.10338 -1.86378
-1.29535 4.09048 -1.86378
-1.30923 4.075 -1.88374
-1.30923 4.0621 -1.88374
-1.29535 4.05177 -1.86378
-1.29535 4.03886 -1.86378
-1.30923 4.02342 -1.88374
-1.30923 4.01052 -1.88374
-1.30923 3.99763 -1.88374
-1.30923 3.98473 -1.88374
-1.30923 3.97184 -1.88374
-1.30923 3.95894 -1.88374
-1.30923 3.94604 -1.88374
-1.30923 3.93315 -1.88374
-1.30923 3.92025 -1.88374
-1.30923 3.90736 -1.88374
-1.30923 3.89446 -1.88374
-1.30923 3.88157 -1.88374
-1.30923 3.86867 -1.88374
-1.30923 3.85578 -1.88374
-1.28146 3.84774 -1.84379
-1.29535 3.8324 -1.86378
-1.28146 3.82191 -1.84379
-1.29535 3.80659 -1.86378
-1.29535 3.79369 -1.86378
-1.29535 3.78079 -1.86378
-1.29535 3.76788 -1.86378
-1.32308 3.75025 -1.90368
-1.32308 3.73736 -1.90368
-1.32308 3.72447 -1.90368
-1.28146 3.71862 -1.84379
-1.30923 3.70103 -1.88374
-1.30923 3.68813 -1.88374
-1.25362 3.68454 -1.80373
-1.30923 3.66234 -1.88374
-1.30923 3.64945 -1.88374
-1.28146 3.64115 -1.84379
-1.29535 3.62594 -1.86378
-1.30923 3.61076 -1.88374
-1.30923 3.59786 -1.88374
-1.30923 3.58497 -1.88374
-1.30923 3.57207 -1.88374
-1.30923 3.55918 -1.88374
-1.29535 3.54852 -1.86378
-1.28146 3.53785 -1.84379
-1.28146 3.52494 -1.84379
-1.28146 3.51203 -1.84379
-1.29535 3.49691 -1.86378
-1.29535 3.484 -1.86378
-1.29535 3.4711 -1.86378
-1.28146 3.46038 -1.84379
-1.28146 3.44747 -1.84379
-1.30923 3.43022 -1.88374
-1.29535 3.41948 -1.86378
-1.32308 3.40228 -1.90368
-1.32308 3.3894 -1.90368
-1.32308 3.37651 -1.90368
-1.30923 3.36574 -1.88374
-1.29535 3.35496 -1.86378
-1.29535 3.34206 -1.86378
-1.29535 3.32916 -1.86378
-1.30923 3.31416 -1.88374
-1.30923 3.30127 -1.88374
-1.28146 3.29253 -1.84379
-1.28146 3.27961 -1.84379
-1.28146 3.2667 -1.84379
-1.28146 3.25379 -1.84379
-1.28146 3.24088 -1.84379
-1.28146 3.22797 -1.84379
-1.25362 3.21912 -1.80373
-1.26755 3.20417 -1.82377
-1.26755 3.19125 -1.82377
-1.26755 3.17833 -1.82377
-1.26755 3.16541 -1.82377
-1.25362 3.15448 -1.80373
-1.25362 3.14155 -1.80373
-1.26755 3.12665 -1.82377
-1.26755 3.11373 -1.82377
-1.28146 3.09885 -1.84379
-1.28146 3.08594 -1.84379
-1.28146 3.07302 -1.84379
-1.30923 3.05625 -1.88374
-1.30923 3.04335 -1.88374
-1.29535 3.03237 -1.86378
-1.29535 3.01947 -1.86378
-1.29535 3.00656 -1.86378
-1.29535 2.99366 -1.86378
-1.28146 2.98264 -1.84379
-1.29535 2.96785 -1.86378
-1.29535 2.95495 -1.86378
-1.29535 2.94205 -1.86378
-1.26755 2.93285 -1.82377
-1.29535 2.91624 -1.86378
-1.29535 2.90334 -1.86378
-1.28146 2.89226 -1.84379
-1.29535 2.87753 -1.86378
-1.33692 2.85921 -1.92359
-1.33692 2.84633 -1.92359
-1.33692 2.83345 -1.92359
-1.33692 2.82057 -1.92359
-1.29535 2.81301 -1.86378
-1.29535 2.80011 -1.86378
-1.28146 2.78896 -1.84379
-1.29535 2.7743 -1.86378
-1.30923 2.75965 -1.88374
-1.32308 2.74503 -1.90368
-1.33692 2.73042 -1.92359
-1.35075 2.71583 -1.94348
-1.26755 2.71321 -1.82377
-1.26755 2.70029 -1.82377
-1.26755 2.68737 -1.82377
-1.36455 2.66267 -1.96334
-1.36455 2.6498 -1.96334
-1.32308 2.64193 -1.90368
-1.23967 2.63903 -1.78366
-1.23967 2.62609 -1.78366
-1.23967 2.61315 -1.78366
-1.28146 2.59528 -1.84379
-1.25362 2.58564 -1.80373
-1.23967 2.57434 -1.78366
-1.2257 2.56303 -1.76357
-1.1121 5.87136 -1.77975
-1.1121 5.85839 -1.77975
-1.20276 5.81957 -1.92483
-1.20276 5.80667 -1.92483
-1.20276 5.79377 -1.92483
-1.20276 5.78086 -1.92483
-1.18986 5.7716 -1.90418
-1.20276 5.75506 -1.92483
-1.20276 5.74215 -1.92483
-1.16401 5.74013 -1.86281
-1.16401 5.7272 -1.86281
-1.15106 5.71789 -1.84209
-1.13809 5.70857 -1.82134
-1.15106 5.69202 -1.84209
-1.22851 5.65759 -1.96604
-1.21564 5.64826 -1.94545
-1.21564 5.63536 -1.94545
-1.20276 5.62602 -1.92483
-1.20276 5.61311 -1.92483
-1.18986 5.60375 -1.90418
-1.18986 5.59084 -1.90418
-1.21564 5.57089 -1.94545
-1.21564 5.55799 -1.94545
-1.21564 5.5451 -1.94545
-1.21564 5.5322 -1.94545
-1.21564 5.5193 -1.94545
-1.21564 5.50641 -1.94545
-1.21564 5.49351 -1.94545
-1.18986 5.48754 -1.90418
-1.21564 5.46772 -1.94545
-1.21564 5.45483 -1.94545
-1.21564 5.44193 -1.94545
-1.22851 5.42561 -1.96604
-1.21564 5.41614 -1.94545
-1.21564 5.40324 -1.94545
-1.21564 5.39035 -1.94545
-1.20276 5.38085 -1.92483
-1.21564 5.36456 -1.94545
-1.21564 5.35166 -1.94545
-1.21564 5.33877 -1.94545
-1.21564 5.32587 -1.94545
-1.21564 5.31297 -1.94545
-1.21564 5.30008 -1.94545
-1.21564 5.28718 -1.94545
-1.21564 5.27429 -1.94545
-1.20276 5.26471 -1.92483
-1.20276 5.25181 -1.92483
-1.20276 5.23891 -1.92483
-1.20276 5.226 -1.92483
-1.21564 5.20981 -1.94545
-1.21564 5.19691 -1.94545
-1.22851 5.18075 -1.96604
-1.22851 5.16786 -1.96604
-1.22851 5.15498 -1.96604
-1.22851 5.14209 -1.96604
-1.20276 5.13568 -1.92483
-1.20276 5.12277 -1.92483
-1.20276 5.10987 -1.92483
-1.20276 5.09697 -1.92483
-1.20276 5.08406 -1.92483
-1.20276 5.07116 -1.92483
-1.25419 5.04552 -2.00714
-1.25419 5.03265 -2.00714
-1.25419 5.01978 -2.00714
-1.25419 5.00691 -2.00714
-1.24136 4.99718 -1.98661
-1.21564 4.99059 -1.94545
-1.21564 4.97769 -1.94545
-1.20276 4.96793 -1.92483
-1.17694 4.96129 -1.88351
-1.17694 4.94837 -1.88351
-1.17694 4.93545 -1.88351
-1.17694 4.92253 -1.88351
-1.21564 4.90032 -1.94545
-1.17694 4.89669 -1.88351
-1.21564 4.87453 -1.94545
-1.22851 4.85857 -1.96604
-1.21564 4.84873 -1.94545
-1.21564 4.83584 -1.94545
-1.21564 4.82294 -1.94545
-1.21564 4.81005 -1.94545
-1.22851 4.79413 -1.96604
-1.25419 4.77522 -2.00714
-1.25419 4.76235 -2.00714
-1.25419 4.74948 -2.00714
-1.18986 4.75157 -1.90418
-1.24136 4.72671 -1.98661
-1.25419 4.71087 -2.00714
-1.24136 4.70095 -1.98661
-1.24136 4.68807 -1.98661
-1.24136 4.6752 -1.98661
-1.20276 4.67114 -1.92483
-1.20276 4.65824 -1.92483
-1.20276 4.64534 -1.92483
-1.20276 4.63243 -1.92483
-1.22851 4.6137 -1.96604
-1.22851 4.60082 -1.96604
-1.24136 4.58504 -1.98661
-1.22851 4.57504 -1.96604
-1.21564 4.56503 -1.94545
-1.21564 4.55214 -1.94545
-1.20276 4.54211 -1.92483
-1.20276 4.5292 -1.92483
-1.20276 4.5163 -1.92483
-1.25419 4.49206 -2.00714
-1.25419 4.47919 -2.00714
-1.25419 4.46631 -2.00714
-1.25419 4.45344 -2.00714
-1.25419 4.44057 -2.00714
-1.26701 4.42492 -2.02766
-1.26701 4.41205 -2.02766
-1.26701 4.39919 -2.02766
-1.26701 4.38633 -2.02766
-1.26701 4.37346 -2.02766
-1.22851 4.36884 -1.96604
-1.21564 4.3587 -1.94545
-1.22851 4.34307 -1.96604
-1.22851 4.33018 -1.96604
-1.22851 4.31729 -1.96604
-1.22851 4.30441 -1.96604
-1.22851 4.29152 -1.96604
-1.22851 4.27863 -1.96604
-1.24136 4.26306 -1.98661
-1.24136 4.25018 -1.98661
-1.24136 4.2373 -1.98661
-1.24136 4.22442 -1.98661
-1.24136 4.21154 -1.98661
-1.24136 4.19866 -1.98661
-1.21564 4.19106 -1.94545
-1.21564 4.17816 -1.94545
-1.21564 4.16527 -1.94545
-1.21564 4.15237 -1.94545
-1.22851 4.13687 -1.96604
-1.22851 4.12398 -1.96604
-1.22851 4.11109 -1.96604
-1.22851 4.09821 -1.96604
-1.22851 4.08532 -1.96604
-1.24136 4.06987 -1.98661
-1.24136 4.05699 -1.98661
-1.24136 4.04411 -1.98661
-1.24136 4.03123 -1.98661
-1.24136 4.01835 -1.98661
-1.24136 4.00547 -1.98661
-1.24136 3.99259 -1.98661
-1.24136 3.97971 -1.98661
-1.24136 3.96683 -1.98661
-1.24136 3.95395 -1.98661
-1.24136 3.94107 -1.98661
-1.22851 3.93067 -1.96604
-1.22851 3.91778 -1.96604
-1.22851 3.90489 -1.96604
-1.22851 3.89201 -1.96604
-1.22851 3.87912 -1.96604
-1.22851 3.86623 -1.96604
-1.21564 3.85578 -1.94545
-1.21564 3.84288 -1.94545
-1.21564 3.82998 -1.94545
-1.21564 3.81709 -1.94545
-1.21564 3.80419 -1.94545
-1.22851 3.78891 -1.96604
-1.22851 3.77602 -1.96604
-1.22851 3.76313 -1.96604
-1.22851 3.75025 -1.96604
-1.22851 3.73736 -1.96604
-1.22851 3.72447 -1.96604
-1.22851 3.71158 -1.96604
-1.22851 3.6987 -1.96604
-1.22851 3.68581 -1.96604
-1.22851 3.67292 -1.96604
-1.26701 3.65313 -2.02766
-1.26701 3.64027 -2.02766
-1.26701 3.6274 -2.02766
-1.25419 3.61681 -2.00714
-1.26701 3.60168 -2.02766
-1.26701 3.58881 -2.02766
-1.25419 3.5782 -2.00714
-1.25419 3.56533 -2.00714
-1.25419 3.55246 -2.00714
-1.24136 3.54181 -1.98661
-1.24136 3.52894 -1.98661
-1.24136 3.51606 -1.98661
-1.25419 3.50097 -2.00714
-1.25419 3.4881 -2.00714
-1.24136 3.47742 -1.98661
-1.22851 3.46672 -1.96604
-1.22851 3.45383 -1.96604
-1.22851 3.44095 -1.96604
-1.22851 3.42806 -1.96604
-1.22851 3.41517 -1.96604
-1.24136 3.40014 -1.98661
-1.24136 3.38726 -1.98661
-1.24136 3.37438 -1.98661
-1.25419 3.35939 -2.00714
-1.25419 3.34652 -2.00714
-1.25419 3.33365 -2.00714
-1.25419 3.32078 -2.00714
-1.25419 3.3079 -2.00714
-1.24136 3.29711 -1.98661
-1.25419 3.28216 -2.00714
-1.24136 3.27135 -1.98661
-1.24136 3.25847 -1.98661
-1.25419 3.24355 -2.00714
-1.24136 3.23271 -1.98661
-1.24136 3.21983 -1.98661
-1.25419 3.20493 -2.00714
-1.25419 3.19206 -2.00714
-1.25419 3.17919 -2.00714
-1.25419 3.16632 -2.00714
-1.25419 3.15345 -2.00714
-1.25419 3.14058 -2.00714
-1.26701 3.12574 -2.02766
-1.26701 3.11288 -2.02766
-1.24136 3.10392 -1.98661
-1.24136 3.09104 -1.98661
-1.24136 3.07816 -1.98661
-1.25419 3.06335 -2.00714
-1.25419 3.05048 -2.00714
-1.25419 3.03761 -2.00714
-1.26701 3.02284 -2.02766
-1.26701 3.00997 -2.02766
-1.26701 2.99711 -2.02766
-1.26701 2.98425 -2.02766
-1.26701 2.97138 -2.02766
-1.26701 2.95852 -2.02766
-1.26701 2.94566 -2.02766
-1.26701 2.93279 -2.02766
-1.26701 2.91993 -2.02766
-1.26701 2.90707 -2.02766
-1.26701 2.8942 -2.02766
-1.26701 2.88134 -2.02766
-1.27981 2.86668 -2.04814
-1.26701 2.85561 -2.02766
-1.26701 2.84275 -2.02766
-1.26701 2.82989 -2.02766
-1.25419 2.8188 -2.00714
-1.26701 2.80416 -2.02766
-1.25419 2.79306 -2.00714
-1.26701 2.77844 -2.02766
-1.21564 2.77255 -1.94545
-1.21564 2.75965 -1.94545
-1.22851 2.74503 -1.96604
-1.26701 2.72698 -2.02766
-1.26701 2.71412 -2.02766
-1.26701 2.70126 -2.02766
-1.26701 2.68839 -2.02766
-1.26701 2.67553 -2.02766
-1.22851 2.6677 -1.96604
-1.22851 2.65481 -1.96604
-1.22851 2.64193 -1.96604
-1.27981 2.62243 -2.04814
-1.31812 2.60467 -2.10944
-1.31812 2.59184 -2.10944
-1.26701 2.58549 -2.02766
-1.24136 2.57587 -1.98661
-1.11916 5.85459 -2.00251
-1.11916 5.84169 -2.00251
-1.1073 5.83248 -1.98129
-1.1073 5.81957 -1.98129
-1.1073 5.80667 -1.98129
-1.1073 5.79377 -1.98129
-1.1073 5.78086 -1.98129
-1.1073 5.76796 -1.98129
-1.11916 5.75142 -2.00251
-1.14283 5.7313 -2.04487
-1.14283 5.71842 -2.04487
-1.14283 5.70554 -2.04487
-1.131 5.69625 -2.0237
-1.11916 5.68695 -2.00251
-1.131 5.67047 -2.0237
-1.131 5.65759 -2.0237
-1.14283 5.64114 -2.04487
-1.14283 5.62827 -2.04487
-1.14283 5.61539 -2.04487
-1.14283 5.60251 -2.04487
-1.14283 5.58963 -2.04487
-1.131 5.58026 -2.0237
-1.131 5.56737 -2.0237
-1.14283 5.55099 -2.04487
-1.11916 5.5451 -2.00251
-1.131 5.52871 -2.0237
-1.131 5.51582 -2.0237
-1.131 5.50294 -2.0237
-1.131 5.49005 -2.0237
-1.11916 5.48062 -2.00251
-1.11916 5.46772 -2.00251
-1.11916 5.45483 -2.00251
-1.11916 5.44193 -2.00251
-1.11916 5.42904 -2.00251
-1.11916 5.41614 -2.00251
-1.11916 5.40324 -2.00251
-1.11916 5.39035 -2.00251
-1.11916 5.37745 -2.00251
-1.14283 5.3578 -2.04487
-1.14283 5.34492 -2.04487
-1.1073 5.34214 -1.98129
-1.14283 5.31916 -2.04487
-1.14283 5.30628 -2.04487
-1.14283 5.2934 -2.04487
-1.14283 5.28052 -2.04487
-1.14283 5.26764 -2.04487
-1.14283 5.25476 -2.04487
-1.14283 5.24189 -2.04487
-1.16645 5.22243 -2.08713
-1.16645 5.20957 -2.08713
-1.17823 5.19344 -2.10822
-1.17823 5.18059 -2.10822
-1.17823 5.16773 -2.10822
-1.17823 5.15488 -2.10822
-1.16645 5.14525 -2.08713
-1.16645 5.13239 -2.08713
-1.131 5.1292 -2.0237
-1.131 5.11631 -2.0237
-1.14283 5.10021 -2.04487
-1.16645 5.08094 -2.08713
-1.16645 5.06807 -2.08713
-1.17823 5.05203 -2.10822
-1.16645 5.04235 -2.08713
-1.16645 5.02948 -2.08713
-1.16645 5.01662 -2.08713
-1.16645 5.00376 -2.08713
-1.16645 4.99089 -2.08713
-1.16645 4.97803 -2.08713
-1.16645 4.96517 -2.08713
-1.16645 4.95231 -2.08713
-1.17823 4.93634 -2.10822
-1.17823 4.92348 -2.10822
-1.16645 4.91372 -2.08713
-1.16645 4.90085 -2.08713
-1.16645 4.88799 -2.08713
-1.16645 4.87513 -2.08713
-1.17823 4.85921 -2.10822
-1.17823 4.84635 -2.10822
-1.16645 4.83654 -2.08713
-1.16645 4.82367 -2.08713
-1.16645 4.81081 -2.08713
-1.16645 4.79795 -2.08713
-1.16645 4.78508 -2.08713
-1.16645 4.77222 -2.08713
-1.2135 4.74743 -2.17132
-1.2135 4.7346 -2.17132
-1.2135 4.72177 -2.17132
-1.2135 4.70894 -2.17132
-1.2135 4.69611 -2.17132
-1.2135 4.68327 -2.17132
-1.2135 4.67044 -2.17132
-1.2135 4.65761 -2.17132
-1.2135 4.64478 -2.17132
-1.17823 4.64067 -2.10822
-1.2135 4.61912 -2.17132
-1.2135 4.60629 -2.17132
-1.17823 4.60211 -2.10822
-1.17823 4.58925 -2.10822
-1.17823 4.5764 -2.10822
-1.17823 4.56354 -2.10822
-1.17823 4.55069 -2.10822
-1.17823 4.53783 -2.10822
-1.15465 4.53067 -2.06602
-1.17823 4.51212 -2.10822
-1.17823 4.49927 -2.10822
-1.17823 4.48641 -2.10822
-1.17823 4.47356 -2.10822
-1.17823 4.4607 -2.10822
-1.2135 4.43949 -2.17132
-1.2135 4.42666 -2.17132
-1.2135 4.41383 -2.17132
-1.2135 4.40099 -2.17132
-1.2135 4.38816 -2.17132
-1.2135 4.37533 -2.17132
-1.2135 4.3625 -2.17132
-1.17823 4.35786 -2.10822
-1.17823 4.34501 -2.10822
-1.20176 4.32672 -2.15031
-1.2135 4.31118 -2.17132
-1.2135 4.29835 -2.17132
-1.2135 4.28552 -2.17132
-1.2135 4.27269 -2.17132
-1.2135 4.25985 -2.17132
-1.2135 4.24702 -2.17132
-1.20176 4.23685 -2.15031
-1.20176 4.22401 -2.15031
-1.20176 4.21117 -2.15031
-1.20176 4.19833 -2.15031
-1.20176 4.18549 -2.15031
-1.20176 4.17265 -2.15031
-1.19 4.16242 -2.12928
-1.2135 4.14438 -2.17132
-1.2135 4.13155 -2.17132
-1.2135 4.11871 -2.17132
-1.2135 4.10588 -2.17132
-1.2135 4.09305 -2.17132
-1.2135 4.08022 -2.17132
-1.20176 4.06994 -2.15031
-1.20176 4.0571 -2.15031
-1.20176 4.04426 -2.15031
-1.20176 4.03142 -2.15031
-1.2135 4.01607 -2.17132
-1.19 4.00826 -2.12928
-1.20176 3.99291 -2.15031
-1.20176 3.98007 -2.15031
-1.19 3.96972 -2.12928
-1.19 3.95687 -2.12928
-1.22522 3.93662 -2.1923
-1.20176 3.92871 -2.15031
-1.20176 3.91587 -2.15031
-1.24863 3.89328 -2.23417
-1.24863 3.88047 -2.23417
-1.2135 3.87493 -2.17132
-1.2135 3.8621 -2.17132
-1.2135 3.84927 -2.17132
-1.20176 3.83884 -2.15031
-1.20176 3.826 -2.15031
-1.23693 3.80601 -2.21325
-1.23693 3.79319 -2.21325
-1.23693 3.78038 -2.21325
-1.23693 3.76756 -2.21325
-1.23693 3.75475 -2.21325
-1.20176 3.74897 -2.15031
-1.20176 3.73613 -2.15031
-1.20176 3.72329 -2.15031
-1.19 3.71278 -2.12928
-1.20176 3.69761 -2.15031
-1.20176 3.68477 -2.15031
-1.20176 3.67193 -2.15031
-1.20176 3.6591 -2.15031
-1.20176 3.64626 -2.15031
-1.2135 3.63114 -2.17132
-1.2135 3.61831 -2.17132
-1.22522 3.60322 -2.1923
-1.2135 3.59265 -2.17132
-1.26031 3.57088 -2.25507
-1.24863 3.5603 -2.23417
-1.24863 3.54749 -2.23417
-1.22522 3.53911 -2.1923
-1.22522 3.52629 -2.1923
-1.23693 3.51127 -2.21325
-1.23693 3.49845 -2.21325
-1.20176 3.49219 -2.15031
-1.22522 3.47499 -2.1923
-1.22522 3.46217 -2.1923
-1.20176 3.45367 -2.15031
-1.20176 3.44083 -2.15031
-1.20176 3.42799 -2.15031
-1.22522 3.41088 -2.1923
-1.22522 3.39806 -2.1923
-1.22522 3.38523 -2.1923
-1.22522 3.37241 -2.1923
-1.22522 3.35959 -2.1923
-1.22522 3.34677 -2.1923
-1.22522 3.33394 -2.1923
-1.2135 3.3232 -2.17132
-1.2135 3.31037 -2.17132
-1.2135 3.29754 -2.17132
-1.22522 3.28265 -2.1923
-1.22522 3.26983 -2.1923
-1.22522 3.25701 -2.1923
-1.20176 3.24825 -2.15031
-1.20176 3.23541 -2.15031
-1.20176 3.22257 -2.15031
-1.22522 3.20571 -2.1923
-1.23693 3.1909 -2.21325
-1.2135 3.18206 -2.17132
-1.2135 3.16923 -2.17132
-1.2135 3.1564 -2.17132
-1.2135 3.14357 -2.17132
-1.2135 3.13074 -2.17132
-1.2135 3.11791 -2.17132
-1.20176 3.10702 -2.15031
-1.20176 3.09418 -2.15031
-1.2135 3.07941 -2.17132
-1.2135 3.06658 -2.17132
-1.20176 3.05567 -2.15031
-1.20176 3.04283 -2.15031
-1.20176 3.02999 -2.15031
-1.2135 3.01526 -2.17132
-1.22522 3.00055 -2.1923
-1.22522 2.98773 -2.1923
-1.22522 2.9749 -2.1923
-1.20176 2.96579 -2.15031
-1.20176 2.95295 -2.15031
-1.20176 2.94011 -2.15031
-1.20176 2.92728 -2.15031
-1.20176 2.91444 -2.15031
-1.20176 2.9016 -2.15031
-1.20176 2.88876 -2.15031
-1.22522 2.87232 -2.1923
-1.22522 2.8595 -2.1923
-1.20176 2.85024 -2.15031
-1.20176 2.8374 -2.15031
-1.20176 2.82456 -2.15031
-1.20176 2.81173 -2.15031
-1.22522 2.79538 -2.1923
-1.22522 2.78256 -2.1923
-1.22522 2.76974 -2.1923
-1.23693 2.75519 -2.21325
-1.20176 2.74753 -2.15031
-1.20176 2.73469 -2.15031
-1.22522 2.71845 -2.1923
-1.22522 2.70562 -2.1923
-1.23693 2.69112 -2.21325
-1.16645 2.68839 -2.08713
-1.26031 2.66216 -2.25507
-1.26031 2.64936 -2.25507
-1.26031 2.63656 -2.25507
-1.26031 2.62376 -2.25507
-1.17823 2.62243 -2.10822
-1.20176 2.6063 -2.15031
-1.20176 2.59346 -2.15031
-1.20176 2.58062 -2.15031
-1.1073 2.58074 -1.98129
-1.03079 5.8509 -2.07654
-1.03079 5.83801 -2.07654
-1.04158 5.82146 -2.09826
-1.04158 5.80858 -2.09826
-1.0631 5.78841 -2.14162
-1.0631 5.77555 -2.14162
-1.0631 5.76268 -2.14162
-1.0631 5.74982 -2.14162
-1.0631 5.73696 -2.14162
-1.0631 5.72409 -2.14162
-1.03079 5.72202 -2.07654
-1.02 5.71274 -2.05479
-1.00919 5.70344 -2.03301
-1.08457 5.66552 -2.18487
-1.04158 5.6669 -2.09826
-1.0631 5.64691 -2.14162
-1.0631 5.63405 -2.14162
-1.0631 5.62119 -2.14162
-1.0631 5.60832 -2.14162
-1.09528 5.58493 -2.20645
-1.09528 5.5721 -2.20645
-1.08457 5.56274 -2.18487
-1.0631 5.55687 -2.14162
-1.0631 5.54401 -2.14162
-1.0631 5.53115 -2.14162
-1.0631 5.51828 -2.14162
-1.0631 5.50542 -2.14162
-1.0631 5.49256 -2.14162
-1.0631 5.47969 -2.14162
-1.0631 5.46683 -2.14162
-1.0631 5.45397 -2.14162
-1.05235 5.44453 -2.11995
-1.05235 5.43166 -2.11995
-1.10598 5.4018 -2.228
-1.10598 5.38897 -2.228
-1.05235 5.39304 -2.11995
-1.05235 5.38017 -2.11995
-1.05235 5.3673 -2.11995
-1.09528 5.34099 -2.20645
-1.05235 5.34156 -2.11995
-1.05235 5.32869 -2.11995
-1.05235 5.31581 -2.11995
-1.05235 5.30294 -2.11995
-1.05235 5.29007 -2.11995
-1.05235 5.2772 -2.11995
-1.05235 5.26433 -2.11995
-1.07384 5.24486 -2.16326
-1.07384 5.23201 -2.16326
-1.07384 5.21915 -2.16326
-1.07384 5.2063 -2.16326
-1.07384 5.19344 -2.16326
-1.07384 5.18059 -2.16326
-1.07384 5.16773 -2.16326
-1.07384 5.15488 -2.16326
-1.07384 5.14202 -2.16326
-1.07384 5.12917 -2.16326
-1.10598 5.10669 -2.228
-1.0631 5.10666 -2.14162
-1.0631 5.0938 -2.14162
-1.0631 5.08094 -2.14162
-1.07384 5.06489 -2.16326
-1.07384 5.05203 -2.16326
-1.07384 5.03918 -2.16326
-1.0631 5.02948 -2.14162
-1.0631 5.01662 -2.14162
-1.0631 5.00376 -2.14162
-1.0631 4.99089 -2.14162
-1.0631 4.97803 -2.14162
-1.0631 4.96517 -2.14162
-1.0631 4.95231 -2.14162
-1.0631 4.93944 -2.14162
-1.0631 4.92658 -2.14162
-1.0631 4.91372 -2.14162
-1.0631 4.90085 -2.14162
-1.0631 4.88799 -2.14162
-1.0631 4.87513 -2.14162
-1.0631 4.86226 -2.14162
-1.0631 4.8494 -2.14162
-1.0631 4.83654 -2.14162
-1.0631 4.82367 -2.14162
-1.0631 4.81081 -2.14162
-1.0631 4.79795 -2.14162
-1.10598 4.77309 -2.228
-1.10598 4.76026 -2.228
-1.10598 4.74743 -2.228
-1.10598 4.7346 -2.228
-1.10598 4.72177 -2.228
-1.10598 4.70894 -2.228
-1.10598 4.69611 -2.228
-1.10598 4.68327 -2.228
-1.10598 4.67044 -2.228
-1.10598 4.65761 -2.228
-1.10598 4.64478 -2.228
-1.10598 4.63195 -2.228
-1.10598 4.61912 -2.228
-1.10598 4.60629 -2.228
-1.09528 4.59634 -2.20645
-1.09528 4.5835 -2.20645
-1.09528 4.57066 -2.20645
-1.0631 4.56641 -2.14162
-1.09528 4.54498 -2.20645
-1.09528 4.53214 -2.20645
-1.09528 4.5193 -2.20645
-1.0631 4.51496 -2.14162
-1.0631 4.5021 -2.14162
-1.0631 4.48923 -2.14162
-1.0631 4.47637 -2.14162
-1.0631 4.46351 -2.14162
-1.0631 4.45064 -2.14162
-1.11667 4.42389 -2.24953
-1.09528 4.41659 -2.20645
-1.09528 4.40375 -2.20645
-1.11667 4.38542 -2.24953
-1.11667 4.37259 -2.24953
-1.11667 4.35977 -2.24953
-1.09528 4.3524 -2.20645
-1.09528 4.33956 -2.20645
-1.09528 4.32672 -2.20645
-1.09528 4.31388 -2.20645
-1.09528 4.30104 -2.20645
-1.10598 4.28552 -2.228
-1.10598 4.27269 -2.228
-1.10598 4.25985 -2.228
-1.09528 4.24969 -2.20645
-1.09528 4.23685 -2.20645
-1.09528 4.22401 -2.20645
-1.09528 4.21117 -2.20645
-1.09528 4.19833 -2.20645
-1.09528 4.18549 -2.20645
-1.09528 4.17265 -2.20645
-1.09528 4.15981 -2.20645
-1.09528 4.14697 -2.20645
-1.09528 4.13414 -2.20645
-1.11667 4.11614 -2.24953
-1.09528 4.10846 -2.20645
-1.12734 4.08793 -2.27103
-1.11667 4.07767 -2.24953
-1.14864 4.05723 -2.31395
-1.14864 4.04443 -2.31395
-1.11667 4.0392 -2.24953
-1.12734 4.02386 -2.27103
-1.09528 4.01859 -2.20645
-1.09528 4.00575 -2.20645
-1.09528 3.99291 -2.20645
-1.09528 3.98007 -2.20645
-1.09528 3.96723 -2.20645
-1.09528 3.95439 -2.20645
-1.09528 3.94155 -2.20645
-1.09528 3.92871 -2.20645
-1.09528 3.91587 -2.20645
-1.10598 3.90059 -2.228
-1.09528 3.8902 -2.20645
-1.09528 3.87736 -2.20645
-1.09528 3.86452 -2.20645
-1.09528 3.85168 -2.20645
-1.10598 3.83644 -2.228
-1.10598 3.8236 -2.228
-1.10598 3.81077 -2.228
-1.09528 3.80032 -2.20645
-1.09528 3.78748 -2.20645
-1.09528 3.77465 -2.20645
-1.09528 3.76181 -2.20645
-1.09528 3.74897 -2.20645
-1.09528 3.73613 -2.20645
-1.09528 3.72329 -2.20645
-1.09528 3.71045 -2.20645
-1.09528 3.69761 -2.20645
-1.10598 3.68246 -2.228
-1.11667 3.66734 -2.24953
-1.11667 3.65451 -2.24953
-1.10598 3.64397 -2.228
-1.09528 3.63342 -2.20645
-1.09528 3.62058 -2.20645
-1.09528 3.60774 -2.20645
-1.10598 3.59265 -2.228
-1.10598 3.57982 -2.228
-1.10598 3.56699 -2.228
-1.10598 3.55416 -2.228
-1.14864 3.53248 -2.31395
-1.14864 3.51968 -2.31395
-1.14864 3.50688 -2.31395
-1.14864 3.49408 -2.31395
-1.138 3.48346 -2.2925
-1.14864 3.46849 -2.31395
-1.14864 3.45569 -2.31395
-1.14864 3.44289 -2.31395
-1.14864 3.43009 -2.31395
-1.14864 3.41729 -2.31395
-1.14864 3.40449 -2.31395
-1.14864 3.39169 -2.31395
-1.10598 3.38735 -2.228
-1.10598 3.37452 -2.228
-1.10598 3.36169 -2.228
-1.11667 3.34677 -2.24953
-1.11667 3.33394 -2.24953
-1.11667 3.32112 -2.24953
-1.11667 3.3083 -2.24953
-1.10598 3.29754 -2.228
-1.09528 3.28677 -2.20645
-1.09528 3.27393 -2.20645
-1.09528 3.26109 -2.20645
-1.09528 3.24825 -2.20645
-1.09528 3.23541 -2.20645
-1.09528 3.22257 -2.20645
-1.09528 3.20973 -2.20645
-1.09528 3.19689 -2.20645
-1.15928 3.17213 -2.33536
-1.09528 3.17122 -2.20645
-1.12734 3.15245 -2.27103
-1.11667 3.1416 -2.24953
-1.12734 3.12682 -2.27103
-1.11667 3.11595 -2.24953
-1.10598 3.10507 -2.228
-1.09528 3.09418 -2.20645
-1.09528 3.08134 -2.20645
-1.09528 3.0685 -2.20645
-1.10598 3.05375 -2.228
-1.10598 3.04092 -2.228
-1.10598 3.02809 -2.228
-1.11667 3.01337 -2.24953
-1.11667 3.00055 -2.24953
-1.11667 2.98773 -2.24953
-1.11667 2.9749 -2.24953
-1.11667 2.96208 -2.24953
-1.12734 2.94741 -2.27103
-1.11667 2.93643 -2.24953
-1.11667 2.92361 -2.24953
-1.10598 2.91261 -2.228
-1.11667 2.89797 -2.24953
-1.11667 2.88514 -2.24953
-1.12734 2.87052 -2.27103
-1.12734 2.85771 -2.27103
-1.12734 2.84489 -2.27103
-1.12734 2.83208 -2.27103
-1.12734 2.81926 -2.27103
-1.11667 2.80821 -2.24953
-1.09528 2.79889 -2.20645
-1.09528 2.78605 -2.20645
-1.09528 2.77321 -2.20645
-1.15928 2.75004 -2.33536
-1.15928 2.73724 -2.33536
-1.07384 2.73813 -2.16326
-1.09528 2.72185 -2.20645
-1.09528 2.70901 -2.20645
-1.09528 2.69618 -2.20645
-1.09528 2.68334 -2.20645
-1.09528 2.6705 -2.20645
-1.0631 2.66267 -2.14162
-1.05235 2.65147 -2.11995
-1.05235 2.6386 -2.11995
-1.05235 2.62573 -2.11995
-1.09528 2.6063 -2.20645
-1.09528 2.59346 -2.20645
-1.08457 2.58224 -2.18487
-1.09528 2.56779 -2.20645
-0.98619 5.85455 -2.25732
-0.976544 5.84538 -2.23524
-0.976544 5.83253 -2.23524
-0.98619 5.81604 -2.25732
-1.04381 5.78147 -2.38921
-1.03424 5.77228 -2.36729
-1.03424 5.75948 -2.36729
-1.03424 5.74668 -2.36729
-1.02465 5.73746 -2.34536
-1.02465 5.72466 -2.34536
-1.05337 5.70117 -2.41109
-1.05337 5.68839 -2.41109
-1.05337 5.6756 -2.41109
-1.06292 5.6593 -2.43294
-1.06292 5.64652 -2.43294
-1.06292 5.63375 -2.43294
-1.05337 5.62447 -2.41109
-1.06292 5.6082 -2.43294
-1.06292 5.59542 -2.43294
-1.05337 5.58612 -2.41109
-1.05337 5.57334 -2.41109
-1.05337 5.56056 -2.41109
-1.05337 5.54777 -2.41109
-1.06292 5.53155 -2.43294
-1.06292 5.51877 -2.43294
-1.06292 5.506 -2.43294
-1.07245 5.48981 -2.45477
-1.07245 5.47704 -2.45477
-1.07245 5.46427 -2.45477
-1.07245 5.4515 -2.45477
-1.07245 5.43874 -2.45477
-1.09149 5.41923 -2.49834
-1.05337 5.41995 -2.41109
-1.07245 5.40044 -2.45477
-1.06292 5.39102 -2.43294
-1.05337 5.3816 -2.41109
-1.07245 5.36214 -2.45477
-1.07245 5.34937 -2.45477
-1.05337 5.34325 -2.41109
-1.05337 5.33047 -2.41109
-1.06292 5.31437 -2.43294
-1.06292 5.3016 -2.43294
-1.05337 5.29212 -2.41109
-1.06292 5.27605 -2.43294
-1.06292 5.26327 -2.43294
-1.04381 5.25704 -2.38921
-1.04381 5.24425 -2.38921
-1.04381 5.23146 -2.38921
-1.04381 5.21867 -2.38921
-1.06292 5.1994 -2.43294
-1.06292 5.18662 -2.43294
-1.06292 5.17385 -2.43294
-1.06292 5.16107 -2.43294
-1.06292 5.1483 -2.43294
-1.06292 5.13552 -2.43294
-1.06292 5.12275 -2.43294
-1.06292 5.10997 -2.43294
-1.06292 5.0972 -2.43294
-1.06292 5.08442 -2.43294
-1.06292 5.07165 -2.43294
-1.06292 5.05887 -2.43294
-1.06292 5.0461 -2.43294
-1.06292 5.03332 -2.43294
-1.04381 5.02681 -2.38921
-1.07245 5.00466 -2.45477
-1.07245 4.99189 -2.45477
-1.07245 4.97913 -2.45477
-1.07245 4.96636 -2.45477
-1.07245 4.95359 -2.45477
-1.07245 4.94082 -2.45477
-1.07245 4.92806 -2.45477
-1.07245 4.91529 -2.45477
-1.07245 4.90252 -2.45477
-1.07245 4.88976 -2.45477
-1.07245 4.87699 -2.45477
-1.07245 4.86422 -2.45477
-1.07245 4.85146 -2.45477
-1.05337 4.84472 -2.41109
-1.05337 4.83193 -2.41109
-1.07245 4.81316 -2.45477
-1.06292 4.80338 -2.43294
-1.06292 4.7906 -2.43294
-1.06292 4.77783 -2.43294
-1.07245 4.76209 -2.45477
-1.05337 4.75524 -2.41109
-1.07245 4.73655 -2.45477
-1.07245 4.72379 -2.45477
-1.08198 4.70809 -2.47657
-1.07245 4.69825 -2.45477
-1.08198 4.68257 -2.47657
-1.07245 4.67272 -2.45477
-1.08198 4.65706 -2.47657
-1.08198 4.6443 -2.47657
-1.08198 4.63154 -2.47657
-1.08198 4.61878 -2.47657
-1.08198 4.60602 -2.47657
-1.08198 4.59326 -2.47657
-1.09149 4.57766 -2.49834
-1.09149 4.56491 -2.49834
-1.09149 4.55216 -2.49834
-1.10099 4.53659 -2.52008
-1.09149 4.52665 -2.49834
-1.09149 4.5139 -2.49834
-1.08198 4.50395 -2.47657
-1.06292 4.49678 -2.43294
-1.06292 4.484 -2.43294
-1.06292 4.47123 -2.43294
-1.06292 4.45845 -2.43294
-1.05337 4.44845 -2.41109
-1.05337 4.43566 -2.41109
-1.04381 4.42564 -2.38921
-1.07245 4.40461 -2.45477
-1.05337 4.39731 -2.41109
-1.05337 4.38453 -2.41109
-1.08198 4.3636 -2.47657
-1.08198 4.35084 -2.47657
-1.08198 4.33808 -2.47657
-1.07245 4.32801 -2.45477
-1.06292 4.31793 -2.43294
-1.10099 4.29447 -2.52008
-1.11048 4.27907 -2.5418
-1.07245 4.27694 -2.45477
-1.07245 4.26417 -2.45477
-1.08198 4.24877 -2.47657
-1.08198 4.23601 -2.47657
-1.08198 4.22325 -2.47657
-1.08198 4.21049 -2.47657
-1.08198 4.19773 -2.47657
-1.08198 4.18497 -2.47657
-1.08198 4.17221 -2.47657
-1.08198 4.15945 -2.47657
-1.08198 4.14669 -2.47657
-1.07245 4.1365 -2.45477
-1.07245 4.12374 -2.45477
-1.06292 4.11353 -2.43294
-1.06292 4.10075 -2.43294
-1.10099 4.07783 -2.52008
-1.10099 4.06509 -2.52008
-1.08198 4.05738 -2.47657
-1.11048 4.0371 -2.5418
-1.11048 4.02436 -2.5418
-1.08198 4.0191 -2.47657
-1.08198 4.00634 -2.47657
-1.08198 3.99358 -2.47657
-1.06292 3.98578 -2.43294
-1.07245 3.97053 -2.45477
-1.09149 3.95285 -2.49834
-1.13887 3.92792 -2.60678
-1.13887 3.91521 -2.60678
-1.12941 3.90491 -2.58515
-1.12941 3.89219 -2.58515
-1.12941 3.87947 -2.58515
-1.08198 3.87875 -2.47657
-1.08198 3.86599 -2.47657
-1.09149 3.85084 -2.49834
-1.09149 3.83809 -2.49834
-1.09149 3.82534 -2.49834
-1.08198 3.81496 -2.47657
-1.08198 3.8022 -2.47657
-1.09149 3.78709 -2.49834
-1.08198 3.77668 -2.47657
-1.08198 3.76392 -2.47657
-1.08198 3.75116 -2.47657
-1.08198 3.7384 -2.47657
-1.09149 3.72333 -2.49834
-1.11995 3.70369 -2.56349
-1.11048 3.69325 -2.5418
-1.11995 3.67823 -2.56349
-1.11048 3.66778 -2.5418
-1.11048 3.65504 -2.5418
-1.10099 3.64456 -2.52008
-1.10099 3.63182 -2.52008
-1.08198 3.62357 -2.47657
-1.07245 3.61306 -2.45477
-1.07245 3.60029 -2.45477
-1.07245 3.58752 -2.45477
-1.07245 3.57476 -2.45477
-1.07245 3.56199 -2.45477
-1.08198 3.54702 -2.47657
-1.07245 3.53646 -2.45477
-1.08198 3.5215 -2.47657
-1.08198 3.50874 -2.47657
-1.08198 3.49598 -2.47657
-1.08198 3.48322 -2.47657
-1.09149 3.46831 -2.49834
-1.09149 3.45556 -2.49834
-1.09149 3.44281 -2.49834
-1.08198 3.43219 -2.47657
-1.09149 3.4173 -2.49834
-1.09149 3.40455 -2.49834
-1.10099 3.3897 -2.52008
-1.10099 3.37696 -2.52008
-1.10099 3.36421 -2.52008
-1.10099 3.35147 -2.52008
-1.11048 3.33666 -2.5418
-1.11048 3.32392 -2.5418
-1.09149 3.3153 -2.49834
-1.09149 3.30254 -2.49834
-1.09149 3.28979 -2.49834
-1.09149 3.27704 -2.49834
-1.09149 3.26429 -2.49834
-1.09149 3.25154 -2.49834
-1.09149 3.23879 -2.49834
-1.09149 3.22604 -2.49834
-1.09149 3.21329 -2.49834
-1.10099 3.19855 -2.52008
-1.10099 3.18581 -2.52008
-1.10099 3.17306 -2.52008
-1.09149 3.16228 -2.49834
-1.09149 3.14953 -2.49834
-1.09149 3.13678 -2.49834
-1.09149 3.12403 -2.49834
-1.09149 3.11128 -2.49834
-1.09149 3.09853 -2.49834
-1.09149 3.08577 -2.49834
-1.09149 3.07302 -2.49834
-1.13887 3.05081 -2.60678
-1.13887 3.0381 -2.60678
-1.13887 3.02539 -2.60678
-1.14831 3.01082 -2.62839
-1.14831 2.99811 -2.62839
-1.14831 2.98541 -2.62839
-1.14831 2.9727 -2.62839
-1.13887 2.96183 -2.60678
-1.11048 2.9546 -2.5418
-1.11048 2.94186 -2.5418
-1.11048 2.92913 -2.5418
-1.11048 2.91639 -2.5418
-1.11048 2.90366 -2.5418
-1.11048 2.89092 -2.5418
-1.11048 2.87818 -2.5418
-1.11048 2.86545 -2.5418
-1.10099 2.85448 -2.52008
-1.11995 2.83822 -2.56349
-1.11995 2.82549 -2.56349
-1.11048 2.81451 -2.5418
-1.10099 2.80351 -2.52008
-1.09149 2.7925 -2.49834
-1.12941 2.77287 -2.58515
-1.12941 2.76015 -2.58515
-1.11048 2.75083 -2.5418
-1.11048 2.7381 -2.5418
-1.11048 2.72536 -2.5418
-1.11048 2.71263 -2.5418
-1.11048 2.69989 -2.5418
-1.11048 2.68715 -2.5418
-1.11048 2.67442 -2.5418
-1.16715 2.65183 -2.67152
-1.06292 2.65719 -2.43294
-1.11995 2.63458 -2.56349
-1.11048 2.62348 -2.5418
-1.09149 2.61398 -2.49834
-1.10099 2.59962 -2.52008
-1.10099 2.58688 -2.52008
-1.09149 2.57573 -2.49834
-0.934331 5.85456 -2.45967
-0.951258 5.83451 -2.50423
-0.959706 5.81813 -2.52647
-0.9428 5.81259 -2.48196
-0.934331 5.80343 -2.45967
-0.959706 5.77985 -2.52647
-0.968142 5.76351 -2.54868
-0.984984 5.74363 -2.59301
-0.984984 5.7309 -2.59301
-0.984984 5.71816 -2.59301
-1.00178 5.69837 -2.63723
-0.968142 5.69976 -2.54868
-0.976568 5.68348 -2.57086
-0.976568 5.67074 -2.57086
-0.976568 5.65799 -2.57086
-0.976568 5.64525 -2.57086
-0.976568 5.63251 -2.57086
-0.968142 5.62325 -2.54868
-0.968142 5.6105 -2.54868
-0.984984 5.59081 -2.59301
-0.984984 5.57807 -2.59301
-0.984984 5.56534 -2.59301
-0.968142 5.5595 -2.54868
-0.968142 5.54674 -2.54868
-0.968142 5.53399 -2.54868
-1.01017 5.50417 -2.6593
-0.984984 5.50166 -2.59301
-0.984984 5.48893 -2.59301
-0.984984 5.47619 -2.59301
-1.0269 5.4466 -2.70336
-1.0269 5.4339 -2.70336
-1.0269 5.4212 -2.70336
-0.984984 5.42525 -2.59301
-0.984984 5.41252 -2.59301
-0.984984 5.39978 -2.59301
-0.984984 5.38704 -2.59301
-0.984984 5.37431 -2.59301
-0.984984 5.36157 -2.59301
-0.984984 5.34884 -2.59301
-0.984984 5.3361 -2.59301
-0.984984 5.32337 -2.59301
-0.984984 5.31063 -2.59301
-1.01854 5.28481 -2.68135
-1.01854 5.2721 -2.68135
-0.993388 5.26916 -2.61514
-1.01854 5.2467 -2.68135
-1.01854 5.23399 -2.68135
-0.993388 5.23098 -2.61514
-0.984984 5.22149 -2.59301
-0.984984 5.20875 -2.59301
-0.984984 5.19601 -2.59301
-0.984984 5.18328 -2.59301
-1.01854 5.15777 -2.68135
-1.01854 5.14506 -2.68135
-1.01854 5.13236 -2.68135
-1.01854 5.11966 -2.68135
-1.01854 5.10695 -2.68135
-1.01854 5.09425 -2.68135
-1.01854 5.08155 -2.68135
-0.984984 5.0814 -2.59301
-0.984984 5.06866 -2.59301
-1.01854 5.04343 -2.68135
-1.01854 5.03073 -2.68135
-0.984984 5.03046 -2.59301
-0.984984 5.01772 -2.59301
-0.984984 5.00498 -2.59301
-1.0269 4.97684 -2.70336
-0.984984 4.97951 -2.59301
-0.984984 4.96678 -2.59301
-1.01017 4.94486 -2.6593
-1.01854 4.9291 -2.68135
-1.0269 4.91336 -2.70336
-1.0269 4.90067 -2.70336
-0.984984 4.9031 -2.59301
-0.984984 4.89037 -2.59301
-0.984984 4.87763 -2.59301
-0.993388 4.86188 -2.61514
-1.01017 4.84316 -2.6593
-1.0269 4.82449 -2.70336
-1.0269 4.81179 -2.70336
-1.0269 4.7991 -2.70336
-1.0269 4.7864 -2.70336
-1.01854 4.77665 -2.68135
-1.0269 4.76101 -2.70336
-1.0269 4.74831 -2.70336
-1.0269 4.73562 -2.70336
-1.0269 4.72292 -2.70336
-1.0269 4.71023 -2.70336
-1.01854 4.70043 -2.68135
-1.01854 4.68773 -2.68135
-1.01017 4.67791 -2.6593
-1.01017 4.6652 -2.6593
-1.03525 4.64388 -2.72534
-1.03525 4.63119 -2.72534
-1.01017 4.62706 -2.6593
-1.01017 4.61435 -2.6593
-1.01017 4.60164 -2.6593
-1.01017 4.58893 -2.6593
-1.01017 4.57622 -2.6593
-1.01017 4.5635 -2.6593
-1.01017 4.55079 -2.6593
-1.01854 4.53528 -2.68135
-1.0269 4.51979 -2.70336
-1.0269 4.50709 -2.70336
-1.01854 4.49717 -2.68135
-1.01854 4.48446 -2.68135
-1.0269 4.469 -2.70336
-1.0269 4.45631 -2.70336
-1.01017 4.4491 -2.6593
-1.01017 4.43639 -2.6593
-1.01017 4.42368 -2.6593
-1.01017 4.41096 -2.6593
-1.0269 4.39283 -2.70336
-1.03525 4.37743 -2.72534
-1.0269 4.36743 -2.70336
-1.03525 4.35205 -2.72534
-1.03525 4.33937 -2.72534
-1.01017 4.33469 -2.6593
-1.01017 4.32198 -2.6593
-1.01017 4.30927 -2.6593
-1.01017 4.29656 -2.6593
-1.01854 4.2812 -2.68135
-1.01017 4.27114 -2.6593
-1.00178 4.26106 -2.63723
-1.03525 4.23786 -2.72534
-1.03525 4.22517 -2.72534
-1.03525 4.21248 -2.72534
-1.0269 4.20238 -2.70336
-1.01854 4.19228 -2.68135
-1.01017 4.18215 -2.6593
-1.01017 4.16944 -2.6593
-1.01017 4.15673 -2.6593
-1.07685 4.12366 -2.83485
-1.0269 4.12621 -2.70336
-1.0269 4.11351 -2.70336
-1.0269 4.10082 -2.70336
-1.0269 4.08812 -2.70336
-1.0269 4.07542 -2.70336
-1.0269 4.06273 -2.70336
-1.0269 4.05003 -2.70336
-1.01854 4.03983 -2.68135
-1.01854 4.02712 -2.68135
-1.0269 4.01194 -2.70336
-1.0269 3.99925 -2.70336
-1.0269 3.98655 -2.70336
-1.00178 3.98123 -2.63723
-1.01017 3.96605 -2.6593
-1.01017 3.95334 -2.6593
-1.01017 3.94063 -2.6593
-1.01017 3.92792 -2.6593
-1.0269 3.91038 -2.70336
-1.03525 3.89528 -2.72534
-1.03525 3.88259 -2.72534
-1.03525 3.8699 -2.72534
-1.03525 3.85721 -2.72534
-1.03525 3.84453 -2.72534
-1.03525 3.83184 -2.72534
-1.0269 3.8215 -2.70336
-1.0269 3.80881 -2.70336
-1.01854 3.79846 -2.68135
-1.01854 3.78575 -2.68135
-1.01854 3.77305 -2.68135
-1.01017 3.76267 -2.6593
-1.04359 3.74071 -2.7473
-1.05192 3.72574 -2.76923
-1.01017 3.72453 -2.6593
-1.01017 3.71182 -2.6593
-1.0269 3.69454 -2.70336
-1.03525 3.67958 -2.72534
-1.03525 3.66689 -2.72534
-1.03525 3.6542 -2.72534
-1.0269 3.64376 -2.70336
-1.01017 3.63555 -2.6593
-1.03525 3.61614 -2.72534
-1.04359 3.60123 -2.7473
-1.04359 3.58855 -2.7473
-1.01017 3.5847 -2.6593
-1.01017 3.57199 -2.6593
-1.0269 3.55489 -2.70336
-1.0269 3.54219 -2.70336
-1.0269 3.5295 -2.70336
-1.03525 3.51463 -2.72534
-1.03525 3.50194 -2.72534
-1.03525 3.48926 -2.72534
-1.03525 3.47657 -2.72534
-1.04359 3.46175 -2.7473
-1.03525 3.45119 -2.72534
-1.08514 3.42585 -2.85667
-1.08514 3.4132 -2.85667
-1.08514 3.40056 -2.85667
-1.07685 3.39 -2.83485
-1.07685 3.37735 -2.83485
-1.0269 3.37714 -2.70336
-1.01854 3.36652 -2.68135
-1.01017 3.35589 -2.6593
-1.01017 3.34318 -2.6593
-1.01017 3.33047 -2.6593
-1.01017 3.31776 -2.6593
-1.01017 3.30505 -2.6593
-1.08514 3.27415 -2.85667
-1.06024 3.26752 -2.79113
-1.06024 3.25485 -2.79113
-1.07685 3.23821 -2.83485
-1.03525 3.23549 -2.72534
-1.03525 3.2228 -2.72534
-1.04359 3.20814 -2.7473
-1.03525 3.19743 -2.72534
-1.03525 3.18474 -2.72534
-1.06855 3.16425 -2.81301
-1.07685 3.14966 -2.83485
-1.05192 3.1428 -2.76923
-1.05192 3.13013 -2.76923
-1.05192 3.11746 -2.76923
-1.05192 3.10478 -2.76923
-1.0269 3.09783 -2.70336
-1.0269 3.08513 -2.70336
-1.0269 3.07244 -2.70336
-1.0269 3.05974 -2.70336
-1.03525 3.04517 -2.72534
-1.03525 3.03248 -2.72534
-1.07685 3.01052 -2.83485
-1.07685 2.99787 -2.83485
-1.07685 2.98522 -2.83485
-1.07685 2.97257 -2.83485
-1.07685 2.95993 -2.83485
-1.07685 2.94728 -2.83485
-1.06855 2.93643 -2.81301
-1.06855 2.92377 -2.81301
-1.08514 2.90754 -2.85667
-1.07685 2.89668 -2.83485
-1.07685 2.88403 -2.83485
-1.07685 2.87138 -2.83485
-1.07685 2.85873 -2.83485
-1.07685 2.84608 -2.83485
-1.06855 2.83517 -2.81301
-1.04359 2.82773 -2.7473
-1.04359 2.81505 -2.7473
-1.04359 2.80237 -2.7473
-1.04359 2.78969 -2.7473
-1.05192 2.7753 -2.76923
-1.05192 2.76262 -2.76923
-1.05192 2.74995 -2.76923
-1.07685 2.73224 -2.83485
-1.06855 2.72126 -2.81301
-1.0269 2.71695 -2.70336
-1.0269 2.70425 -2.70336
-1.01017 2.69488 -2.6593
-1.01017 2.68217 -2.6593
-1.04359 2.66288 -2.7473
-1.01017 2.65675 -2.6593
-1.01017 2.64404 -2.6593
-1.01854 2.6297 -2.68135
-1.03525 2.61377 -2.72534
-1.03525 2.60108 -2.72534
-1.00178 2.59479 -2.63723
-1.01017 2.58048 -2.6593
-0.91539 5.81672 -2.81731
-0.91539 5.80404 -2.81731
-0.929861 5.78426 -2.86185
-0.929861 5.7716 -2.86185
-0.951498 5.74836 -2.92844
-0.951498 5.73573 -2.92844
-0.951498 5.72309 -2.92844
-0.929861 5.72097 -2.86185
-0.929861 5.70832 -2.86185
-0.937082 5.69216 -2.88407
-0.951498 5.67256 -2.92844
-0.92263 5.67383 -2.83959
-0.91539 5.66465 -2.81731
-0.91539 5.65197 -2.81731
-0.91539 5.6393 -2.81731
-0.91539 5.62663 -2.81731
-0.929861 5.60706 -2.86185
-0.937082 5.59097 -2.88407
-0.908141 5.59205 -2.795
-0.91539 5.57594 -2.81731
-0.91539 5.56327 -2.81731
-0.92263 5.54718 -2.83959
-0.937082 5.52772 -2.88407
-0.937082 5.51507 -2.88407
-0.937082 5.50243 -2.88407
-0.937082 5.48978 -2.88407
-0.937082 5.47713 -2.88407
-0.937082 5.46448 -2.88407
-0.937082 5.45183 -2.88407
-0.929861 5.44252 -2.86185
-0.929861 5.42986 -2.86185
-0.929861 5.4172 -2.86185
-0.937082 5.40123 -2.88407
-0.937082 5.38858 -2.88407
-0.937082 5.37593 -2.88407
-0.929861 5.36658 -2.86185
-0.929861 5.35392 -2.86185
-0.944295 5.33471 -2.90627
-0.944295 5.32207 -2.90627
-0.929861 5.31595 -2.86185
-0.929861 5.30329 -2.86185
-0.937082 5.28739 -2.88407
-0.937082 5.27474 -2.88407
-0.937082 5.26209 -2.88407
-0.937082 5.24944 -2.88407
-0.937082 5.23679 -2.88407
-0.958692 5.21455 -2.95058
-0.951498 5.20511 -2.92844
-0.951498 5.19247 -2.92844
-0.951498 5.17984 -2.92844
-0.951498 5.16721 -2.92844
-0.965877 5.14827 -2.9727
-0.973054 5.13251 -2.99478
-0.973054 5.1199 -2.99478
-0.973054 5.10729 -2.99478
-0.973054 5.09468 -2.99478
-0.973054 5.08207 -2.99478
-0.973054 5.06946 -2.99478
-0.965877 5.05994 -2.9727
-0.951498 5.0535 -2.92844
-0.951498 5.04087 -2.92844
-0.951498 5.02823 -2.92844
-0.958692 5.01253 -2.95058
-0.958692 4.99991 -2.95058
-0.958692 4.98728 -2.95058
-0.965877 4.97161 -2.9727
-0.965877 4.95899 -2.9727
-0.958692 4.9494 -2.95058
-0.965877 4.93376 -2.9727
-0.958692 4.92415 -2.95058
-0.965877 4.90852 -2.9727
-0.965877 4.8959 -2.9727
-0.958692 4.88627 -2.95058
-0.958692 4.87365 -2.95058
-0.958692 4.86102 -2.95058
-0.951498 4.85136 -2.92844
-0.951498 4.83873 -2.92844
-0.951498 4.82609 -2.92844
-0.951498 4.81346 -2.92844
-0.951498 4.80083 -2.92844
-0.951498 4.78819 -2.92844
-0.951498 4.77556 -2.92844
-0.951498 4.76293 -2.92844
-0.987379 4.7358 -3.03887
-0.987379 4.72321 -3.03887
-0.987379 4.71061 -3.03887
-0.987379 4.69802 -3.03887
-0.980221 4.68828 -3.01684
-0.951498 4.68712 -2.92844
-0.951498 4.67449 -2.92844
-0.951498 4.66186 -2.92844
-0.973054 4.6407 -2.99478
-0.973054 4.62809 -2.99478
-0.973054 4.61548 -2.99478
-0.973054 4.60287 -2.99478
-0.973054 4.59026 -2.99478
-0.973054 4.57765 -2.99478
-0.973054 4.56504 -2.99478
-0.973054 4.55243 -2.99478
-0.973054 4.53981 -2.99478
-0.973054 4.5272 -2.99478
-0.973054 4.51459 -2.99478
-0.973054 4.50198 -2.99478
-0.973054 4.48937 -2.99478
-0.973054 4.47676 -2.99478
-0.973054 4.46415 -2.99478
-0.973054 4.45154 -2.99478
-0.958692 4.44436 -2.95058
-0.994528 4.41823 -3.06087
-0.994528 4.40564 -3.06087
-0.994528 4.39305 -3.06087
-0.994528 4.38047 -3.06087
-1.00167 4.36522 -3.08285
-1.00167 4.35264 -3.08285
-1.00167 4.34006 -3.08285
-0.973054 4.33805 -2.99478
-0.973054 4.32544 -2.99478
-0.973054 4.31282 -2.99478
-0.973054 4.30021 -2.99478
-0.980221 4.28499 -3.01684
-0.980221 4.27238 -3.01684
-0.980221 4.25978 -3.01684
-0.980221 4.24718 -3.01684
-0.994528 4.22941 -3.06087
-0.987379 4.2194 -3.03887
-0.987379 4.2068 -3.03887
-0.987379 4.19421 -3.03887
-0.973054 4.18672 -2.99478
-0.973054 4.17411 -2.99478
-0.973054 4.1615 -2.99478
-0.973054 4.14889 -2.99478
-0.973054 4.13628 -2.99478
-0.973054 4.12367 -2.99478
-0.980221 4.10855 -3.01684
-0.994528 4.09095 -3.06087
-0.994528 4.07836 -3.06087
-0.994528 4.06578 -3.06087
-0.994528 4.05319 -3.06087
-0.973054 4.048 -2.99478
-0.994528 4.02801 -3.06087
-0.994528 4.01543 -3.06087
-0.994528 4.00284 -3.06087
-0.994528 3.99025 -3.06087
-0.987379 3.98009 -3.03887
-0.994528 3.96508 -3.06087
-0.965877 3.96215 -2.9727
-0.965877 3.94953 -2.9727
-0.965877 3.93691 -2.9727
-0.973054 3.9219 -2.99478
-1.00167 3.89976 -3.08285
-1.00167 3.88718 -3.08285
-0.994528 3.87696 -3.06087
-0.994528 3.86438 -3.06087
-0.994528 3.85179 -3.06087
-0.994528 3.8392 -3.06087
-0.994528 3.82661 -3.06087
-0.994528 3.81403 -3.06087
-0.994528 3.80144 -3.06087
-0.994528 3.78885 -3.06087
-0.994528 3.77626 -3.06087
-1.00167 3.76138 -3.08285
-1.00167 3.74881 -3.08285
-1.00167 3.73623 -3.08285
-1.0088 3.72138 -3.1048
-1.0088 3.70881 -3.1048
-0.994528 3.70074 -3.06087
-0.994528 3.68815 -3.06087
-0.994528 3.67556 -3.06087
-0.994528 3.66298 -3.06087
-1.00167 3.64817 -3.08285
-1.0088 3.63338 -3.1048
-0.994528 3.62521 -3.06087
-0.994528 3.61263 -3.06087
-0.994528 3.60004 -3.06087
-0.994528 3.58745 -3.06087
-0.980221 3.57922 -3.01684
-0.980221 3.56662 -3.01684
-0.980221 3.55402 -3.01684
-0.994528 3.5371 -3.06087
-0.994528 3.52451 -3.06087
-0.994528 3.51192 -3.06087
-0.994528 3.49934 -3.06087
-0.994528 3.48675 -3.06087
-0.994528 3.47416 -3.06087
-0.994528 3.46157 -3.06087
-1.00167 3.44689 -3.08285
-1.00167 3.43431 -3.08285
-1.00167 3.42173 -3.08285
-1.00167 3.40915 -3.08285
-1.00167 3.39657 -3.08285
-1.00167 3.38399 -3.08285
-0.994528 3.37346 -3.06087
-0.994528 3.36087 -3.06087
-0.994528 3.34829 -3.06087
-0.994528 3.3357 -3.06087
-1.0088 3.31907 -3.1048
-1.0088 3.3065 -3.1048
-1.01592 3.29192 -3.12672
-1.02303 3.27737 -3.14861
-0.994528 3.27276 -3.06087
-0.994528 3.26017 -3.06087
-0.994528 3.24759 -3.06087
-0.994528 3.235 -3.06087
-0.994528 3.22241 -3.06087
-0.994528 3.20982 -3.06087
-0.994528 3.19724 -3.06087
-0.994528 3.18465 -3.06087
-1.00167 3.17013 -3.08285
-1.01592 3.15371 -3.12672
-1.01592 3.14115 -3.12672
-0.994528 3.1343 -3.06087
-1.00167 3.11981 -3.08285
-1.00167 3.10723 -3.08285
-0.994528 3.09654 -3.06087
-0.994528 3.08395 -3.06087
-0.994528 3.07136 -3.06087
-0.994528 3.05877 -3.06087
-0.994528 3.04619 -3.06087
-0.994528 3.0336 -3.06087
-1.01592 3.0155 -3.12672
-1.0088 3.00476 -3.1048
-1.0088 2.99219 -3.1048
-1.0088 2.97962 -3.1048
-1.00167 2.96885 -3.08285
-1.00167 2.95627 -3.08285
-1.00167 2.94369 -3.08285
-1.00167 2.93111 -3.08285
-0.994528 2.92031 -3.06087
-0.994528 2.90772 -3.06087
-0.994528 2.89514 -3.06087
-0.994528 2.88255 -3.06087
-0.994528 2.86996 -3.06087
-0.994528 2.85737 -3.06087
-1.00167 2.84305 -3.08285
-1.00167 2.83047 -3.08285
-1.04432 2.80765 -3.21412
-1.04432 2.79512 -3.21412
-1.0514 2.7809 -3.23591
-1.0514 2.76837 -3.23591
-1.04432 2.75751 -3.21412
-1.0088 2.75332 -3.1048
-1.02303 2.73742 -3.14861
-1.02303 2.72486 -3.14861
-1.03014 2.71066 -3.17048
-1.03014 2.69811 -3.17048
-1.03723 2.68393 -3.19231
-1.03014 2.67301 -3.17048
-1.01592 2.66369 -3.12672
-1.01592 2.65113 -3.12672
-1.0088 2.64017 -3.1048
-1.0088 2.6276 -3.1048
-0.994528 2.61821 -3.06087
-0.994528 2.60562 -3.06087
-0.994528 2.59303 -3.06087
-0.825597 5.81349 -3.03874
-0.825597 5.80088 -3.03874
-0.843817 5.77768 -3.1058
-0.825597 5.77565 -3.03874
-0.825597 5.76304 -3.03874
-0.825597 5.75043 -3.03874
-0.825597 5.73782 -3.03874
-0.825597 5.72521 -3.03874
-0.825597 5.7126 -3.03874
-0.825597 5.69999 -3.03874
-0.825597 5.68738 -3.03874
-0.825597 5.67477 -3.03874
-0.825597 5.66216 -3.03874
-0.849875 5.63579 -3.1281
