-0.682481 0.724963 1.9735 -0.0277923 0.975723 0.217238
-0.425022 0.391503 3.6023 0.0460852 0.918949 0.391675
-0.196172 0.8569 1.38827 0.0581189 0.968991 0.240162
-0.351567 0.425059 3.53543 0.0224338 0.967632 0.251367
0.865098 0.706664 2.24679 -0.0329156 0.960894 0.274953
0.964015 0.41039 3.42861 0.00371174 0.938114 0.346306
0.391084 0.789285 1.87743 0.0432851 0.987975 0.148434
0.720213 0.671377 2.40221 -0.0114963 0.980777 0.194794
0.457571 -0.390753 2.29421 -0.462477 -0.162257 0.871658
0.0938923 -0.49566 2.70804 0.224755 0.529663 -0.817889
0.723016 0.79368 1.91919 -0.0476026 0.972496 0.228003
1.04032 0.634915 2.55155 0.0216664 0.946895 0.320812
0.149938 0.724542 2.15752 -0.0735329 0.975453 0.207568
-0.886215 0.63396 2.44775 -0.0636759 0.973194 0.220997
0.0715261 -0.233287 2.31877 0.337953 -0.672316 0.65862
-0.260239 0.690595 2.27306 -0.0406218 0.98494 0.168055
-1.11 0.299192 3.9144 -0.00515821 0.978241 0.207407
0.406152 0.499925 3.26694 0.0256916 0.996109 0.0842997
-0.64054 0.58907 2.75382 -0.131585 0.980852 0.143579
1.07469 0.570977 2.80564 0.078795 0.949574 0.303481
1.01724 0.627682 2.58368 0.108357 0.968908 0.222431
0.791113 0.663032 2.4364 0.0190064 0.978133 0.207112
0.380674 -0.178383 2.90951 -0.943232 0.0823407 -0.321766
0.548018 0.632228 2.63312 0.0615876 0.963065 0.262132
0.461968 -0.331665 2.30373 -0.424047 -0.266772 0.865458
0.804214 0.848252 1.62404 -0.0730203 0.963498 0.257566
-0.62967 0.782689 1.7661 -0.128656 0.970162 0.205508
0.861541 0.739775 2.13881 -0.0173874 0.977971 0.208016
0.415439 0.689496 2.35049 -0.0100506 0.983453 0.180887
0.400771 0.313058 3.01418 0.17948 0.974157 0.137129
-0.336189 0.50328 3.21583 -0.0397635 0.953867 0.297586
-0.310569 0.524211 3.07775 0.133308 0.979971 0.147938
0.84941 0.617319 2.62479 -0.00871952 0.95936 0.282049
0.63253 0.556213 2.8779 0.0493641 0.971387 0.232316
-0.679267 0.767543 1.80368 -0.16434 0.97777 0.130224
1.04546 0.622234 2.58896 0.0145535 0.980635 0.195302
-0.229126 0.31339 4.00087 -0.0315008 0.990909 0.130794
0.0835757 0.870873 1.3753 -0.0746624 0.958401 0.275485
-0.341483 0.755591 1.93952 -0.023274 0.955994 0.292463
0.218254 0.289642 3.23556 -0.44098 0.0750026 -0.894377
0.459776 0.438311 3.45899 0.180026 0.976037 0.12224
0.804089 0.441728 3.31962 0.0625612 0.978082 0.198599
-0.427907 0.379137 3.62649 0.0802561 0.902005 0.424199
1.15337 0.392896 3.65874 -0.144978 0.981089 0.128244
-0.527502 0.479211 3.22356 -0.0174905 0.957106 0.289209
-1.35285 0.443585 3.20729 -0.104037 0.982968 0.151492
0.869637 0.66344 2.44569 0.0568719 0.97621 0.209238
0.871368 0.741717 2.12353 0.0181755 0.976105 0.216536
0.999544 0.451076 3.24173 0.0453938 0.974138 0.221347
-0.0469048 0.350151 3.86123 0.0255472 0.975348 0.21919
0.359958 0.69494 2.30932 -0.0331819 0.973546 0.226068
0.0481533 -0.355421 2.25147 0.516619 -0.196638 0.833329
0.732516 0.582359 2.77771 0.06473 0.964312 0.256733
0.804776 0.679278 2.37123 -0.0314526 0.966702 0.253966
0.13958 0.789234 1.88164 0.0239296 0.98787 0.153427
0.701456 0.695425 2.28038 0.0513505 0.944727 0.323811
1.02642 0.537356 2.93494 0.0281522 0.966979 0.253297
0.611966 0.658499 2.46211 0.014665 0.989719 0.142271
0.294874 -0.212644 3.07168 -0.998188 0.0585651 -0.0137846
-1.36535 0.439669 3.20738 -0.117958 0.982208 0.146129
1.2318 0.412482 3.47733 -0.169692 0.970325 0.172261
-0.722293 0.314631 3.90135 0.00181278 0.944678 0.327994
-0.574488 0.603062 2.69664 0.00573985 0.984835 0.173398
0.692535 0.713409 2.34144 -0.0418942 0.98017 0.193678
0.131803 -0.171126 3.29165 0.348345 0.651855 -0.673603
-0.88452 0.663477 2.26161 -0.0556905 0.978685 0.197671
0.543104 0.804926 1.76774 -0.151585 0.948816 0.277075
0.540179 -0.535818 2.54421 -0.386222 0.914077 -0.123678
-0.876919 0.72248 1.90683 -0.0866736 0.988666 0.122585
1.11654 0.472688 3.16673 0.00765537 0.979002 0.203707
-0.0602713 0.480729 3.35277 -0.115293 0.92189 0.369901
0.296617 0.719988 2.18408 -0.0947913 0.96849 0.230306
0.321949 0.470551 3.39668 0.0931046 0.973855 0.207213
1.32817 0.498183 3.0832 -0.101002 0.979975 0.171601
0.372249 -0.578264 2.55474 -0.433852 0.797753 -0.418763
-0.696081 0.57531 2.75577 -0.129191 0.971526 0.198615
0.32069 -0.136585 3.24321 -0.903896 0.296875 -0.307955
-0.603593 0.656125 2.39624 -0.0305716 0.977705 0.207746
0.556399 -0.503633 2.40913 -0.766445 0.515886 0.382653
0.135609 -0.514915 2.68646 -0.00536487 0.688744 -0.724985
1.30062 0.455291 3.27442 -0.131184 0.96208 0.239151
0.815716 0.553434 2.89578 -0.0553968 0.95669 0.285788
0.112199 -0.3189 2.23845 0.264405 -0.489488 0.830958
0.137462 0.0165963 2.29406 -0.618528 0.131048 0.774758
0.248664 -0.23202 3.25043 -0.349248 0.827573 -0.439488
-0.291023 0.694545 2.25173 -0.0294919 0.984445 0.173201
-0.0638682 0.713546 2.16521 -0.104429 0.979296 0.173417
1.18062 0.402495 3.45193 -0.142983 0.952989 0.267147
-0.107125 0.349579 3.80476 -0.0381635 0.974146 0.222671
0.226106 0.23148 4.29834 0.0364585 0.972687 0.229238
-0.89393 0.66414 2.27908 -0.0672289 0.9737 0.217691
-0.442917 0.420965 3.50488 -0.00570379 0.97174 0.235985
-0.174561 0.733455 2.04021 -0.057955 0.976722 0.206533
0.495457 -0.228727 2.75115 -0.761012 0.374689 -0.529593
0.825689 0.410961 3.44408 0.05349 0.950439 0.306276
0.520768 -0.469389 2.32755 -0.794056 0.197714 0.57479
0.595544 0.575618 2.82866 0.124666 0.964557 0.232567
1.19895 0.537501 2.85429 -0.0217182 0.94585 0.323877
0.277765 0.756305 2.04233 -0.023457 0.983869 0.177345
0.449568 0.820644 1.61808 -0.115043 0.961635 0.249044
0.521576 0.323313 3.14325 -0.0529994 0.742373 -0.667887
1.37105 0.518819 2.99188 -0.0531816 0.961236 0.27055
0.77282 0.669556 2.41748 0.01976 0.979154 0.202155
0.0814764 0.340001 3.89091 0.106629 0.942341 0.317212
-0.53407 0.685525 2.23017 -0.0709506 0.98175 0.176447
-0.540008 0.808531 1.66591 -0.0380798 0.983974 0.174198
-0.0858791 0.681733 2.35862 -0.0339185 0.985784 0.164555
0.749317 0.734514 2.14708 -0.0588738 0.980485 0.18757
0.118489 -0.460625 2.72412 -0.0370285 0.107705 -0.993493
0.517838 -0.534211 2.38684 -0.496655 0.730052 0.469423
-0.283041 0.659164 2.45427 -0.0292981 0.980242 0.195622
0.107455 0.440902 3.51127 0.0359697 0.957361 0.286647
-0.183405 0.506586 3.03717 0.620692 0.766628 0.164386
0.213199 0.759126 1.94964 -0.00223495 0.973485 0.228738
-0.631562 0.773393 1.85088 -0.0344038 0.948136 0.315997
-0.108464 0.705718 2.21138 -0.0159449 0.987304 0.158041
0.929407 0.510825 3.04203 0.0521559 0.968013 0.245421
0.637178 0.29608 3.03162 -0.420583 0.81167 0.405342
0.249083 0.780328 1.91437 -0.0212671 0.969808 0.24294
0.751305 0.401661 3.4866 0.107541 0.963796 0.243992
0.0701303 0.00342758 2.27165 -0.19936 0.613648 0.763997
-0.177746 0.729992 2.06823 -0.061841 0.982785 0.174093
-0.472386 0.723132 2.09643 -0.0665878 0.987446 0.143238
-0.439368 0.726932 2.00777 0.0208114 0.978627 0.204586
0.82686 0.460216 3.2638 1.04533e-05 0.960734 0.27747
0.726913 0.700288 2.27012 -0.00460269 0.950182 0.311662
-1.4306 0.561977 2.66637 -0.027553 0.971614 0.234961
0.872178 0.729582 2.19032 -0.02899 0.960686 0.276119
0.539013 0.415831 3.53598 0.167627 0.9717 0.166433
0.742072 0.542339 2.96939 -0.000811145 0.969764 0.244044
0.158015 0.763518 2.01617 -0.0516845 0.983942 0.170841
0.732573 0.670398 2.42233 -0.00726799 0.971355 0.237523
0.338087 0.476973 3.33974 0.0612983 0.97623 0.207888
1.07281 0.493856 3.07381 0.0163 0.966151 0.257463
0.699728 0.293507 4.02367 0.00110897 0.986941 0.161078
0.751054 0.40562 3.46779 0.0679857 0.967044 0.245366
0.850164 0.596961 2.72727 0.0164712 0.968706 0.247664
0.254889 0.812543 1.61904 -0.0368824 0.998165 0.048034
1.33945 0.336811 3.89879 -0.038666 0.983162 0.178601
-0.0505784 0.144143 2.17635 0.0732054 0.257083 0.963613
0.866991 0.555458 2.88297 -0.0184257 0.968638 0.247792
0.522257 0.841282 1.60933 -0.122023 0.966778 0.224611
-0.0860281 0.804277 1.68672 -0.0437378 0.987014 0.154562
0.020401 0.307038 3.2475 0.379992 0.397227 -0.835354
0.977269 0.538992 2.93233 0.101725 0.979434 0.174246
0.488017 0.854798 1.52525 -0.0575207 0.984951 0.162979
1.07828 0.464054 3.17855 -0.0160275 0.97764 0.209674
0.0460563 0.799782 1.74431 -0.0854219 0.975016 0.205054
0.173405 -0.477786 2.7091 -0.217498 0.281242 -0.934664
-0.962286 0.361768 3.65334 -0.0715095 0.971958 0.224017
-0.667744 0.621842 2.5345 -0.002965 0.987906 0.155028
0.253172 0.775944 1.93318 -0.014707 0.966667 0.255613
0.402366 0.834008 1.541 -0.147614 0.966158 0.211541
-0.387042 0.271664 4.17894 0.0235335 0.984235 0.17529
0.448214 -0.303111 2.74485 -0.75268 0.398004 -0.524467
0.566556 0.757653 2.0232 0.0756544 0.975901 0.204681
-0.702362 0.494977 3.13571 -0.066163 0.958617 0.276905
0.710305 0.721229 2.19464 -0.108375 0.982856 0.149164
-0.457349 0.712774 2.12979 -0.0584335 0.977555 0.202417
0.615905 0.407237 3.48769 0.143581 0.951991 0.270366
-0.394248 0.368547 3.6884 -0.00701668 0.976014 0.217595
1.19651 0.588385 2.70864 -0.00951645 0.957015 0.289883
0.363744 -0.0880897 2.9387 -0.817803 -0.0556563 -0.572801
0.895596 0.554004 2.90217 -0.00941027 0.951717 0.306832
0.78617 0.499277 3.15823 0.0372131 0.906842 0.419824
0.325879 -0.166928 3.15135 -0.952483 0.298224 0.0619548
0.577635 0.51092 2.93434 -0.632215 0.331846 0.70013
-0.913878 0.771504 1.70475 0.0398288 0.972473 0.229585
0.396686 0.369128 3.68864 -0.0648884 0.986735 0.148807
0.813845 0.646772 2.51721 -0.0770063 0.954531 0.287996
0.115608 -0.275619 3.11308 0.215654 0.927926 -0.304049
0.0694744 -0.590208 2.59262 0.247112 0.677598 -0.692673
0.602173 0.300262 3.13087 -0.365975 0.723557 -0.585258
0.545031 0.738881 2.1034 0.0180606 0.973743 0.226932
0.0867759 0.737226 2.05491 -0.0444068 0.970832 0.235612
0.358565 0.764444 1.98455 -0.0147295 0.982346 0.186491
1.17449 0.636528 2.51777 0.0510921 0.988755 0.140546
0.569496 0.727775 2.15243 0.0434593 0.96377 0.263172
0.981607 0.53248 2.97274 0.180785 0.931875 0.314524
0.84856 0.635932 2.56811 0.0111709 0.966819 0.255216
0.753874 0.683632 2.34356 -0.00556259 0.984214 0.176898
0.406092 -0.413833 2.25392 -0.346923 0.32496 0.879799
1.16282 0.418274 3.38926 -0.0445192 0.969524 0.240918
0.231334 0.788402 1.80387 -0.057608 0.975235 0.213539
-1.27293 0.629831 2.38014 0.0265413 0.962984 0.26825
0.0697821 0.322406 3.91619 0.117533 0.947827 0.296328
1.2287 0.538161 2.91745 -0.109937 0.962514 0.247955
0.234366 -0.0315139 2.34357 -0.841071 -0.000192052 0.540925
0.687613 0.656756 2.50676 0.0435926 0.976104 0.212884
0.639868 0.680699 2.35332 0.0292433 0.989487 0.141631
-0.511885 0.681471 2.26915 -0.0373807 0.981258 0.189037
-0.050255 0.144478 2.17626 0.0732054 0.257083 0.963613
0.756274 0.507812 3.10753 -0.0870097 0.988159 0.126379
-0.0634013 0.180401 2.17955 0.156253 0.0495042 0.986476
0.230532 -0.501371 2.20279 -0.0145071 0.140055 0.990038
-0.109153 0.16686 2.19392 0.418335 0.188431 0.888532
1.06419 0.463006 3.18967 -0.0170436 0.97548 0.219429
0.238952 0.704785 2.2589 -0.0169322 0.982528 0.185343
0.828052 0.46941 3.21329 0.0419245 0.966387 0.25365
0.530832 0.665511 2.41111 0.0752878 0.992001 0.101322
-0.647869 0.413813 3.59421 -0.16034 0.985337 0.0583321
0.225525 0.696581 2.3165 -0.000351351 0.980075 0.198626
0.784053 0.702961 2.25784 -0.0235091 0.982555 0.18448
0.442923 -0.5181 2.34916 -0.49089 0.606647 0.625305
1.05242 0.551385 2.88172 -0.0113001 0.93945 0.3425
0.666543 0.482514 3.23802 0.0822602 0.955543 0.283146
0.380178 -0.536833 2.652 -0.140764 0.816083 -0.560531
0.801959 0.510112 3.07791 -0.0584133 0.979726 0.191639
0.414911 -0.572295 2.39341 -0.658904 0.695613 0.2863
0.281368 0.789474 1.85303 -0.0321793 0.991518 0.125926
-0.42497 0.268417 4.23345 0.0427936 0.992869 0.111266
0.326165 0.816329 1.58825 -0.0724197 0.996187 0.0486434
0.68514 0.390397 3.55613 -0.0119748 0.959242 0.282333
0.377666 -0.209423 2.86619 -0.957469 0.248544 -0.146557
1.02675 0.614233 2.6511 0.00641548 0.963574 0.267364
0.112469 0.319628 3.89422 0.131899 0.936832 0.323958
0.738064 0.618693 2.62335 0.0517989 0.950403 0.306678
1.12848 0.58558 2.74985 0.084896 0.960463 0.265149
-0.356163 0.589055 2.75342 -0.0399451 0.965597 0.256958
1.01132 0.340956 3.76047 -0.126796 0.991069 0.0412826
0.402297 0.687805 2.38055 -0.051948 0.979296 0.195654
1.02131 0.665975 2.46052 -0.0390031 0.955156 0.293524
0.881409 0.496266 3.1095 0.0909026 0.954061 0.285491
0.837561 0.641147 2.55837 -0.0301139 0.960287 0.277383
-0.132808 0.44441 3.44193 0.0493177 0.984187 0.170126
1.05748 0.615658 2.64804 -0.0178277 0.954682 0.297092
-0.807952 0.556031 2.80715 -0.012997 0.953658 0.300611
-0.717992 0.7166 2.03534 -0.0570483 0.988268 0.141675
0.268588 -0.446348 2.21178 -0.230625 0.0585451 0.97128
1.02963 0.566425 2.83175 0.00854189 0.949877 0.312507
0.529956 0.605164 2.72474 -1.5724e-08 0.979763 0.20016
-1.07077 0.743014 1.87306 0.0891506 0.959166 0.268427
0.792031 0.470543 3.22478 0.101132 0.965497 0.239973
0.133684 0.801507 1.76395 0.0369075 0.981012 0.190403
-0.724427 0.273965 4.06198 0.0159499 0.98421 0.176285
0.715249 0.437735 3.35985 0.0521311 0.979122 0.196474
0.255263 -0.504536 2.20465 -0.0670678 0.136846 0.988319
0.337952 0.363361 3.70997 -0.0859513 0.992353 0.0885876
-1.04497 0.519495 2.93469 0.0346726 0.96063 0.27566
0.325623 -0.160404 3.18508 -0.948282 0.314421 -0.0436085
0.766927 0.449616 3.32015 0.119395 0.96885 0.216969
-0.106947 0.0601689 2.51567 0.96623 0.24004 0.0937032
0.184492 0.692155 2.32123 -0.00260352 0.983775 0.179387
0.244655 0.707589 2.23938 -0.0175669 0.983878 0.177974
0.681443 0.708594 2.26197 -0.0275646 0.967476 0.251456
0.0601083 0.785733 1.81847 -0.0517406 0.990381 0.12833
-0.367355 0.716864 2.11784 -0.00027021 0.988631 0.150363
1.01806 0.671085 2.44304 -0.0182614 0.96319 0.268199
0.681454 0.645111 2.53737 0.00325943 0.963854 0.266412
0.158598 0.13483 2.36592 -0.646923 -0.5096 0.567273
0.0528495 0.356561 3.28439 0.278357 0.457069 -0.844752
0.313143 0.359002 3.69988 -0.0819371 0.986721 0.140243
0.440746 0.757526 2.05054 -0.055313 0.959655 0.275685
0.360592 -0.178502 2.69734 -0.998661 -0.0438188 0.0274828
1.06706 0.584627 2.76933 0.0402238 0.984724 0.169415
-0.619163 0.431945 3.68893 -0.0694491 0.902241 0.425604
-1.21133 0.604917 2.49183 -0.0351702 0.972823 0.228861
-0.0970074 0.330039 3.9465 -0.00372133 0.969301 0.24585
0.994321 0.60765 2.66883 -0.0477359 0.959788 0.276637
0.315906 0.80606 1.77124 0.0108591 0.992341 0.123049
0.839526 0.562089 2.85836 0.00319626 0.972645 0.232276
1.18519 0.471701 3.14952 -0.0610792 0.966752 0.248315
0.215072 -0.232514 3.25595 -0.0659784 0.848432 -0.525176
0.653875 0.684478 2.32671 -0.0580854 0.976873 0.20578
1.07513 0.779194 2.00857 -0.0198897 0.960122 0.278874
-0.725805 0.669055 2.31071 -0.00994094 0.99019 0.139375
0.543961 0.534322 2.91178 -0.489219 0.566957 0.662741
0.359138 -0.0742674 2.9435 -0.813704 -0.0650117 -0.577632
-0.347943 0.728316 2.0299 -0.0722772 0.984939 0.157073
-0.28264 0.742454 1.99557 -0.0411307 0.98696 0.155621
0.662195 0.706734 2.22123 -0.0785892 0.984033 0.159695
0.0132862 0.117784 2.19138 -0.223426 0.36517 0.903732
0.289285 0.816768 1.63454 -0.0705428 0.997051 0.030227
0.65892 0.465843 3.25882 0.0880663 0.938837 0.332911
0.531831 -0.398932 2.34353 -0.771344 -0.121785 0.624657
-0.0259624 0.319204 3.22669 0.445295 0.318777 -0.836716
-0.213382 0.727998 2.07994 -0.0341484 0.980681 0.192611
-0.100963 0.439004 3.50684 0.0261787 0.995279 0.0934572
0.983462 0.519875 3.00822 0.166017 0.932209 0.321599
-0.127675 0.76605 1.9579 0.00461375 0.981252 0.192673
0.324641 0.0531256 2.47018 -0.756015 -0.176025 0.630441
-0.0639745 0.247617 4.2957 0.0391782 0.964137 0.262498
-0.499356 0.587288 2.73391 0.03392 0.984348 0.172943
-0.00444352 -0.384501 2.29575 0.7547 -0.0537689 0.653863
0.386656 0.756861 2.02581 -0.0512157 0.976471 0.20948
0.807933 0.634543 2.55479 -0.0807877 0.966311 0.244368
0.447803 0.694015 2.3402 0.0764968 0.982978 0.167041
0.81038 0.674393 2.38991 -0.00131605 0.97012 0.242621
0.771558 0.571231 2.81169 0.062579 0.971204 0.229884
0.633921 0.606986 2.69793 0.0189952 0.97434 0.224279
-0.554656 0.382719 3.68553 0.236188 0.791441 0.56377
1.1292 0.515658 2.98917 0.0134349 0.960737 0.277135
0.998359 0.453834 3.22594 0.0580114 0.965357 0.254402
-0.247522 0.80982 1.65106 0.00240927 0.980999 0.194
0.337708 0.82166 1.56761 -0.0995898 0.989836 0.10152
-0.890764 0.596182 2.6475 -0.0489731 0.981877 0.183083
0.0292965 0.820445 1.63775 -0.0579435 0.9937 0.0959358
0.693491 0.800791 1.87702 -0.0980311 0.9793 0.177089
-0.45011 0.597171 2.72147 -0.0104973 0.976058 0.217255
0.414004 -0.536995 2.34117 -0.677006 0.491463 0.547839
0.0469103 0.69981 2.27771 -0.000520435 0.985253 0.1711
0.586383 0.308465 3.91518 -0.0609956 0.992866 0.102453
1.03145 0.421997 3.37904 0.043328 0.975274 0.216709
0.0302237 0.0991331 2.20591 -0.284305 0.397865 0.872281
0.874175 0.697267 2.29392 -0.110065 0.97907 0.171193
0.934441 0.642618 2.52781 -0.0282817 0.95607 0.291771
0.583759 0.78496 1.92445 -0.0405709 0.975771 0.215
1.02935 0.434526 3.31698 0.0105461 0.974244 0.225251
0.403769 0.427158 2.53539 -0.627542 0.231423 0.743394
-0.248003 0.476784 3.29974 -0.048872 0.978906 0.198382
0.150565 -0.456006 2.71172 -0.128903 0.111671 -0.98535
0.839425 0.525849 3.00608 0.106291 0.971195 0.213267
-0.836679 0.724899 1.96374 -0.0703379 0.977113 0.200756
-0.800196 0.60502 2.61441 -0.0375155 0.983099 0.17919
0.00436321 0.755148 1.94551 -0.102506 0.969725 0.221644
0.0101101 0.800976 1.71582 -0.114884 0.979151 0.167527
0.480469 0.500625 3.22356 0.138101 0.978608 0.152493
0.855325 0.519365 3.02304 0.159381 0.962012 0.221654
-1.11 0.299192 3.9144 -0.00515821 0.978241 0.207407
0.955948 0.617051 2.64807 0.0329417 0.95811 0.284501
0.656841 0.663208 2.43414 0.0075284 0.983213 0.182304
-0.437225 0.650037 2.43175 -0.0345209 0.976156 0.214306
1.09526 0.713478 2.24277 -0.0508704 0.963718 0.26203
-0.254957 0.84153 1.48051 0.100431 0.964472 0.244351
0.0239665 -0.355002 2.66759 0.352473 -0.0655395 -0.933524
0.448798 -0.546304 2.39777 -0.356601 0.810182 0.465232
0.906106 0.715514 2.22882 0.0174147 0.969223 0.245567
0.327241 0.36214 3.73226 -0.123781 0.987897 0.0934767
0.794443 0.742754 2.13678 -0.08584 0.967073 0.239585
-0.706496 0.707256 2.09353 -0.0549226 0.990913 0.122778
0.92142 0.600742 2.69166 0.086678 0.960545 0.264275
0.717247 0.646546 2.53424 0.0351816 0.974665 0.220884
0.318694 -0.204294 2.30049 -0.181124 -0.546295 0.817775
0.0890492 0.49153 2.45022 0.532486 0.443597 0.720889
-0.832018 0.529401 2.88741 -0.0448459 0.960228 0.275594
0.507988 0.80264 1.73238 -0.16082 0.955479 0.247381
-0.625619 0.362648 3.74212 0.0252538 0.912725 0.407793
0.405632 -0.0557306 2.82309 -0.89269 -0.0993528 -0.439584
-0.120382 0.315733 4.0405 0.0151284 0.984737 0.173392
-0.50432 0.521235 3.12246 -0.0963093 0.979171 0.178743
-0.541663 0.428156 3.67399 0.265466 0.862063 0.431711
0.21115 -0.549715 2.65055 -0.105084 0.69092 -0.715253
0.969952 0.395583 3.45613 -0.0117925 0.921244 0.388805
0.351677 0.472942 3.39231 0.122163 0.972981 0.195921
0.318378 -0.072662 3.28526 -0.940504 0.102183 -0.324053
0.620031 0.630262 2.59302 0.0896745 0.974679 0.204839
0.104183 -0.277747 2.26923 0.243152 -0.553507 0.796559
1.19258 0.520936 2.96746 -0.0182124 0.966731 0.255147
0.986683 0.343168 3.71436 -0.0455085 0.994257 0.09686
0.980436 0.722793 2.19802 0.00174457 0.965815 0.259226
-0.462426 0.663047 2.38193 -0.0296496 0.979521 0.199149
0.127765 -0.283905 2.25842 0.205433 -0.539454 0.81657
0.295997 -0.319848 2.21916 -0.207519 -0.33439 0.919304
0.534217 0.643383 2.52336 0.0525977 0.970123 0.236843
0.791016 0.421047 3.41511 0.0917166 0.958764 0.268998
-0.0518405 0.224426 2.17255 -0.111604 -0.0926814 0.989421
0.0967072 -0.490395 2.70784 0.229236 0.457336 -0.85924
0.133358 0.488799 3.39087 0.0305356 0.933782 0.356537
0.958957 0.548464 2.89375 0.110325 0.929219 0.352675
0.434093 0.448625 3.41419 0.137573 0.975088 0.174005
-0.285138 0.700814 2.20882 -0.0227851 0.984244 0.175343
0.962902 0.691709 2.35349 -0.081853 0.962429 0.258902
0.720486 0.442285 3.32517 0.0401135 0.940998 0.336025
0.57682 0.700796 2.27478 -0.110018 0.942634 0.315178
0.400438 -0.564279 2.35481 -0.714907 0.547245 0.435237
0.924541 0.445414 3.29828 0.0385345 0.966437 0.253996
0.339073 0.744578 2.10832 -0.0195872 0.980278 0.196648
0.742833 0.319383 3.79215 0.0416861 0.956745 0.287925
0.582385 0.793092 1.82058 -0.111166 0.977881 0.177177
0.875657 0.615066 2.63858 -0.0650659 0.977754 0.199406
-1.37702 0.336144 3.64448 -0.0601677 0.970922 0.231712
-0.513421 0.701664 2.16248 -0.107607 0.974148 0.198637
1.31574 0.469651 3.22356 -0.122433 0.959863 0.252336
-0.177638 0.750822 1.98724 -0.07932 0.975118 0.207011
-0.175166 0.685466 2.31348 -0.0204348 0.984155 0.176128
1.04964 0.620944 2.59465 -0.0451485 0.980698 0.190245
1.19012 0.505163 3.02807 0.0028618 0.970609 0.240644
0.285717 0.736271 2.11072 -0.0675381 0.963173 0.260262
0.741469 0.448983 3.31807 0.113129 0.95297 0.281157
0.188337 0.445945 3.48524 0.0296649 0.929114 0.368602
0.273262 -0.29668 2.22943 -0.162649 -0.477902 0.863223
-0.423806 0.698018 2.21239 -0.00587888 0.972904 0.231134
0.0727974 0.417227 3.61272 0.100773 0.966253 0.237067
0.13273 0.379727 3.74971 0.0424597 0.95514 0.293095
0.333179 -0.326806 2.22686 -0.266808 -0.333261 0.904296
1.30006 0.498318 3.05859 -0.0760273 0.965128 0.250495
-1.12863 0.649974 2.30089 -0.0152212 0.965532 0.259839
0.553139 0.666913 2.4136 0.039469 0.992804 0.11306
-1.2894 0.55126 2.71768 -0.0422505 0.974158 0.22188
0.343812 -0.343204 2.22477 -0.270889 -0.189994 0.943674
0.826552 0.567095 2.85363 -0.0300691 0.973843 0.225222
0.0844235 -0.420228 2.71648 0.226534 -0.0324637 -0.973462
0.724869 0.753205 2.06121 -0.0793957 0.945369 0.316186
0.148816 -0.533219 2.65722 0.104903 0.82588 -0.554001
0.327713 0.771119 1.93884 -0.058662 0.975361 0.212672
0.830572 0.537037 2.94921 0.0183987 0.977978 0.207897
-0.624612 0.514358 3.04662 0.0209584 0.988362 0.150668
0.28315 -0.484694 2.70475 0.100391 0.532526 -0.840439
0.688235 0.654317 2.5035 0.0452987 0.979694 0.195315
1.1947 0.469473 3.15653 -0.0599216 0.965999 0.251507
0.875435 0.698683 2.32362 -0.0582066 0.978122 0.199725
0.883522 0.510553 3.06585 0.162829 0.97665 0.140146
0.640545 0.633948 2.57883 0.0131642 0.972118 0.234124
-0.932176 0.630552 2.44109 -0.0738321 0.975715 0.206226
0.989119 0.661743 2.46457 -0.0879884 0.950687 0.29741
-0.968217 0.542472 2.84599 -0.0223498 0.962533 0.270243
-0.605282 0.701534 2.12866 -0.0110699 0.978141 0.207646
0.774415 0.545901 2.92136 0.076457 0.980529 0.180881
0.364068 -0.456308 2.25292 -0.513475 0.311322 0.799638
0.144037 -0.357955 2.20851 0.294021 -0.307965 0.904826
0.535094 0.830417 1.65859 -0.168868 0.963255 0.20886
0.332171 -0.644547 2.41044 -0.56808 0.815647 0.109567
0.319486 0.123626 2.49399 -0.70624 -0.272624 0.653377
0.00899311 -0.00216312 2.27405 0.108863 0.615343 0.780706
0.277618 0.445371 3.48647 0.0376973 0.927489 0.371946
0.226565 -0.51593 2.21243 -0.0334804 0.311625 0.949615
-1.24242 0.407099 3.40041 -0.0491183 0.97869 0.199381
0.295339 -0.156658 3.26643 -0.783652 0.43661 -0.441884
0.832418 0.512083 3.08265 0.0177838 0.968544 0.248208
0.613505 0.388705 3.56284 0.157885 0.951335 0.26464
0.240671 0.767782 1.95164 0.0167298 0.972248 0.233354
0.0658995 -0.44591 2.70703 0.314453 0.136992 -0.939336
-0.0884676 0.0893651 2.23278 0.466587 0.627729 0.623099
0.669166 0.63591 2.56211 0.0163046 0.970533 0.240417
0.0711689 0.187315 2.21917 -0.598248 -0.114372 0.793107
0.579929 0.359841 3.75878 0.0444824 0.956449 0.288491
-0.112705 -0.0596792 2.5766 0.944184 0.265649 0.194799
0.930691 0.596007 2.70455 0.0699736 0.966445 0.247159
1.14143 0.533984 2.92128 0.0615083 0.956091 0.286543
0.432165 0.726902 2.15604 0.04994 0.981695 0.183797
1.0188 0.403261 3.44543 -0.00742301 0.943691 0.330744
-1.02443 0.568941 2.74507 -0.0338163 0.956463 0.289889
-0.0981833 0.0321259 2.95526 0.934445 0.299859 -0.192087
0.95525 0.802303 1.85878 -0.0480533 0.990232 0.13089
0.745733 0.511157 3.07994 0.152553 0.986078 0.066166
0.394773 -0.080952 2.82788 -0.899114 -0.0496612 -0.434889
-0.442917 0.420965 3.50488 -0.00570379 0.97174 0.235985
0.212876 0.875835 1.38185 -0.0259746 0.904196 0.426326
1.00805 0.515865 2.96696 0.124961 0.932119 0.339912
0.475006 0.433693 3.47086 0.208827 0.97027 0.122343
0.855269 0.419641 3.41302 0.0486754 0.963579 0.262955
0.46209 0.688357 2.34601 0.118898 0.980448 0.156799
0.132208 0.0809253 2.27831 -0.760947 0.0225119 0.648424
0.395373 0.707478 2.26257 -0.0380788 0.966103 0.255333
0.687553 0.334956 3.74931 0.0286784 0.947457 0.318595
0.487704 0.723996 2.18481 0.00960588 0.978608 0.205509
0.272884 -0.179666 2.30641 0.0130021 -0.63535 0.772115
0.357404 -0.628404 2.47008 -0.546701 0.835945 -0.0481013
0.190375 -0.288773 3.08979 -0.0696941 0.984925 -0.158318
0.659711 0.314136 3.85321 0.0538279 0.987922 0.1453
0.582388 0.421832 2.90081 -0.49869 0.130388 0.856917
0.177606 0.716621 2.2038 -0.0355965 0.975918 0.215214
0.924196 0.638501 2.5504 0.0399331 0.976964 0.209635
-0.567994 0.679838 2.26752 -0.0387848 0.987968 0.149717
0.944256 0.672301 2.40794 -0.0989946 0.967745 0.231668
0.772767 0.520097 3.1079 -0.00946773 0.999351 0.0347632
-0.177443 0.503111 3.23506 -0.0713921 0.997243 0.0202283
0.225352 -0.0752514 2.37883 -0.799832 0.239457 0.55039
0.135901 0.72984 2.11947 -0.0563074 0.976359 0.208693
-0.0543405 0.375167 3.74945 -0.0626702 0.957124 0.282818
0.322069 -0.316031 2.22932 -0.235687 -0.383552 0.892939
0.309383 0.766722 1.97534 -0.0385236 0.988931 0.143287
1.05274 0.565089 2.83627 0.0606191 0.948361 0.311347
0.0292431 -0.601803 2.5477 0.297552 0.737515 -0.606246
0.707706 0.577768 2.79468 0.0100676 0.978956 0.203823
-0.278136 0.395914 3.57507 -0.0617469 0.922727 0.380477
-0.326563 0.71913 2.1048 -0.0440958 0.985763 0.162258
1.01185 0.636552 2.54808 0.050016 0.957061 0.285541
0.0315228 0.457405 2.40545 0.0147867 -0.264098 0.964383
0.362362 0.760263 1.99093 -0.0310897 0.985321 0.167856
0.00863142 0.73245 2.14914 -0.0353943 0.989964 0.136815
-1.02738 0.66547 2.24394 -0.0395178 0.972574 0.229212
-1.07527 0.87044 1.73044 0.107237 0.953538 0.281541
0.59391 0.571014 2.85871 0.061067 0.964921 0.255338
0.511411 0.764977 1.9858 0.0629777 0.994335 0.0856258
0.142201 0.0799742 2.28966 -0.798879 -0.0498992 0.599418
0.4228 0.431385 3.51622 0.00843438 0.936095 0.351647
-0.9949 0.573686 2.71803 -0.023061 0.965567 0.259129
-1.10344 0.331184 3.78522 -0.0104528 0.976346 0.215961
1.0955 0.570649 2.78629 0.0924329 0.956004 0.278411
0.080122 0.871401 1.37163 -0.0746624 0.958401 0.275485
0.0679896 -0.423413 2.71314 0.32002 -0.0190949 -0.947218
0.678822 0.693247 2.30043 -0.0321421 0.979455 0.199086
-0.339794 0.658281 2.45228 -0.0735139 0.966508 0.245882
0.989167 0.666719 2.44625 -0.111165 0.950999 0.288518
-0.855906 0.724462 1.97449 -0.0586132 0.981083 0.184503
1.07138 0.409868 3.4059 0.0504182 0.97191 0.229887
-1.05441 0.592236 2.57715 -0.0793955 0.982851 0.166434
-0.515104 0.641301 2.47405 -0.088905 0.966098 0.242385
1.25227 0.553596 2.87534 -0.177311 0.943808 0.278903
0.729233 0.64688 2.51426 0.032872 0.982829 0.181565
0.364925 0.800375 1.78906 0.077335 0.992621 0.0933955
0.490949 0.730573 2.15505 -0.00815027 0.977667 0.21
-0.444902 0.665901 2.36442 -0.0626945 0.978374 0.197113
1.00845 0.54874 2.88439 0.021997 0.931701 0.362559
0.0894719 -0.462604 2.23271 0.44731 0.223156 0.866092
1.18177 0.352041 3.82128 -0.0405881 0.990484 0.131507
0.598238 0.336 3.76589 -0.00454202 0.970695 0.240274
1.05236 0.788529 1.99545 -0.0165023 0.963567 0.266958
0.457768 0.305617 2.94621 -0.05806 0.96988 0.236562
0.520352 0.787668 1.82689 -0.0736094 0.991965 0.102889
0.810959 0.790939 1.89869 0.046825 0.98662 0.15617
0.409287 0.0915207 2.70812 -0.984126 -0.0297401 0.17496
0.276063 0.090238 2.44384 -0.653801 -0.339813 0.67607
1.32509 0.499552 3.06211 -0.0822856 0.974989 0.206461
0.855295 0.700831 2.27913 -0.0598612 0.973234 0.221885
-0.855906 0.724462 1.97449 -0.0586132 0.981083 0.184503
0.391266 -0.582909 2.36101 -0.725936 0.606868 0.323618
0.10833 -0.464803 2.72152 0.096255 0.205039 -0.974009
0.629291 0.807402 1.78887 -0.0624837 0.973484 0.220055
0.2462 -0.27863 3.08416 -0.436512 0.864325 -0.249798
0.0332124 0.0223537 2.25232 -0.0699219 0.624819 0.777633
0.748949 0.416127 3.44438 0.0620279 0.953648 0.294461
0.247008 -0.600547 2.26799 -0.0904601 0.635759 0.766569
-0.0237261 -0.406755 2.65737 0.527148 0.120139 -0.841238
0.850094 0.771571 2.02098 -0.0912561 0.955153 0.281701
0.811768 0.866908 1.56561 -0.205651 0.92688 0.314009
0.859766 0.691676 2.31614 -0.0812536 0.98193 0.170911
0.553205 0.717587 2.22487 -0.0585484 0.980005 0.190165
0.574984 0.599306 2.74943 0.0641647 0.967054 0.246352
0.678643 0.39916 3.5065 -0.0721711 0.969392 0.234671
-0.493406 0.398087 3.62918 0.257071 0.896373 0.36115
0.315505 0.87613 1.38269 -0.0920274 0.890775 0.445028
0.321455 0.43386 3.48863 -0.00276014 0.928796 0.37058
1.24281 0.433056 3.31489 -0.0611637 0.980518 0.186665
0.952658 0.597465 2.71299 -0.024128 0.974361 0.223694
0.657938 0.442461 3.38144 0.0705934 0.979388 0.189251
0.16569 -0.428328 2.1965 0.0837114 0.100303 0.991429
0.723257 0.699427 2.27145 0.0144023 0.950148 0.311467
1.07361 0.636357 2.56866 -0.0884138 0.963678 0.252008
0.946351 0.628706 2.58941 0.0378684 0.978178 0.204288
0.853975 0.592485 2.73974 0.0516104 0.945975 0.320106
1.13843 0.557751 2.85885 0.0974172 0.953181 0.286278
0.0024932 0.0759229 2.21473 -0.027531 0.506187 0.861984
0.613246 0.557915 2.89987 -0.0780644 0.935649 0.34419
-0.807645 0.575296 2.73938 0.00202844 0.962828 0.270109
0.284678 0.760603 1.97655 -0.0354097 0.991079 0.128487
-0.327848 0.708105 2.17382 -0.0209977 0.982701 0.184003
-0.37746 0.375247 3.65168 -0.0104854 0.929994 0.367426
1.05953 0.547556 2.88935 0.00190092 0.94053 0.339706
-1.04237 0.65616 2.30353 -0.0509043 0.972074 0.229088
0.526628 0.769471 2.00769 0.0877954 0.984386 0.152566
0.537819 -0.537354 2.43442 -0.627625 0.736859 0.251249
-0.795884 0.691586 2.19911 -0.0307392 0.984828 0.170788
0.0828104 0.412019 3.62405 0.0990012 0.968585 0.228129
0.872938 0.531261 2.9705 0.047901 0.970082 0.238006
0.874035 0.550195 2.90682 -0.0308271 0.955793 0.29242
0.966229 0.748436 2.1048 -0.017896 0.962935 0.26914
0.172148 0.502868 3.30849 0.205537 0.972208 0.112102
-0.388027 0.779326 1.74798 -0.0315188 0.989499 0.141064
0.0927544 -0.300289 2.95645 0.135071 0.988193 -0.0723255
-0.820131 0.488963 3.07071 -0.122711 0.959789 0.252482
0.448541 0.360044 3.7287 0.00129311 0.974465 0.224535
0.7462 0.684353 2.33187 0.0106369 0.983157 0.182452
-1.11979 0.428888 3.27083 0.01485 0.971717 0.235682
1.16533 0.506231 3.01693 -0.00497533 0.967864 0.251423
0.627537 0.637798 2.55911 -0.000552906 0.977493 0.210966
-0.326972 0.70815 2.16609 -0.0208293 0.982832 0.183325
0.664352 0.677255 2.36427 -0.0121427 0.987501 0.157142
-0.502487 0.289965 4.12245 -0.0615745 0.991821 0.111802
-1.33396 0.489179 3.01692 -0.0478939 0.964158 0.260971
0.810147 0.51276 3.06813 -0.0753261 0.966829 0.244065
0.778838 0.642991 2.5354 0.0308816 0.945275 0.32481
0.742871 0.579853 2.81083 0.0865562 0.975073 0.204306
1.07203 0.618023 2.63981 -0.00673951 0.966496 0.256593
1.21161 0.621042 2.64163 -0.0812895 0.941548 0.326926
0.13225 0.0975488 2.28235 -0.82184 -0.106851 0.559609
0.105361 -0.464998 2.22393 0.374831 0.278636 0.884231
0.522266 0.492989 3.18001 -0.0907795 0.768769 -0.63305
-0.159409 0.323334 3.92265 -0.0659203 0.978427 0.195794
0.082073 0.518832 3.31614 0.00815702 0.974688 0.223421
-0.614625 0.664468 2.33449 -0.00722791 0.982285 0.187253
0.919065 0.56639 2.83709 0.0497462 0.973656 0.22253
0.197197 0.707506 2.23468 -0.0248445 0.98235 0.185397
-1.18122 0.528189 2.88539 -0.0649371 0.976073 0.207522
0.246135 0.140949 2.44996 -0.603748 -0.349627 0.716414
-0.197525 0.514486 2.91565 0.886511 0.378956 0.265501
0.597424 0.845061 1.62078 -0.00630307 0.989913 0.141535
-1.00341 0.572728 2.72648 -0.029378 0.962215 0.270703
1.26811 0.492855 3.08166 -0.0545783 0.975052 0.215163
0.791213 0.447973 3.28077 0.082099 0.966437 0.243431
0.205108 -0.554212 2.64528 -0.127768 0.719855 -0.682264
-0.211064 0.419266 3.58252 -0.180434 0.926148 0.331201
1.0312 0.544885 2.8935 0.00893419 0.947366 0.320027
0.976049 0.612058 2.65781 0.00334222 0.958317 0.285688
0.423124 0.788824 1.81012 0.0759796 0.992525 0.0955037
-1.23736 0.575271 2.60221 -0.0550221 0.975536 0.212841
-0.679457 0.410519 3.57674 -0.158877 0.985305 0.0627048
0.566308 0.401439 3.55844 0.191571 0.921711 0.337267
0.744935 0.665837 2.44006 -0.0033755 0.972591 0.232499
0.157678 -0.407914 2.71811 -0.0417127 0.26945 -0.962111
1.25079 0.603974 2.67946 -0.0752386 0.936156 0.343439
0.403568 0.697627 2.28663 -0.0261595 0.974277 0.223828
0.493367 0.684685 2.33092 0.137239 0.971068 0.195428
-0.540638 0.641866 2.45523 -0.0676785 0.966272 0.248472
0.202084 -0.494988 2.20845 0.027272 0.176145 0.983986
0.55985 0.737296 2.12656 0.0289315 0.968102 0.248882
-0.388057 0.5298 3.08164 -0.0170648 0.990881 0.133657
0.165108 -0.382177 2.19424 0.20626 -0.14569 0.96759
-0.477814 0.653471 2.41084 -0.0393906 0.979857 0.195775
0.937212 0.410894 3.43435 0.00972973 0.949679 0.313073
0.739336 0.654497 2.4736 -0.0460341 0.969557 0.2405
-0.250456 0.679889 2.35099 -0.0263913 0.984537 0.17318
-0.520611 0.652569 2.41952 -0.0249183 0.974816 0.221615
0.0337817 0.757913 1.98366 -0.0887533 0.982933 0.161136
1.17397 0.497398 3.07713 0.00380816 0.971172 0.238351
-0.075377 -0.147585 2.64521 0.913646 0.391186 0.110563
0.924485 0.578278 2.79215 0.0231686 0.98685 0.159969
-1.19841 0.379402 3.5358 -0.0710286 0.962794 0.260736
0.925927 0.376353 3.51645 0.0482867 0.950691 0.306358
0.989279 0.342984 3.8491 -0.0862583 0.995401 0.0416739
1.05801 0.530585 2.9229 0.0303761 0.969671 0.24252
0.177649 0.859461 1.40992 0.0272734 0.941685 0.335389
0.966802 0.61639 2.64713 0.0270203 0.958699 0.283135
0.328657 -0.152844 3.2165 -0.927459 0.341995 -0.151194
0.62235 0.599017 2.74857 0.110911 0.95792 0.26474
0.696175 0.489977 3.16687 0.0722243 0.950112 0.303431
1.13861 0.569967 2.8079 -0.0233356 0.971866 0.234377
-1.07578 0.609044 2.49199 -0.0617952 0.978706 0.195743
0.607716 0.70865 2.22995 0.125769 0.980905 0.14835
0.949776 0.431358 3.34265 0.0491208 0.9637 0.262432
0.894612 0.597133 2.72301 0.0739143 0.953621 0.291794
-1.01175 0.509719 2.95463 0.0329204 0.962943 0.267687
0.946293 0.448416 3.26808 0.0725419 0.976022 0.205227
-0.237863 0.480097 3.23094 -0.0540454 0.984246 0.168339
0.839946 0.472011 3.20127 0.0466925 0.962633 0.266754
0.125127 -0.49181 2.70965 -0.00826854 0.504789 -0.863203
0.362446 -0.239391 2.96105 -0.90884 -0.0907631 -0.40715
-0.532289 0.708604 2.11501 -0.108852 0.97119 0.211995
0.644843 0.487627 3.2244 0.115049 0.961519 0.249489
0.78304 0.839134 1.65622 -0.0883842 0.965839 0.243604
-0.427231 0.53389 2.99349 -0.0269 0.984126 0.175419
0.808022 0.469621 3.21856 0.044303 0.963202 0.265101
-0.195368 0.395389 2.46627 0.949711 0.063273 0.306668
0.318269 -0.169859 3.12628 -0.962336 0.199946 0.184203
0.350496 0.292247 3.96794 0.0351291 0.990568 0.132442
1.09686 0.451092 3.26477 0.0339015 0.965031 0.259934
0.152256 -0.391396 2.1977 0.245882 -0.13504 0.959847
0.481105 0.878856 1.42509 0.0246477 0.946944 0.320452
0.810337 0.785216 2.13828 -0.0334118 0.962483 0.269276
-0.0869128 0.320428 3.18622 0.536342 0.0666048 -0.841369
0.370623 0.680926 2.36241 -0.0870168 0.973507 0.211452
-0.109615 0.714028 2.14469 -0.018054 0.975952 0.217234
0.985356 0.385674 3.48264 -0.0627377 0.936354 0.345406
-0.851667 0.28172 4.0397 0.0742031 0.996924 0.025243
0.0848612 -0.253372 2.29341 0.282223 -0.640835 0.71392
0.377669 -0.212392 2.88011 -0.94268 0.317015 -0.104196
-1.05264 0.672846 2.21472 -0.0464143 0.969606 0.240228
0.304288 0.762435 2.04292 -0.000622258 0.983419 0.181349
0.29566 0.445 3.48373 0.0320396 0.930405 0.365129
-0.586832 0.80288 1.68948 -0.02837 0.986425 0.161741
0.710598 0.540279 2.95761 -0.0111091 0.984709 0.173853
0.85214 0.600151 2.71415 -0.0225574 0.975802 0.217491
1.32411 0.55613 2.89294 -0.0113064 0.942922 0.332822
-0.401894 0.528609 3.08852 -0.0381149 0.990477 0.132295
-0.681784 0.667578 2.34724 0.00318528 0.98551 0.169586
0.710059 0.543418 2.92358 -0.00220815 0.964804 0.262959
0.867472 0.582835 2.75729 0.0803511 0.955023 0.285438
-0.910288 0.636737 2.41661 -0.0771252 0.973458 0.215478
0.0703599 0.37348 3.76209 0.0706949 0.955375 0.286813
0.727588 0.789931 1.93936 -0.0375815 0.971302 0.234861
0.832139 0.775437 1.98656 -0.110165 0.976118 0.187235
0.725225 0.500609 3.13323 0.0831136 0.923337 0.374889
0.662214 0.32149 3.75444 0.0427241 0.954777 0.294237
0.696861 0.763824 2.02307 -0.0717336 0.953194 0.293728
-0.704695 0.486035 3.15623 -0.080864 0.958374 0.273827
1.00863 0.564219 2.84428 0.00985698 0.959652 0.281019
0.491829 0.810733 1.69796 -0.14243 0.96804 0.206426
0.471711 0.387939 3.59032 0.147482 0.896286 0.418236
0.234536 -0.567674 2.62126 0.0302535 0.691375 -0.721862
0.814455 0.652322 2.49777 -0.062903 0.983353 0.170468
0.0974249 0.12651 2.23721 -0.638636 0.0543527 0.767587
0.904555 0.648373 2.48826 -0.000947759 0.976398 0.215977
0.549147 0.812324 1.73868 -0.189152 0.946906 0.259981
-1.3107 0.592875 2.51072 -0.00870831 0.972689 0.231947
0.758487 0.543055 2.93416 0.0441471 0.983427 0.175847
0.605208 0.65555 2.49677 -0.0653925 0.971345 0.228502
0.767927 0.310657 3.90761 -0.074734 0.993703 0.083481
-0.0245885 0.751208 1.9649 -0.0661954 0.975409 0.210227
0.495152 0.468314 2.6138 -0.935305 0.135434 0.326899
-0.0625246 0.858858 1.33618 -0.0355028 0.972003 0.232273
-0.411475 0.776266 1.86234 -0.0654815 0.982835 0.172473
-0.933242 0.598101 2.59331 -0.0723635 0.9844 0.160376
0.461085 0.710281 2.23236 0.0454666 0.971067 0.234438
-1.1501 0.547684 2.84067 -0.0490569 0.978793 0.198893
0.634338 0.309868 3.90802 0.027706 0.9927 0.117384
0.614705 0.39402 3.53227 0.157658 0.960766 0.228194
0.964015 0.41039 3.42861 0.00371174 0.938114 0.346306
-0.263802 0.654648 2.47027 -0.0230876 0.982752 0.183484
1.01789 0.583223 2.77702 0.0197837 0.979535 0.200301
0.754716 0.691084 2.31771 -0.0278446 0.975124 0.219904
0.827656 0.63128 2.59228 -0.0231144 0.962573 0.270036
0.745787 0.756933 2.05494 -0.0655545 0.955145 0.288793
-0.893904 0.695761 2.16219 -0.0281427 0.981775 0.187951
0.666312 0.408994 3.47458 -0.0298051 0.949134 0.313459
-1.14601 0.637337 2.33827 -0.0224896 0.967045 0.25361
-0.518919 0.418312 3.52611 0.0769293 0.980766 0.179386
-0.986629 0.383659 3.55 -0.0418897 0.978861 0.200191
1.2085 0.548005 2.86167 -0.0807135 0.951887 0.295629
0.286541 0.350694 3.74166 -0.0284723 0.981722 0.188178
0.0139607 0.210503 4.38039 0.0550009 0.96611 0.252201
0.486207 0.562362 2.6053 -0.925672 0.355783 0.128645
-1.30456 0.347 3.59468 -0.0764416 0.970355 0.229276
0.948172 0.76405 2.0448 0.000717777 0.940025 0.341105
-0.0826974 0.102391 2.2076 0.388647 0.568046 0.72545
0.355725 0.739791 2.10487 0.0356853 0.982876 0.180777
-0.874169 0.672242 2.23 -0.0639599 0.973823 0.218123
0.22194 0.0624323 2.35284 -0.656359 -0.37208 0.656315
1.19811 0.548868 2.86695 -0.00974199 0.958604 0.284575
1.39773 0.569433 2.80619 0.0459912 0.966098 0.254045
1.04534 0.666383 2.46908 0.0540674 0.96399 0.260384
-1.05475 0.501072 2.99896 0.0223165 0.970701 0.239254
0.240696 -0.20545 3.28747 -0.267615 0.682612 -0.680017
0.084523 0.16985 2.22807 -0.624983 -0.0680982 0.777662
-0.774224 0.570783 2.76604 -0.0136002 0.963051 0.268975
-0.659218 0.667471 2.32349 -0.00550705 0.988325 0.152263
0.232117 -0.195353 2.3038 0.13085 -0.520766 0.843612
0.132476 -0.458578 2.20809 0.315629 0.278765 0.907011
0.0181912 0.0526514 2.22857 -0.0592616 0.548181 0.834258
0.332811 -0.147144 3.20309 -0.953996 0.284243 -0.09538
1.09933 0.522901 2.9725 0.0469715 0.961005 0.272512
-0.232769 0.785135 1.79187 -0.0378774 0.998876 0.0285113
0.166764 0.229244 4.29361 0.0475467 0.971007 0.234273
0.959504 0.677768 2.38059 -0.106522 0.963733 0.244689
1.2567 0.456502 3.23012 -0.0972071 0.961224 0.258069
1.25896 0.48501 3.10336 -0.0494526 0.986787 0.154292
0.00180827 -0.597655 2.53414 0.404915 0.729946 -0.550657
0.834096 0.566393 2.83643 -0.0352184 0.971195 0.235668
0.90399 0.807079 1.78795 -0.00773815 0.992539 0.12168
0.479141 0.462434 3.34563 0.119478 0.976002 0.18206
1.29332 0.622357 2.63841 -0.0755298 0.946153 0.314785
0.530015 0.392525 3.17125 0.00367851 0.527962 -0.84926
0.050099 0.156682 2.20345 -0.538723 0.00385968 0.842474
0.645189 0.562038 2.85088 0.010546 0.967494 0.252676
-0.986868 0.668434 2.23496 -0.0463877 0.969248 0.241676
-0.603818 0.670712 2.3131 -0.0207065 0.985411 0.168929
-0.871984 0.395922 3.49167 -0.0557653 0.978222 0.199932
0.967799 0.63386 2.54707 -0.0328253 0.961365 0.273314
0.714331 0.462367 3.26201 0.0171458 0.947286 0.319931
0.843957 0.591571 2.74944 0.0625675 0.958786 0.277156
-0.513352 0.690367 2.21811 -0.095628 0.976449 0.193396
-0.936354 0.583204 2.68978 -0.0379255 0.972913 0.228038
-0.498844 0.452309 3.33086 -0.0140989 0.990564 0.136326
1.04778 0.495313 3.062 0.00396337 0.966653 0.256059
0.314396 -0.40055 2.21854 -0.310839 0.0390457 0.94966
0.61111 0.660963 2.48073 -0.0221209 0.982401 0.185469
-0.201693 0.469102 3.36912 -0.0459253 0.98087 0.18917
0.389236 -0.121281 2.89765 -0.917138 -0.0741028 -0.391621
-0.649668 0.594755 2.70657 -0.150274 0.970157 0.190299
0.760728 0.629008 2.57867 0.0762775 0.968408 0.23742
0.566299 0.467587 3.29671 0.0046922 0.971027 0.238924
0.327217 0.0701247 2.47968 -0.747182 -0.168531 0.642897
0.274097 -0.262495 2.25723 -0.112087 -0.557437 0.822618
0.484298 0.6775 2.41316 0.126015 0.985478 0.113813
0.0715246 0.698196 2.29126 0.00114027 0.987255 0.159143
0.395485 0.42744 2.53068 -0.593987 0.221582 0.773356
0.494426 0.427326 3.48904 0.219462 0.970864 0.0962292
0.601717 0.611031 2.69138 0.0564698 0.979797 0.191859
-0.457859 0.63629 2.51178 -0.0351587 0.974778 0.22039
-0.0759583 0.712463 2.16853 -0.104998 0.97866 0.176633
-0.06318 0.68831 2.32102 -0.0327553 0.987653 0.153197
0.319067 0.78951 1.87617 -0.0173578 0.982402 0.185972
0.806234 0.448702 3.28139 0.0201972 0.96227 0.271347
0.404054 0.839689 1.51524 -0.144646 0.959659 0.241106
0.703758 0.638032 2.55835 -0.00682023 0.974569 0.223984
0.678863 0.540151 2.97356 0.133478 0.983343 0.123366
0.428534 0.802473 1.72352 -0.00716925 0.982778 0.184653
-0.982026 0.467559 3.14726 -0.00555233 0.974432 0.224615
0.530424 0.459987 3.31356 0.00145603 0.978899 0.204337
1.05748 0.574016 2.80956 0.0674895 0.948893 0.308297
-0.374329 0.794473 1.69098 -0.0275227 0.961602 0.273065
0.602268 0.682096 2.35272 -0.0220963 0.993899 0.108056
-0.483467 0.453799 3.42013 0.012565 0.989189 0.146109
1.15643 0.420231 3.39354 -0.0445192 0.969524 0.240918
-0.713056 0.512632 3.08052 -0.106727 0.96758 0.228905
0.29928 -0.191464 3.21244 -0.798296 0.563007 -0.213885
-0.120163 0.336895 3.1739 0.538062 0.106763 -0.836117
0.406969 0.698327 2.30689 -0.0283937 0.981297 0.190396
-0.704004 0.708547 2.1205 -0.0466331 0.989193 0.139004
0.917942 0.493388 3.11722 0.125405 0.959736 0.251357
-0.721289 0.413912 3.67426 -0.17635 0.975441 0.131965
0.767279 0.477267 3.20405 0.0851359 0.973614 0.211723
-1.12429 0.621284 2.40902 -0.0330466 0.980287 0.194796
-0.359418 0.302712 3.84177 -0.0876385 0.915343 0.393022
0.256103 -0.509553 2.66066 -0.0082377 0.63221 -0.774754
0.257834 0.429956 2.45331 -0.391271 0.133618 0.910523
0.518946 0.59525 2.78281 0.0465814 0.96947 0.240746
-0.0554241 -0.128486 3.0714 0.867799 0.395043 -0.30144
0.721148 0.631867 2.60622 0.0479444 0.951142 0.305008
-0.215687 0.664922 2.41448 -0.0225359 0.981451 0.190382
-0.350274 0.437107 3.53909 0.0302835 0.966154 0.256183
0.529624 0.446769 3.40053 0.0589847 0.947033 0.315673
0.0672867 0.321901 3.91724 0.115582 0.943339 0.311052
0.242623 -0.193242 3.30767 -0.305421 0.641296 -0.703887
0.405059 0.775292 1.93566 -0.0280069 0.980608 0.193966
-0.209087 0.433671 3.53623 -0.177184 0.953028 0.245647
0.572728 0.593342 2.77089 0.0990315 0.954622 0.280874
0.920384 0.541957 2.91848 0.132751 0.930022 0.342689
0.83881 0.603462 2.67765 -0.0619423 0.984972 0.161227
0.968751 0.533788 2.9545 0.08295 0.98084 0.17627
-1.41243 0.484993 3.02179 -0.105595 0.96566 0.237381
-0.684369 0.402511 3.59954 -0.181331 0.978414 0.0991203
1.05435 0.483304 3.11315 0.0242181 0.963398 0.26698
0.704979 0.695445 2.28379 0.0451256 0.951812 0.303345
0.27757 -0.676372 2.42164 -0.459046 0.885652 -0.069976
0.138958 -0.40926 2.71388 0.00133708 0.15071 -0.988577
0.397249 0.451542 3.46811 0.0532868 0.964233 0.259646
-0.0414591 0.427945 3.60525 0.00705537 0.979504 0.201299
0.497754 0.858702 1.48819 -0.0370747 0.979714 0.196943
-0.401605 0.640847 2.47484 -0.0520998 0.973297 0.223561
0.210657 -0.371439 2.74162 0.24792 0.539546 -0.804628
1.03092 0.347899 3.67931 -0.124868 0.98506 0.118593
0.561879 0.451328 3.37707 0.106429 0.968538 0.22496
0.442884 -0.305648 2.30532 -0.468004 -0.368106 0.803412
-0.538172 0.525841 3.07111 -0.0781576 0.986113 0.146537
0.0311972 -0.283435 2.96183 0.103373 0.987904 -0.115583
0.274395 -0.520266 2.22004 -0.221072 0.310038 0.924664
-0.403962 0.530685 3.06826 -0.0435503 0.990061 0.133727
0.905217 0.630054 2.58983 -0.0178777 0.979074 0.202716
0.591623 0.830477 1.71662 -0.0876266 0.973093 0.213098
0.516677 0.697953 2.27266 0.0639163 0.95706 0.282755
0.319113 0.686047 2.31923 -0.00134951 0.967851 0.251519
0.431667 0.346507 2.63249 -0.877301 0.258855 0.404151
-1.26528 0.417211 3.33554 -0.0179428 0.978168 0.207042
0.359358 0.247866 2.50501 -0.686684 0.160823 0.708943
0.377775 0.449301 3.47796 0.0047094 0.95363 0.300945
0.652103 0.560928 2.86222 -0.0159494 0.968871 0.24705
0.376771 0.779315 1.92032 -0.0166313 0.976268 0.215924
0.419119 0.699583 2.30207 -0.00446376 0.983466 0.18104
-0.62712 0.59393 2.7705 -0.101986 0.982127 0.158191
-0.27818 0.746451 1.9598 -0.00856848 0.975258 0.220902
0.920801 0.475106 3.16962 0.0791402 0.956845 0.279616
-0.564307 0.74767 1.83219 0.0708476 0.966191 0.247904
0.615274 0.79152 1.83843 -0.122011 0.981138 0.149938
-0.177484 0.786062 1.81882 0.0400699 0.995044 0.0910012
1.12211 0.425385 3.33069 0.030851 0.970467 0.239253
1.10542 0.570913 2.81508 0.0702678 0.949677 0.305249
-0.780577 0.552631 2.81812 -0.044847 0.958134 0.282787
0.306657 -0.197049 3.11701 -0.930467 0.361425 0.0600192
0.354006 0.3728 3.74826 -0.110025 0.992953 0.0440375
0.234586 -0.53923 2.645 -0.0596564 0.591295 -0.804246
0.608829 0.680876 2.3698 -0.0353825 0.98862 0.146211
0.671177 0.330833 3.83004 0.068409 0.971411 0.227335
0.821987 0.630569 2.59544 -0.0296645 0.959325 0.280739
-1.08815 0.546542 2.81695 -0.0290159 0.980247 0.195639
0.781656 0.703255 2.25067 -0.0161472 0.986329 0.163994
-1.07613 0.54763 2.83052 -0.0181698 0.978811 0.203959
-0.529914 0.360302 3.7241 0.108681 0.957759 0.266243
0.449338 0.674164 2.45691 0.0822353 0.980375 0.179168
0.649182 0.757664 2.03625 -0.0549773 0.965106 0.256024
0.468374 0.474333 3.31584 0.165925 0.954763 0.246771
-0.26981 0.447344 3.41078 -0.223487 0.948998 0.222387
0.137885 0.314336 3.26226 -0.0721277 0.193144 -0.978516
0.0102467 0.615467 2.54535 0.428776 0.708111 0.561008
0.955703 0.438931 3.31396 0.0570383 0.964824 0.256633
-1.30115 0.443974 3.22953 -0.0540545 0.974783 0.216509
-0.793564 0.744681 1.81048 -0.114648 0.984952 0.129328
0.533598 0.626319 2.65188 -0.0140192 0.955519 0.294596
0.612194 0.635362 2.57685 0.0490205 0.981537 0.184882
-0.227318 0.387049 3.09877 0.770451 0.625865 -0.121235
-0.227913 0.704891 2.20801 -0.0471747 0.983745 0.173262
-1.41018 0.56657 2.64864 -0.0310864 0.971877 0.233427
0.700947 0.829573 1.65401 0.00459117 0.982524 0.186078
-0.00251904 0.730432 2.15576 -0.0488342 0.985622 0.161755
-0.557626 0.529598 3.00966 -0.0979317 0.976697 0.190976
1.1023 0.538744 2.91215 0.0177313 0.951698 0.306523
0.276555 -0.268778 3.07848 -0.665707 0.547292 -0.507254
0.133535 0.796304 1.77137 0.0370863 0.980622 0.192367
0.911488 0.592477 2.73497 0.028612 0.956602 0.289988
-0.355907 0.628444 2.56255 -0.0659065 0.978683 0.194513
0.166883 -0.24181 2.27575 0.179774 -0.600842 0.778891
0.25147 0.479953 3.37809 0.113928 0.967188 0.227087
0.954679 0.796822 1.96342 0.0347573 0.97444 0.221941
0.275622 0.749213 2.06566 -0.0304403 0.963337 0.266563
0.529054 0.678241 2.34679 0.0369625 0.984326 0.172444
-0.461082 0.763717 1.74304 0.0253181 0.984531 0.173373
0.694761 0.677607 2.3793 -0.0577888 0.976324 0.208449
0.281294 0.363524 3.68193 0.0101451 0.977371 0.211288
0.499865 -0.352222 2.31961 -0.581725 -0.252228 0.77329
1.04018 0.493669 3.07981 0.013228 0.968946 0.246917
0.504875 0.717237 2.21285 0.017471 0.965543 0.259657
0.157198 0.805457 1.75271 0.0383431 0.991606 0.123478
0.403997 0.722973 2.19303 0.0500197 0.976247 0.210806
