-0.758827 0.343835 3.76772
0.0827601 0.407427 3.63514
-0.618613 0.354205 3.75213
-0.66123 0.353216 3.77201
-0.115295 0.387499 3.69345
0.154474 0.401722 3.6584
-0.311781 0.362064 3.74289
-1.13923 0.28918 3.89181
0.108085 0.403078 3.67053
-0.532814 0.34904 3.78554
-0.91783 0.306904 3.86302
-0.972894 0.289193 3.88954
0.116128 0.398967 3.69013
-0.825422 0.30597 3.86646
0.1497 0.399894 3.68883
-0.856011 0.323285 3.85903
-0.197532 0.354094 3.76615
-0.0535171 0.366844 3.74701
-0.0149076 0.379227 3.73386
-0.771334 0.309352 3.87552
0.445524 0.377313 3.69161
0.0941476 0.394549 3.71276
-0.806432 0.32272 3.86921
0.126245 0.392176 3.71342
-0.322976 0.34472 3.80688
-0.0610152 0.358822 3.77206
0.324873 0.371844 3.72859
-0.462194 0.326261 3.85933
0.0996026 0.379765 3.75805
-0.952993 0.288844 3.94973
0.143259 0.381369 3.75412
0.33192 0.36931 3.74864
0.347279 0.365408 3.75201
0.155214 0.37465 3.76497
-0.0792081 0.353393 3.81409
0.150282 0.378033 3.77168
-0.27541 0.31689 3.8681
-0.584041 0.303281 3.91352
-0.498171 0.314307 3.89844
-0.637912 0.320074 3.90883
-0.526187 0.315272 3.90186
-0.538472 0.307633 3.91532
0.317609 0.363607 3.77668
0.137867 -0.591286 2.62797
0.36182 -0.543959 2.67706
0.12026 -0.532579 2.69996
0.00978873 -0.490978 2.66586
-1.19965 0.488175 3.09
-0.524704 0.600241 2.83157
0.67915 0.385788 3.03197
0.135981 -0.124809 3.30991
0.180572 -0.158232 3.31731
0.258756 -0.15913 3.3208
0.107031 -0.138899 3.26341
0.139265 -0.163563 3.28529
0.147583 -0.20114 3.25184
0.213257 -0.232819 3.2503
0.382368 -0.0825702 2.85554
0.0846093 -0.250376 3.12652
0.108875 -0.264996 3.11947
0.080056 -0.260499 3.0864
0.115496 -0.278165 3.11308
0.130178 -0.306386 2.99183
0.0412923 -0.283719 2.90875
0.178672 -0.297795 2.95257
0.208682 -0.306974 2.96911
0.171847 -0.362907 2.7906
0.201151 -0.372153 2.75119
-0.0820506 -0.396535 2.62613
-0.398366 0.372816 3.68549
0.740579 0.420929 3.53716
-0.899916 0.336108 3.76396
-0.587903 0.349282 3.72377
0.461854 0.438124 3.54491
0.534232 0.431925 3.53629
-0.397764 0.38705 3.6572
-0.0122822 0.424585 3.58758
-0.998401 0.325626 3.7619
-0.260789 0.397063 3.6287
-0.217225 0.400264 3.61476
-0.107066 0.424243 3.58414
0.468111 0.447379 3.51198
-0.603251 0.374397 3.66247
-0.0942131 0.439519 3.55685
0.68307 0.441695 3.4884
0.488859 0.444491 3.48556
0.678267 0.457109 3.45338
-0.416875 0.395845 3.59629
-0.123925 0.439453 3.52673
-1.44086 0.313572 3.7477
0.574087 0.451352 3.45117
0.66772 0.45187 3.43159
-0.311135 0.42753 3.53283
0.367103 0.481975 3.42604
0.631852 0.445074 3.42652
0.523307 0.463276 3.40967
0.368576 0.466984 3.41506
-0.0873053 0.460139 3.45561
0.747711 0.455579 3.39338
0.674692 0.45716 3.38943
0.542663 0.471907 3.38341
-1.2626 0.347526 3.63711
0.317093 0.480844 3.38208
0.758645 0.454879 3.37149
-0.461782 0.423892 3.48829
-1.27628 0.348163 3.62054
-1.36258 0.322351 3.65091
0.530591 0.482276 3.35147
-1.33507 0.348205 3.61142
0.200601 0.494456 3.35266
0.702657 0.480666 3.32741
0.174623 0.520747 3.31162
-0.455036 0.430575 3.44674
-1.32714 0.351298 3.56033
0.352236 0.520807 3.26477
-1.26915 0.382698 3.51121
0.517919 0.519519 3.24575
0.437579 0.517329 3.25187
0.709089 0.52344 3.1986
0.389162 0.52501 3.20987
-1.60984 0.340685 3.5204
0.74911 0.52454 3.17041
0.759786 0.543726 3.12397
0.675814 0.560361 3.07781
-0.715002 0.472637 3.23628
0.760077 0.551836 3.07583
0.0576788 0.361234 3.28206
-0.306456 0.540584 3.09004
-1.48877 0.428878 3.1913
-1.14157 0.51796 3.03071
0.246152 0.306658 3.21203
0.289118 0.397404 3.09757
-0.603647 0.618091 2.74813
-0.570742 0.629599 2.69521
0.159726 -0.113305 3.33523
0.137726 -0.147893 3.30014
0.155958 -0.151584 3.29806
-0.0438009 -0.0891374 3.12921
0.106622 -0.202501 3.22399
0.0998784 -0.227582 3.18357
0.109875 -0.236243 3.1771
0.0839463 -0.273975 3.01931
0.101786 -0.292998 3.02291
0.0555816 -0.289467 2.92351
0.27227 -0.379416 3.01205
0.134161 -0.474728 2.72565
-0.576845 0.312705 3.92114
0.127357 0.369827 3.78595
0.210794 0.376012 3.76775
-0.0914333 0.345071 3.82515
0.12044 0.368501 3.78094
-0.971996 0.296809 3.95859
-0.253549 0.337888 3.83476
0.279899 0.356701 3.7617
0.112881 0.378852 3.7583
-0.362244 0.319667 3.85259
0.152189 0.386149 3.73841
-0.392777 0.334995 3.83855
-0.681564 0.319248 3.88
0.143727 0.390477 3.71704
-0.919811 0.30364 3.90319
-0.549453 0.339492 3.82899
0.260227 0.696022 2.27899
0.292136 0.68603 2.31016
-0.36962 0.680749 2.29101
-0.450271 0.651367 2.41148
-0.537124 0.629599 2.49479
-1.05064 0.595768 2.5719
1.15297 0.598585 2.68103
-0.390866 0.599395 2.70194
0.93368 0.554708 2.88277
-0.363428 0.555506 2.87103
1.38101 0.528661 2.95388
-1.43895 0.353033 3.64184
-0.0493686 0.185457 2.16907
-1.3474 0.323728 3.76103
-1.25732 0.28929 3.96689
-0.00781489 0.0534509 2.22707
0.0244373 0.0421966 2.23808
0.0479458 0.0123293 2.25993
0.0748069 -0.226567 2.32602
0.0723357 -0.265648 2.29342
0.112655 -0.322658 2.24476
0.341072 -0.34214 2.22618
0.0456458 -0.355748 2.25481
0.165411 -0.50583 2.21556
-0.683844 0.737061 1.97257
-0.316879 0.739395 2.02654
-0.549406 0.729573 2.01022
-0.541831 0.728395 2.03493
-0.728808 0.717692 2.05935
0.737586 0.719465 2.15775
-0.362814 0.714644 2.13854
0.807491 0.712401 2.17461
-0.0783599 0.707401 2.16816
0.877564 0.712457 2.19902
0.704235 0.704686 2.21533
0.531803 0.681388 2.2985
0.364126 0.683964 2.31192
0.94135 0.668346 2.36255
0.554696 0.66716 2.36531
-0.969181 0.656265 2.31013
1.17441 0.655086 2.41544
-0.438632 0.626825 2.52535
0.987274 0.613232 2.6041
1.29256 0.612069 2.63546
0.793685 0.604763 2.65615
0.878324 0.582552 2.74355
-0.845057 0.569732 2.74961
-1.12091 0.545375 2.82329
0.76751 0.534409 2.97811
-1.19117 0.519567 2.89317
1.47202 0.509386 3.04707
-0.489239 0.503339 3.09729
-1.24214 0.468678 3.16146
-0.487895 0.459672 3.29854
-1.19024 0.406735 3.43958
-0.39042 0.404833 3.56426
-0.45684 0.358743 3.70987
-0.917373 0.360905 3.731
-1.37589 0.36422 3.71787
-0.749129 0.354058 3.762
-1.33545 0.337159 3.77997
-0.117658 0.150631 2.19933
-0.721096 0.260102 4.163
0.10078 0.0577409 2.25054
0.110913 0.0539155 2.25954
0.13927 0.032864 2.28938
0.174213 -0.0741666 2.31189
-0.0320619 -0.332144 2.35453
0.237589 -0.60146 2.26535
-0.643734 0.735069 1.9828
-0.750145 0.728003 2.00918
-0.839923 0.722851 2.03691
0.894208 0.730715 2.08977
-0.613829 0.715934 2.04832
0.857559 0.728569 2.13407
0.84466 0.727349 2.13057
-0.55329 0.715345 2.08708
0.782019 0.724222 2.12961
-0.961981 0.703334 2.10295
0.699807 0.710874 2.16332
0.661511 0.70986 2.19017
0.513239 0.710526 2.19112
0.395933 0.711456 2.19151
0.587486 0.706603 2.18481
0.66252 0.703388 2.19658
0.964661 0.704833 2.20328
0.930987 0.698468 2.25178
0.628042 0.692245 2.23972
0.701157 0.685928 2.27597
0.372297 0.680392 2.3259
-0.714492 0.662042 2.32056
-1.12672 0.651479 2.29784
0.689648 0.658193 2.4184
-0.566537 0.643632 2.40823
1.04642 0.646628 2.46198
1.14458 0.649371 2.48469
-0.368261 0.641556 2.4766
0.933504 0.634225 2.52725
0.794006 0.625906 2.56268
-0.395215 0.625123 2.54806
-0.735543 0.616312 2.53078
0.9902 0.607183 2.64597
-1.15405 0.581728 2.59995
-0.886706 0.587727 2.65185
0.672226 0.587682 2.72522
-0.26225 0.586608 2.76687
-0.234141 0.586245 2.77619
-0.705546 0.570578 2.75526
1.00643 0.563334 2.81996
-0.851536 0.556505 2.80237
1.07906 0.541768 2.91425
-0.752993 0.531601 2.90642
-1.1135 0.516081 2.96739
-0.622325 0.508901 3.0751
-0.636023 0.504029 3.09395
-0.386529 0.48719 3.16475
-0.562208 0.459014 3.29579
-0.547405 0.44085 3.3651
-1.2669 0.414925 3.35686
-1.06246 0.367903 3.64059
-0.524363 0.356791 3.71996
-0.496058 0.355614 3.71876
-1.33161 0.325322 3.79736
-1.108 0.312788 3.91801
-0.0765218 0.0816792 2.22426
0.407208 -0.273287 2.30435
0.397934 -0.413286 2.24878
0.14539 -0.417359 2.19533
0.272232 -0.4558 2.21265
-0.644297 0.720644 2.03937
-0.606467 0.702396 2.13142
-0.286053 0.698234 2.21032
-0.704839 0.682333 2.22768
0.97031 0.686607 2.31476
-0.781554 0.648413 2.37946
-1.12633 0.635262 2.35484
-1.14196 0.628865 2.36803
-1.1553 0.626608 2.38347
0.76265 0.618792 2.60624
-0.898179 0.596464 2.65112
-0.275134 0.590188 2.75304
-1.22574 0.562096 2.68491
-0.987461 0.56845 2.72557
-0.929102 0.565622 2.77621
-1.17987 0.538963 2.86458
-0.832143 0.535165 2.88924
-0.551317 0.544674 2.95039
-1.27003 0.513928 2.95181
-0.659104 0.510919 3.07322
1.1171 0.484637 3.16783
-0.547992 0.450128 3.31146
-1.15046 0.392031 3.51952
-1.14425 0.387111 3.545
-1.08127 0.35193 3.67994
-0.878553 0.339237 3.76176
-0.0564796 0.16883 2.17865
-0.902059 0.28839 4.05174
-0.668273 0.270886 4.14633
0.0391513 0.0307837 2.25135
0.249381 -0.178592 2.3158
0.0315222 -0.242186 2.33939
0.12575 -0.26181 2.27393
0.260748 -0.326623 2.21438
0.478638 -0.344871 2.29948
0.136466 -0.33739 2.22187
0.496511 -0.383259 2.30549
0.410946 -0.410993 2.25287
0.146363 -0.451563 2.20268
0.0924603 -0.456668 2.23282
0.0958661 -0.464654 2.23071
0.0984933 -0.475025 2.2305
0.171097 -0.496743 2.21391
0.228527 -0.514525 2.21005
0.0823139 -0.577044 2.31894
-0.655108 0.730606 1.99942
0.905677 0.70973 2.20436
-1.16926 0.604286 2.49708
-0.513354 0.610316 2.56219
-0.497351 0.578339 2.75692
-0.994716 0.571363 2.71733
-1.05916 0.565064 2.75397
-0.487332 0.536627 2.9733
-1.04711 0.525438 2.93425
-1.26298 0.430128 3.33703
-1.19837 0.367484 3.58597
0.21556 -0.183108 2.31608
0.0623027 -0.249195 2.29975
0.0760434 -0.313378 2.25393
0.128049 -0.329563 2.22572
0.145724 -0.34567 2.21755
0.0188562 -0.391326 2.27143
0.275521 -0.382919 2.20243
0.410273 -0.424987 2.25477
0.13008 -0.452408 2.21039
0.119292 -0.491838 2.22646
0.108607 -0.534399 2.25259
0.0851185 -0.581647 2.31136
0.457879 0.224523 2.75863
-0.0549858 0.883929 1.41573
0.849662 0.629088 2.59439
0.851767 0.601625 2.68671
-0.15583 0.327777 3.99869
0.28887 -0.190774 3.06555
0.518275 -0.55524 2.49272
0.795766 0.816597 1.7758
0.71937 0.642262 2.54633
0.31237 -0.164578 3.16483
0.391127 -0.133838 2.8707
0.300493 -0.192325 3.12863
0.295841 -0.20391 3.10313
0.291849 -0.224791 3.10399
0.314298 -0.337529 3.00983
0.115666 -0.279273 2.26158
0.0546885 -0.363965 2.24096
-0.00216839 -0.3763 2.2821
0.194293 -0.182879 2.32643
-0.0241997 -0.331026 2.32653
-0.021115 -0.340941 2.31822
0.00559059 -0.373609 2.27516
-0.00618292 -0.385887 2.29149
0.00893106 -0.402146 2.27539
0.820169 0.598811 2.53765
0.468034 0.309185 2.68678
0.412708 -0.303563 2.59994
-0.376462 0.757644 1.78314
-0.0799674 0.673124 2.27907
-0.444846 0.781715 1.65387
0.368905 0.246337 2.48665
-1.79265 0.707128 1.97885
0.350358 -0.14311 2.53987
-0.89565 0.735387 1.70286
-1.35556 0.736403 1.97343
0.36912 -0.368723 2.65767
0.597952 0.762419 1.90744
-0.080145 0.735082 2.08747
0.534716 0.358094 2.9361
1.34921 0.443303 3.30512
0.608584 0.753457 1.96424
0.567632 0.754189 1.9871
0.258041 0.807419 1.645
0.776769 0.525002 3.00025
0.334323 0.734809 2.10199
0.710842 0.494859 3.17466
0.935925 0.368611 3.6819
0.47519 0.418938 3.56322
-0.323609 0.753535 1.83702
-0.539921 0.678501 2.29882
-0.874659 0.691375 2.16739
0.405967 0.0932772 2.70922
1.29793 0.496223 3.05688
1.23712 0.51313 2.9904
1.13466 0.572978 2.77789
1.24743 0.504129 3.03077
1.26614 0.490892 3.09851
1.26204 0.49005 3.0688
1.01811 0.62528 2.57474
1.19074 0.518441 2.96633
1.20003 0.510286 2.99454
1.20284 0.501511 3.03677
1.31648 0.435537 3.31405
1.0505 0.576499 2.75836
0.988822 0.611038 2.63195
1.27691 0.426025 3.37367
1.24245 0.434773 3.31706
0.727829 0.709665 2.2084
0.642977 0.742636 2.04192
0.932346 0.586741 2.73761
0.657055 0.714884 2.1726
1.18709 0.418651 3.4144
1.19513 0.405051 3.49948
0.539779 0.751122 1.99575
0.450554 0.785752 1.81605
0.752501 0.616127 2.62939
0.867905 0.552007 2.87901
0.732745 0.623721 2.57744
1.10969 0.416769 3.41147
0.376935 0.797644 1.7805
0.672915 0.549035 2.88635
0.951355 0.381579 3.56694
0.860877 0.415337 3.4686
0.865879 0.361841 3.70892
0.504236 0.477029 2.69456
0.571922 0.405195 3.56693
-0.292902 0.793398 1.5995
0.468535 0.358656 3.82885
-0.465229 0.687904 2.23196
-0.552089 0.7082 2.14213
-1.01044 0.712524 1.94237
-1.01709 0.664927 2.27682
-0.895132 0.196232 4.77688
0.273921 0.0693633 2.44834
0.164696 0.0897048 2.3127
0.30135 -0.0832644 3.21189
0.304484 -0.170869 3.13123
0.337558 -0.176788 2.69983
0.435392 -0.386842 2.28736
1.21423 0.543364 2.86895
1.18827 0.557158 2.81543
1.29356 0.486012 3.10087
1.35623 0.449492 3.28533
1.3508 0.452588 3.27378
1.07315 0.59826 2.68309
1.24987 0.494086 3.0505
1.14511 0.54878 2.85537
1.22615 0.502112 3.02527
1.30043 0.459749 3.24131
1.29641 0.461022 3.20566
1.31515 0.445148 3.27631
1.12205 0.542583 2.88469
1.27341 0.455887 3.23891
0.949757 0.626865 2.55079
0.905146 0.645259 2.48826
1.12848 0.517509 2.96186
0.897055 0.633236 2.54049
1.11274 0.512702 2.99028
1.05931 0.543103 2.88486
1.07575 0.521604 2.97594
1.24533 0.424472 3.35429
1.09745 0.504879 3.01454
0.930138 0.594194 2.70277
0.969362 0.561084 2.8337
0.878213 0.609564 2.64609
1.15988 0.431306 3.34076
1.08026 0.473395 3.19449
0.906823 0.56409 2.8206
0.838275 0.599852 2.67409
1.16576 0.417556 3.41932
0.737628 0.644189 2.49028
0.967307 0.51628 3.01273
0.871599 0.567558 2.81201
0.495695 0.768173 1.92676
0.693172 0.657581 2.43014
0.385483 0.810896 1.59894
1.12679 0.413129 3.44453
0.772926 0.602253 2.66888
0.387859 0.798058 1.68739
0.458479 0.758974 1.9727
0.915193 0.50807 3.0648
1.07394 0.416933 3.43165
0.702816 0.612705 2.62922
0.702625 0.607211 2.66567
0.343498 0.775853 1.85762
0.456231 0.708333 2.20008
0.755225 0.547923 2.88891
0.657849 0.595278 2.72054
0.230003 0.809617 1.5782
0.861342 0.477899 3.17422
0.512747 0.649835 2.4755
0.20978 0.802595 1.58157
0.297182 0.750671 1.98005
0.579237 0.595034 2.7209
0.665748 0.544116 2.93513
0.542531 0.605646 2.69571
0.17757 0.789319 1.67991
0.277808 0.734692 2.08231
0.136902 0.768359 1.87968
0.724556 0.447419 3.36098
0.712454 0.437524 3.4052
0.716463 0.415949 3.4902
0.0826433 0.718296 2.14772
-0.0629808 0.781663 1.71182
0.0422552 0.697217 2.31969
0.0115095 0.694986 2.29192
-0.126376 0.743703 1.96037
-0.0631657 0.70325 2.24204
-0.159073 0.685125 2.34093
-0.386421 0.793528 1.60242
0.424703 0.386657 2.52874
0.46979 0.292479 2.90349
-1.40677 0.659943 2.32984
0.333488 0.113373 2.52664
0.0850788 0.164985 2.2346
0.30963 0.0751798 2.45045
0.339008 0.0283275 2.48238
0.296422 -0.110716 3.2674
0.306379 -0.116957 3.19293
0.292983 -0.19062 3.1327
0.36912 -0.297943 2.26106
0.468949 -0.376463 2.29802
0.504793 -0.505864 2.35918
0.426147 -0.558965 2.39272
1.2946 0.489184 3.0881
1.23767 0.516393 2.96869
1.36459 0.443934 3.29929
1.23655 0.505269 3.01076
1.30222 0.465902 3.194
1.31486 0.455644 3.24715
1.17421 0.527088 2.93552
1.24723 0.481796 3.12445
1.09149 0.569419 2.7827
1.31118 0.43897 3.30012
1.27232 0.459138 3.22537
1.1096 0.542687 2.88476
0.846759 0.685489 2.30891
1.12309 0.53336 2.90555
1.28687 0.439664 3.3076
0.928754 0.631296 2.53784
1.22587 0.467939 3.20933
0.78212 0.70184 2.22992
0.837707 0.671192 2.37365
0.86022 0.652559 2.43853
1.13988 0.497023 3.04838
0.72198 0.724321 2.13988
1.07951 0.50959 3.01653
0.803008 0.658104 2.43417
0.695407 0.708439 2.18606
0.960169 0.557805 2.82699
1.07274 0.498018 3.08108
1.20519 0.423677 3.36499
1.23658 0.404596 3.44568
1.09722 0.478165 3.15985
0.701417 0.688821 2.28917
1.07883 0.483819 3.11536
-0.798078 0.741317 1.79967
1.02657 0.661092 2.51454
0.552232 0.412676 3.45109
-0.386701 0.656981 2.44275
0.701765 0.514809 3.03868
0.265462 0.431407 2.43766
1.15125 0.745174 2.1781
-0.646095 0.711952 1.99351
-0.349043 0.647996 2.4704
0.531099 -0.511951 2.5939
1.05342 0.375835 3.51417
0.10051 0.115028 2.24105
-0.63475 0.717681 1.99885
0.637143 0.401282 3.51341
0.376444 -0.151626 2.58349
-0.711876 0.737295 1.87357
-0.425126 0.672303 2.29286
0.283317 -0.130255 3.02072
-0.339925 0.657751 2.45194
0.281744 -0.184625 3.28776
0.887797 0.353491 3.71801
-0.510451 0.707557 2.11281
-0.214977 0.640533 2.51289
0.987839 0.337132 3.84939
0.658983 0.419938 3.45776
-0.394357 0.895075 1.50439
0.409885 0.427048 2.53132
-0.220984 0.986869 1.09593
-0.419709 0.692017 2.18985
-0.232147 0.654949 2.42946
-0.254306 0.869101 1.62777
-0.644153 0.759893 1.8236
-0.238147 0.672187 2.35733
0.678446 0.434498 3.33818
-0.359014 0.70087 2.16498
0.877617 0.38801 3.53903
-0.248265 0.686313 2.28705
-0.218622 0.679277 2.33153
1.02423 0.58492 2.73837
0.767564 0.434286 3.3829
0.913 0.62597 2.58447
0.706987 0.454084 3.27873
1.09685 0.354455 3.70922
-0.532887 0.767907 1.84547
-0.48139 0.757725 1.8672
0.739263 0.844346 1.62352
0.687527 0.47296 3.22148
0.84976 0.429335 3.38235
0.807325 0.441258 3.31884
0.695371 0.480476 3.16601
0.81196 0.451604 3.29626
0.85755 0.441938 3.34893
0.911511 0.429214 3.37348
0.222192 0.491973 3.30416
0.7694 0.466719 3.20972
0.720904 0.75779 2.07438
0.701834 0.492393 3.14866
0.578651 0.658557 2.5332
0.828128 0.457381 3.26496
0.540796 0.632721 2.64573
0.788001 0.481015 3.16212
0.742099 0.733257 2.19504
0.809704 0.478879 3.1836
0.489064 0.537877 2.60655
0.292909 0.342366 3.73984
0.868889 0.466715 3.21946
0.317786 0.413476 3.55076
1.02503 0.4248 3.37855
0.390538 0.471447 3.32748
1.12688 0.402519 3.49255
0.417003 0.484241 3.28683
-0.112891 0.726091 2.1182
0.41916 0.468285 3.33811
0.752891 0.502722 3.08067
0.872848 0.471994 3.20493
0.697175 0.648962 2.5567
-0.159414 0.735112 2.01896
0.739815 0.508961 3.06346
0.0437995 0.692602 2.30457
0.878024 0.474207 3.18559
0.409744 0.425787 3.51011
0.743141 0.515001 3.03471
0.616928 0.573678 2.90214
0.861642 0.485114 3.16177
0.91952 0.466085 3.19735
0.710224 0.52947 2.92528
0.969862 0.463128 3.21138
0.639907 0.55369 2.85759
1.15141 0.420836 3.40331
0.401136 0.386195 3.61077
0.584429 0.832477 1.71665
1.09433 0.436701 3.32523
-0.0022909 0.238829 2.19705
0.917533 0.484691 3.1392
1.13718 0.425457 3.36721
-0.143875 0.757831 1.93761
-0.0812338 0.742331 2.01461
0.145437 0.690601 2.3211
0.534642 0.394888 3.57279
0.934102 0.482623 3.14472
0.720948 0.422993 3.53928
1.32243 0.462044 3.22775
0.132184 0.696755 2.29044
0.629626 0.421958 3.43316
0.984144 0.472078 3.20139
-0.245575 0.786608 1.77315
0.681628 0.555922 2.83749
0.671329 0.422369 3.41928
1.08039 0.453416 3.27561
1.0902 0.451637 3.28418
1.01565 0.47028 3.19377
1.04293 0.709344 2.30072
1.05711 0.458644 3.2034
0.707031 0.440195 3.36374
1.09309 0.455726 3.26509
0.931271 0.606981 2.69308
1.0306 0.472125 3.18925
0.705743 0.415638 3.42907
1.0696 0.461567 3.22484
0.755537 0.467044 3.25352
-0.215955 0.789409 1.74919
0.716902 0.421894 3.40808
0.988318 0.487582 3.12714
1.08214 0.46342 3.21801
0.860415 0.530991 2.99979
1.25584 0.417186 3.40618
-0.174491 0.78839 1.7844
0.732595 0.41034 3.44148
-0.150403 0.787545 1.8239
1.14431 0.757471 2.12034
0.891395 0.519831 2.98704
0.254071 0.693666 2.29722
0.998969 0.621835 2.68041
0.734655 0.565925 2.80444
0.616569 0.600552 2.68337
0.565966 -0.531918 2.53843
1.2495 0.43534 3.36074
0.489441 -0.486487 2.64121
0.840633 0.545594 2.88201
0.851212 0.545779 2.90945
-0.911162 0.352722 3.69509
0.775443 0.528511 2.95044
0.888958 0.615275 2.69381
1.22001 0.443617 3.28191
0.868134 0.546288 2.8896
0.919686 0.533664 2.93516
0.174352 -0.582197 2.62318
1.07809 0.490256 3.08654
-0.0554418 0.785767 1.78098
0.123241 0.941057 1.21444
1.09451 0.490955 3.09025
0.151371 0.847969 1.62734
0.0767097 0.76082 1.97145
0.566417 0.636836 2.53658
0.583795 0.636827 2.53825
0.598035 0.63785 2.53686
0.879303 0.558693 2.83103
0.34484 0.817847 1.79175
0.651307 0.622539 2.5819
0.401944 0.801475 1.83965
1.24496 0.627409 2.64263
0.961644 0.544563 2.90023
0.863403 0.635346 2.57137
1.28494 0.461586 3.25213
0.567808 0.651019 2.45822
0.730418 0.609131 2.63859
0.767013 0.606461 2.6357
0.582821 0.653545 2.42023
0.0134903 0.802479 1.76666
1.0627 0.530657 2.93078
1.05644 0.533296 2.92235
1.21373 0.495379 3.07374
0.844276 0.596461 2.68303
-0.0657971 0.828285 1.61723
1.098 0.530828 2.93471
0.177855 0.774796 1.92508
0.595204 0.587478 2.8455
0.914763 0.585126 2.70514
1.1022 0.534605 2.91168
1.03858 0.556266 2.85098
1.18546 0.514635 2.98733
1.16701 0.532039 2.93137
1.20045 0.525736 2.98173
1.01384 0.57701 2.78246
0.608628 0.438186 3.37658
0.809375 0.631009 2.55367
0.697803 0.520235 3.06847
1.196 0.523807 2.95459
1.14626 0.548108 2.86883
0.721176 0.478724 3.20325
0.814673 0.651145 2.48504
0.98901 0.602925 2.66417
1.08661 0.729425 2.20162
0.771952 0.664268 2.43603
1.07142 0.585484 2.73567
1.05067 0.594512 2.70064
0.14446 0.828437 1.65018
0.858833 0.514652 3.07021
0.808392 0.676902 2.38146
0.804094 0.676341 2.37333
0.510054 -0.57274 2.48791
0.218185 0.833432 1.67158
1.04519 0.619524 2.61116
0.453545 0.777121 1.91937
0.299718 -0.0404408 3.01829
0.802916 0.687564 2.32139
0.332983 -0.0765484 3.26059
1.02725 0.634332 2.54231
0.31174 0.813532 1.68726
1.05098 0.633577 2.56015
0.379698 -0.617603 2.39511
0.289737 0.00743008 3.23334
0.396275 -0.562497 2.354
0.446222 -0.543322 2.39939
0.252065 -0.496463 2.20181
0.554967 -0.530319 2.43207
0.76019 0.49498 3.2476
0.407794 0.692867 2.34529
0.348621 -0.475832 2.23725
0.388046 -0.599469 2.40763
0.98892 0.452193 3.30682
0.448876 -0.49148 2.31281
0.554223 -0.490843 2.38942
0.138142 -0.382843 2.84503
0.1858 -0.370507 2.85633
0.516563 -0.444227 2.30221
0.395638 -0.40833 2.25159
0.430853 -0.400981 2.26638
0.526336 -0.409473 2.32303
0.696486 0.830426 1.66389
0.537026 -0.405802 2.32594
0.522253 -0.397132 2.41966
0.410142 -0.274546 2.305
0.705673 0.617976 2.62946
0.368797 -0.231262 2.32126
-0.126589 0.83874 1.73072
0.412998 -0.14536 2.90065
-0.00179213 0.107443 2.19047
0.223553 0.0606857 2.34503
0.244735 0.131095 2.43696
0.0419668 0.363344 3.73185
0.236849 0.34742 3.74677
0.849858 0.615646 2.69663
0.151857 0.373245 3.72265
0.633313 0.436412 3.38628
0.478458 0.348399 3.82036
-0.949446 0.705992 2.02837
0.77858 0.476382 3.22222
0.682298 0.543517 2.90253
-0.963523 0.711408 1.99733
0.602223 0.28333 3.14001
0.646931 0.280184 3.03659
0.697052 0.332239 3.83602
0.0944555 -0.466667 2.2257
-0.530591 0.656123 2.38907
-0.622555 0.681678 2.18401
0.693838 0.353563 3.73502
0.518986 0.406567 3.55586
-0.486597 0.659097 2.38332
0.589528 0.392651 3.57556
0.65786 0.446608 3.29499
-0.401485 0.645843 2.46986
-0.356749 0.636363 2.50145
-0.455231 0.685193 2.26936
0.0930436 0.136922 2.23256
-0.262933 0.646731 2.55678
0.0893426 0.146701 2.22908
-0.491974 0.694494 2.16192
-0.522268 0.703397 2.09162
-0.384478 0.67516 2.34079
0.654011 0.410052 3.48211
0.412309 -0.0606928 2.82811
0.604435 0.43061 3.39272
-0.558711 0.865902 1.7007
-0.363503 0.679524 2.31497
-0.672293 0.75035 1.78019
-0.110938 0.658135 2.42499
-0.371919 0.739223 1.96415
1.53124 -0.0550262 2.98159
0.696853 0.474767 3.2289
-0.506739 0.769313 1.72978
0.65709 0.485858 3.17737
0.781337 0.453677 3.27677
0.872864 0.431614 3.39407
-0.271376 0.731805 2.03455
0.702256 0.625215 2.61128
-0.886159 0.715577 1.95053
0.897068 0.438169 3.34844
1.01462 0.541671 2.90173
-0.33158 0.761562 1.89105
0.481799 -0.380894 2.30407
-0.40462 0.776407 1.77658
0.477062 -0.363297 2.30253
1.07057 0.407848 3.46706
0.390182 -0.269976 2.29978
-0.0644982 0.722921 2.16563
-0.175861 0.746077 1.99312
0.558942 0.56302 2.83712
0.801743 0.497482 3.08871
1.13023 0.411298 3.40092
1.03323 0.442 3.31524
-0.201934 0.757071 1.8847
0.977153 0.538938 2.91067
0.920869 0.472207 3.18671
-0.282282 0.775433 1.73967
-0.95663 0.689511 2.1151
-0.137001 0.750787 1.99162
-0.963874 0.695013 2.10055
0.790475 0.512613 3.03427
0.115815 -0.475539 2.72188
-0.601788 0.778807 1.61472
1.18868 0.412994 3.46863
-0.541454 0.648698 2.45684
-0.283847 0.790415 1.76722
1.23356 0.403899 3.47587
0.690087 0.54896 2.87397
0.845644 0.508689 3.04722
-0.220678 0.773051 1.70306
1.19887 0.422126 3.38809
0.776081 0.58452 2.72672
0.0566201 0.725162 2.14088
0.622209 0.667744 2.36531
0.901379 0.504374 3.03884
0.342724 0.817226 1.56554
-0.00578148 0.741176 2.023
0.46677 0.767343 1.93213
0.379417 0.491894 3.18636
1.10706 0.452182 3.26215
0.402811 0.828975 1.54167
1.17678 0.434011 3.30906
-0.15085 0.774639 1.79296
0.69831 0.737147 2.08302
0.56898 0.603295 2.69614
0.696708 0.74097 2.07735
0.101253 0.722015 2.14795
0.886065 0.663259 2.38318
0.725319 0.565238 2.82495
1.24122 0.508956 2.99447
1.19444 0.655718 2.52478
1.04997 0.659643 2.48566
0.952739 0.506743 3.05244
0.577632 0.608473 2.65338
0.397095 -0.486172 2.30452
-0.058114 0.766827 1.88648
0.867054 0.533131 2.94705
1.03246 0.486674 3.10903
0.334842 -0.32723 2.2263
1.18603 0.449057 3.29106
1.20462 0.4422 3.30446
0.282662 -0.213573 3.06794
1.01694 0.500461 3.06525
0.602701 0.613072 2.64232
1.05465 0.497612 3.07426
0.857388 0.678438 2.37299
0.786672 0.683716 2.34391
-0.714706 0.721333 2.11836
0.739382 0.586497 2.74034
0.441184 0.677008 2.37238
0.768794 0.581594 2.76048
0.902512 0.54643 2.90314
0.794744 0.573383 2.77189
-1.34092 0.552692 2.70461
0.402401 -0.524586 2.31665
0.856713 0.558235 2.84787
0.568304 0.638757 2.51155
-1.05851 0.598694 2.55956
0.598057 0.637197 2.53729
0.756745 0.595354 2.69974
1.18465 0.479762 3.15179
0.793599 0.407496 3.45563
0.0788896 0.841954 1.68736
0.733134 0.606374 2.64991
1.09441 0.510032 3.00282
-0.0471478 0.808392 1.71189
0.737257 0.611651 2.62535
0.0247037 0.809445 1.55735
0.0119857 0.793479 1.70925
0.179602 0.76258 1.96403
1.22141 0.489007 3.11729
0.181896 0.807235 1.58349
0.878576 0.583604 2.74569
0.80089 0.604333 2.66188
0.810117 0.517633 3.04773
0.0454404 0.794811 1.77366
0.297945 0.73706 2.08107
0.0335127 0.803034 1.75984
0.221622 0.759027 2.00275
0.540857 0.674523 2.34288
0.495196 0.694036 2.30352
0.765558 0.622736 2.57422
1.22786 0.500217 3.0645
0.224246 0.771038 1.98113
0.326567 0.82979 1.51742
0.718373 0.640776 2.51778
0.550549 0.714921 2.17305
-1.10593 0.646015 2.31276
1.05302 0.462122 3.32175
0.756188 0.634165 2.53544
1.02582 0.467798 3.20212
-0.845541 0.686965 2.18842
-0.498111 0.505659 3.05038
-0.508785 0.541064 2.97228
-1.24107 0.634316 2.33697
1.1449 0.534815 2.91209
1.0523 0.56257 2.8236
0.877948 0.612391 2.63156
1.07839 0.472419 3.18285
0.917691 0.604076 2.68435
0.423791 0.8231 1.55485
0.148318 0.80243 1.79428
0.665055 0.700482 2.22421
0.861331 0.616846 2.59617
1.26803 0.498983 3.12197
0.598039 0.687612 2.29241
0.424873 0.745439 2.09168
0.765494 0.701772 2.23127
0.609466 0.691141 2.27011
0.493993 0.729574 2.15396
0.111048 -0.226646 2.3385
0.367482 0.76958 1.99444
0.990267 0.653158 2.45766
0.746649 0.66769 2.40334
1.20039 0.545393 2.86573
0.0583093 -0.188608 2.38714
-0.462249 0.599085 2.68773
0.099494 0.869441 1.47847
1.15239 0.555916 2.83381
0.916394 0.626282 2.58426
0.265104 0.794679 1.84408
0.774541 0.663147 2.42298
1.05081 0.589354 2.7173
0.769002 0.666404 2.39869
0.845567 0.649457 2.48733
0.541361 -0.43133 2.33951
0.437693 0.769389 2.01322
0.26415 0.0789481 2.39116
0.730889 0.687238 2.31885
0.27537 0.0827419 2.44142
0.869886 0.651766 2.47279
0.249588 0.139783 2.44426
0.246814 0.814463 1.7653
-1.44906 0.743735 1.74887
0.879672 0.649551 2.47568
-0.5634 0.296405 4.28549
0.47826 0.756388 2.0195
1.20987 0.561803 2.82808
0.468428 0.765466 2.00451
0.825463 0.677512 2.37055
0.284648 0.820338 1.7533
0.419167 0.787838 1.91048
0.881566 0.662246 2.41808
1.07449 0.614983 2.63444
-0.519292 0.739441 1.8492
1.05272 0.623866 2.5935
0.904489 0.663277 2.4218
0.980971 0.640755 2.5043
0.900128 0.666245 2.41338
0.706504 0.717613 2.1985
0.540625 -0.525932 2.39193
0.482439 0.340614 3.87242
1.03225 0.505215 3.01233
0.303108 -0.423207 2.21761
-0.267662 0.781307 1.63747
0.29698 -0.321311 2.21796
-0.573975 0.527898 2.96875
0.251047 -0.153775 3.36608
0.315487 -0.110551 3.22699
0.0217706 0.712004 2.18693
0.230051 -0.0333089 2.31413
0.333202 -0.0802204 3.20721
0.0460038 0.732047 2.05943
0.337078 0.01849 2.47264
0.75281 0.645465 2.51329
-0.477566 0.355692 3.67876
-0.658189 0.715892 2.1639
0.0570617 0.174591 2.20604
0.156034 0.149426 2.37272
-0.657668 0.673629 2.23041
0.29304 -0.416259 2.21106
-0.732848 0.704286 2.05083
-0.769896 0.721841 1.93728
-0.683481 0.705123 2.05211
0.372519 0.698172 2.27977
0.78447 0.356715 3.68957
-0.450906 0.67507 2.2774
0.995167 0.550142 2.8712
0.315498 0.777785 1.85125
-0.700883 0.747203 1.78075
0.823872 0.485732 3.16063
-0.41331 0.686368 2.25549
0.696913 0.561668 2.84756
-0.49151 0.709008 2.13331
1.00028 0.401457 3.49464
0.958149 0.345595 3.81563
-0.718094 0.769121 1.77655
-0.630881 0.744939 1.84162
0.886262 0.365983 3.64054
0.773554 0.567682 2.79859
-0.422691 0.707954 2.153
-0.152758 0.786169 1.64071
0.951734 0.370695 3.62976
1.11565 0.394439 3.50222
0.441368 0.457631 2.56353
-0.556159 0.441334 3.38323
-0.280306 0.694123 2.24688
-0.164901 0.668604 2.41952
0.449656 0.773103 1.91313
1.06678 0.351568 3.74043
0.429075 0.787909 1.75207
0.449874 0.471922 2.55314
1.06758 0.362876 3.69259
-0.472468 0.757051 1.89236
-0.318391 0.716536 2.09544
-0.25328 0.706773 2.18718
0.895833 0.424844 3.40881
-0.270872 0.72935 2.05242
0.5699 0.783444 1.82772
1.0461 0.391696 3.5292
-0.239565 0.730051 2.05636
-0.135966 0.711178 2.14632
1.1763 0.478749 3.12329
-0.345401 0.77891 1.8186
0.980945 0.441541 3.32221
1.00517 0.631877 2.52698
0.682667 0.533302 2.98458
-0.969166 0.271112 4.38582
0.709764 0.52668 3.01291
0.322662 -0.452461 2.21283
0.690509 0.528981 2.93214
1.15915 0.406756 3.44575
1.26179 0.631505 2.62133
0.642052 0.547134 2.90572
-0.280392 0.673456 2.39711
-0.0271751 0.719281 2.14941
0.944511 0.653523 2.49549
0.455377 0.325344 3.85486
0.586335 0.487866 3.20824
0.606857 0.559354 2.87499
0.18607 0.184118 2.43179
-0.172428 0.764664 1.87732
1.12563 0.43466 3.36081
-0.240221 0.785052 1.80359
0.621646 0.573471 2.81741
0.216897 -0.267294 3.18994
0.813694 0.52003 3.0002
0.402955 -0.159233 2.60026
1.12491 0.437979 3.33309
-0.118843 0.757796 1.92234
0.896895 0.50217 3.07598
0.931743 0.491473 3.10406
0.145737 0.705886 2.28457
0.69827 0.556086 2.84113
0.318666 0.0851672 2.46106
0.627515 0.675475 2.37357
0.852739 0.664969 2.49203
-0.00526272 0.737626 2.03743
1.56489 0.600183 2.72685
0.298835 -0.19045 3.19588
0.51351 0.609424 2.64371
1.03902 0.470708 3.19929
-0.177599 0.785096 1.81877
0.669182 0.570968 2.79967
0.685491 0.575257 2.77169
0.871744 0.525166 2.98049
-0.130424 0.777635 1.78349
0.0359838 0.742661 2.02638
1.21925 0.438532 3.31506
-0.0252066 0.765648 1.91856
0.0867089 0.738061 2.05507
0.914559 0.523668 2.98059
0.0203698 0.754956 1.94454
0.629544 0.603715 2.66022
-0.0301183 0.767363 1.85385
0.963817 0.521419 2.98384
1.24764 0.44633 3.29475
0.53668 -0.506413 2.37986
-0.0398848 0.776561 1.80455
0.0555768 0.760362 1.98017
0.179124 0.733094 2.13801
-0.177321 0.814195 1.6572
-0.135958 0.811401 1.69496
0.773934 0.581924 2.7387
0.754275 0.588299 2.72174
1.20636 0.47066 3.19257
-0.0786141 0.802936 1.72774
0.488019 0.663879 2.40984
0.154099 0.0981331 2.32616
0.255817 0.724856 2.1418
0.26171 0.722401 2.15313
0.767157 0.647923 2.51676
0.626231 0.630833 2.55679
0.952106 0.541401 2.89494
0.68726 0.615153 2.62167
0.930377 0.554167 2.86941
0.174245 0.755005 2.01959
0.729545 0.617232 2.61258
-0.121291 0.767231 1.9558
-0.0979188 0.705267 2.15329
1.01475 0.621332 2.66185
1.01246 0.463488 3.06253
0.410122 0.709102 2.25448
0.202445 0.758227 1.98657
0.894654 0.580311 2.74727
0.413719 0.71022 2.22198
0.72064 0.630254 2.56508
0.0695621 0.79551 1.79064
0.92301 0.576623 2.76465
0.0236141 0.810651 1.74987
0.0831343 0.794668 1.8108
0.212093 0.761478 1.94182
1.15007 0.514501 2.98016
0.264284 0.757188 2.05255
1.02545 0.551398 2.86244
0.377613 -0.180013 2.6348
0.989281 0.563401 2.81659
0.0196488 0.805196 1.65939
-0.554094 0.718094 1.97845
0.3359 -0.026244 3.18277
0.459858 0.713179 2.21292
1.12705 0.534519 2.93063
0.129064 0.800037 1.79943
1.00466 0.573495 2.78002
0.434543 0.730538 2.16638
0.437046 0.727468 2.14833
0.0212398 0.829969 1.64245
0.376431 0.746373 2.08517
1.03064 0.570724 2.78405
0.144735 0.802601 1.77467
1.05989 0.567487 2.80821
0.826429 0.632143 2.558
0.984275 0.588963 2.72203
0.99243 0.58854 2.73514
0.456368 0.435936 3.36076
1.20387 0.528132 2.94544
0.110612 -0.676631 2.46025
0.657364 0.678581 2.36125
0.729088 0.661967 2.4077
1.11839 0.558054 2.83515
0.325641 0.773061 1.97649
0.919751 0.614015 2.62991
1.10454 0.564086 2.81301
0.663316 0.685144 2.33716
0.791254 0.651242 2.47685
0.253285 0.79315 1.84243
0.64986 0.692789 2.29831
0.905262 0.573128 2.86226
-1.16015 0.674683 2.75984
0.72063 0.675719 2.38221
0.382752 0.766442 2.00743
0.400654 0.763702 2.01215
0.769517 0.664065 2.4127
0.926435 0.337785 3.63945
0.962894 0.614522 2.62259
0.146448 -0.430767 2.68782
0.809581 0.716383 2.18864
0.867624 0.484531 3.13972
0.855558 0.707375 2.3169
0.752389 0.671445 2.36475
0.25545 0.808309 1.82341
0.393614 0.772295 1.96667
0.638795 0.706964 2.23476
0.772313 0.671827 2.38509
0.92287 0.632369 2.55963
0.437395 0.765329 2.03688
0.760539 0.677118 2.37458
0.892743 0.644021 2.53213
0.756353 0.679766 2.34215
0.71333 0.696982 2.27116
0.123909 0.687698 2.32915
-0.996308 0.722884 1.88545
0.812562 0.671298 2.37168
0.855178 0.483021 3.19536
0.951774 0.604433 2.71206
1.03079 0.627434 2.56309
0.656017 0.842951 2.07114
1.0095 0.636362 2.53447
0.877271 0.915702 1.84291
0.32042 -0.422628 2.22684
0.712518 0.676377 2.44491
-0.0554287 -0.149226 2.65516
0.527679 -0.449574 2.33183
0.463213 0.414671 3.54197
0.315442 -0.311851 2.23276
0.12883 0.0923801 2.27682
0.212576 0.140364 2.4218
0.625522 0.449487 3.45135
0.0728371 0.193408 2.2226
-1.31214 0.386806 3.48176
0.0063856 0.246102 2.20587
-0.823809 0.279741 4.05998
0.017554 0.266543 2.22376
0.712659 0.601006 2.67698
0.690713 0.301261 3.97359
0.461114 0.396819 3.57303
0.644439 0.34869 3.75268
-0.755338 0.697574 2.01786
0.0162587 0.0353694 2.23682
0.238449 0.409655 2.46184
0.849105 0.32502 3.88677
0.328934 0.457525 3.40746
-0.723422 0.511254 3.01742
0.526219 0.35829 2.87035
0.195462 0.443143 2.44109
0.427157 0.372767 2.53412
0.164193 -0.186505 3.28188
0.59426 0.747436 2.09438
-0.467384 0.704268 2.15655
0.135132 0.483284 3.38681
0.750651 0.407751 3.47759
0.913871 0.372223 3.65761
-0.642276 0.760248 1.76205
-0.561747 0.752608 1.83011
0.67166 0.454761 3.29941
-0.545291 0.758614 1.80996
0.855874 0.419473 3.4133
0.609865 0.465929 2.95879
1.06271 0.378145 3.67904
1.04752 0.549096 2.87947
0.832889 0.716352 2.25741
-0.137804 0.703105 2.24034
-0.404042 0.770673 1.87295
0.945044 0.450552 3.29445
0.839352 0.478951 3.16664
0.0043551 0.699019 2.23347
1.03266 0.433377 3.33199
0.406771 0.825425 1.63687
-0.291363 0.770801 1.8023
0.100749 -0.32334 2.23628
0.911611 0.639751 2.55849
0.716434 0.542261 2.93467
0.366532 -0.217894 2.93686
1.20898 0.413992 3.448
0.377685 -0.584468 2.33177
0.0691068 0.346377 3.83788
0.0607883 0.718455 2.17244
1.20575 0.421923 3.39805
-1.0337 0.507713 2.9858
0.572637 0.596224 2.7455
-1.25608 0.483301 3.06196
0.239787 0.68912 2.32764
1.21567 0.441829 3.37329
0.533994 0.612051 2.64498
0.0396172 0.738321 2.07679
-0.161012 0.797424 1.77784
0.545358 0.620573 2.58965
0.171092 0.7363 2.16462
0.285171 0.70784 2.24062
-1.87678 0.615137 2.99557
0.460448 0.664713 2.43181
0.570263 -0.506452 2.4677
0.368104 -0.0888736 2.92713
1.11273 0.594805 2.71267
-1.43292 0.545891 3.20714
1.025 0.526089 2.97333
0.452387 0.679044 2.33896
-0.0413127 0.798075 1.73282
0.690977 0.70949 2.23429
0.884029 0.693213 2.23486
1.08006 0.552509 2.84087
1.01598 0.545757 2.90693
1.0402 0.540172 2.90334
1.01112 0.551661 2.85896
1.10436 0.523717 2.94696
0.625074 0.661544 2.41876
0.639967 0.658443 2.44175
0.741093 0.448991 3.31982
0.77892 0.62381 2.59455
-0.0334927 0.839839 1.61766
0.181426 0.782054 1.85405
0.318631 0.757085 2.00423
0.460607 0.726662 2.19214
0.613999 0.64723 2.50834
0.348613 0.752626 2.02107
0.487586 0.721782 2.19249
1.01177 0.582922 2.74602
0.770854 0.518308 3.09022
1.05445 0.642418 2.55953
0.746735 0.662126 2.42596
0.702651 0.676772 2.37373
1.27455 0.523518 2.98701
0.0401563 0.84431 1.58125
0.327108 0.779033 1.94154
0.825955 0.589085 2.77525
0.385622 -0.591354 2.39146
0.653388 0.558793 2.85056
0.387569 0.763663 1.95653
1.01878 0.601694 2.6829
0.41493 0.768887 1.99571
0.294582 0.800626 1.82485
1.0481 0.603377 2.66767
1.19111 0.569761 2.79877
0.948873 0.634641 2.53241
0.166965 0.837029 1.60618
0.777124 0.691049 2.31275
0.751906 0.436995 3.35593
0.58926 0.738652 2.07775
0.253651 0.827597 1.7043
0.448109 0.784388 1.94943
0.178589 0.849402 1.61326
0.337187 0.802814 1.77874
0.666067 0.727793 2.16652
0.856556 0.673644 2.36886
0.913733 0.662167 2.43009
0.569235 -0.501677 2.43781
0.392161 -0.402609 2.25185
0.414845 0.564789 2.84856
0.299331 -0.0747322 3.28951
-0.547754 0.761222 1.84579
0.474867 0.335502 3.84649
-1.01888 0.666284 2.25945
-0.976778 0.703708 1.98091
0.793143 0.31502 3.92052
-0.413317 0.700277 2.18157
-0.550854 0.772299 1.82896
0.507218 0.48158 2.57978
0.348693 0.707623 2.24165
0.121043 -0.493373 2.24047
0.838269 0.453944 3.28526
1.00036 0.435979 3.35794
-0.314641 0.777229 1.7771
0.409352 0.688755 2.32321
0.0660267 -0.196906 2.37799
0.538582 0.481072 3.28229
0.892574 0.661395 2.42248
0.329338 -0.265149 2.81754
0.690009 0.665084 2.40449
0.423238 0.787455 1.86404
1.18167 0.494219 3.05427
0.257118 0.754415 2.03808
0.246859 0.760432 1.98718
0.605666 0.673205 2.35211
0.990926 0.574577 2.77498
0.173213 0.783788 1.82139
0.47579 0.723346 2.15775
0.710512 0.632183 2.55059
0.667663 0.674743 2.3753
0.681276 0.718806 2.21371
0.177046 0.849684 1.60172
0.418334 -0.584932 2.40848
0.371915 -0.487563 2.27009
-0.191478 0.214211 4.39085
0.233447 0.00586772 2.30921
0.361213 0.111292 2.55712
0.319777 0.167195 2.47267
0.5128 0.427462 3.43762
0.572431 0.244958 4.34036
0.560899 0.264511 4.15961
-0.91448 0.672635 2.16047
0.787531 0.256461 4.15197
-0.526968 0.635786 2.47827
-0.584368 0.671721 2.27311
-0.490479 0.387091 3.59531
0.273853 0.418531 2.44595
1.12928 0.41829 3.37365
0.302272 -0.371092 2.21501
0.783265 0.343883 3.74429
0.507011 -0.379681 2.3105
-0.540299 0.693739 2.10863
-0.543943 0.711756 2.07496
-0.399549 0.681231 2.30743
-0.377132 0.761607 1.91784
1.13912 0.389776 3.52713
-0.00149796 0.710665 2.08179
0.0613962 -0.25465 2.29143
-1.20111 0.413969 3.37971
0.11525 0.0524277 2.2639
-0.830083 0.739867 1.85457
-0.0065702 0.72283 2.11366
0.0704673 0.706331 2.18981
0.516146 0.771827 1.98597
1.19089 0.492039 3.09783
0.0103078 -0.426201 2.28033
0.533858 0.704491 2.25987
0.993827 0.674393 2.4054
0.10723 0.812015 1.72839
0.267425 0.780616 1.88413
0.602675 0.710805 2.26802
0.324417 0.78941 1.89873
0.585869 0.719589 2.18384
0.4533 -0.4226 2.27792
-1.27566 0.37649 3.49288
0.306821 -0.388461 2.21426
0.112484 0.771123 1.97854
0.357382 0.0797421 2.54641
0.173714 0.163043 2.42773
0.583046 0.264038 3.07422
-0.904759 0.687176 2.09259
0.566137 0.33295 3.87034
-0.585322 0.604051 2.66038
-0.77276 0.672954 2.26591
-0.931651 0.556942 2.8031
0.915384 0.321091 3.90649
0.0359559 0.688736 2.32259
-0.583491 0.523464 3.22041
0.465798 0.401244 2.6033
0.532938 0.663337 2.3697
0.563432 0.685488 2.33251
0.58263 0.694313 2.27169
0.580653 0.711617 2.2334
-0.441544 0.698128 2.22248
0.0978307 -0.47141 2.72429
0.364627 -0.453091 2.25351
0.224834 -0.0617342 2.34697
0.31905 0.127969 2.46932
-0.805176 0.611607 2.57862
0.781225 0.603919 2.72018
0.222279 0.405773 2.40926
-0.63609 0.631924 2.44674
0.635445 0.691255 2.29277
0.502735 0.208083 2.7644
0.74869 0.699701 2.28752
-0.568831 0.748891 1.84044
0.465521 0.680116 2.29928
0.681629 0.679035 2.36305
0.377556 0.243398 2.48576
-0.275213 0.403446 3.48423
0.583455 0.609055 2.65274
0.513611 0.31502 3.9478
0.544754 0.53439 3.20466
1.11545 0.522939 2.94814
1.06788 0.535073 2.92409
0.439301 0.329673 2.62113
1.15912 0.509452 3.0105
0.366356 0.560312 2.42945
0.00993483 0.792799 2.05831
0.754075 0.500766 3.10332
0.827473 0.572317 2.82851
0.755256 0.475227 3.17652
0.992742 0.694871 2.37191
0.0379901 -0.421715 2.25694
1.15286 0.457398 3.20547
0.406604 -0.600522 2.44575
0.416094 -0.598639 2.45083
0.418821 -0.577861 2.39284
0.412062 -0.557213 2.35737
0.371087 -0.539696 2.29461
0.234847 -0.0875989 2.33543
-1.13177 0.570533 2.75549
0.285487 -0.253561 3.06588
-0.312941 0.668406 2.42981
-0.854465 0.731297 1.97634
-0.78942 0.785501 1.63658
-0.640664 0.821726 1.49869
0.163688 -0.216969 2.30632
-0.60551 0.245313 4.59024
-0.419803 0.728964 2.02736
-0.281757 0.776428 1.71539
-0.312892 0.771363 1.8346
-0.268008 0.77277 1.80308
-0.225163 0.833923 1.46015
-0.195693 0.796752 1.60631
-0.16525 0.880405 1.22877
-0.0962704 0.842903 1.35547
-0.0660525 0.723605 2.11971
-0.046356 0.751362 1.94855
0.0105229 0.8426 1.39266
0.0129317 0.854754 1.33657
-0.628645 0.638411 2.44362
-0.0256654 0.745486 1.96416
0.0145159 0.387476 3.74853
0.126942 0.795336 1.69445
-0.440787 0.53649 2.99666
0.142518 0.724942 2.12392
0.299515 0.355331 3.72865
0.682454 0.288641 3.0707
0.29623 0.839428 1.43537
0.262433 0.725714 2.1401
0.337726 0.829317 1.51331
0.373343 0.852 1.43052
0.342909 0.733902 2.11199
0.365578 0.765437 1.92641
0.380012 0.573954 2.83085
0.410635 0.422214 3.5527
0.433598 0.408727 3.57335
-1.04703 0.60665 2.48622
0.434324 0.420441 3.54088
0.460104 0.41484 3.55485
0.430116 0.72661 2.15312
0.468467 0.842356 1.49289
-0.710281 0.648548 2.39614
0.556337 0.693859 2.28392
-1.06761 0.649113 2.29556
0.597262 0.853702 1.44028
0.574793 0.677153 2.33581
0.574369 0.822353 1.69487
1.07941 0.678672 2.3188
0.605401 0.603373 2.69333
1.14146 0.475648 3.16161
0.812189 0.615411 2.65166
0.610125 0.783174 1.85243
0.662975 0.691447 2.2358
0.704388 0.475202 3.21772
-0.00189988 0.321484 3.92662
0.671429 0.716943 2.17035
0.769285 0.782435 1.98303
0.788151 0.742627 2.11863
0.808664 0.640879 2.55457
0.806917 0.715642 2.24342
0.826781 0.728861 2.16944
0.351482 -0.62327 2.53382
0.392848 -0.550502 2.34012
0.546781 -0.522994 2.54299
0.425233 -0.440329 2.73724
0.426454 -0.386727 2.59737
0.359163 -0.0882619 2.66023
1.04046 0.792531 1.9729
0.283693 -0.114335 3.03968
0.121954 0.0952875 2.28759
0.365829 -0.0881538 2.93773
1.06051 0.552931 2.84475
0.779903 0.761803 2.05924
0.625652 0.42821 3.47367
-1.17437 0.309493 4.32926
-0.414275 0.651072 2.49416
-0.97134 0.719264 2.0725
-0.57435 0.694619 2.11981
-0.95047 0.27884 3.96982
-0.788854 0.785651 1.66347
-0.544228 0.690945 2.16806
-1.04863 0.287174 3.95476
-0.788399 0.731701 1.97183
-0.693788 0.787924 1.57395
-0.687023 0.775618 1.72097
-0.797705 0.197857 4.68882
-0.585895 0.735218 1.96089
-0.564043 0.737849 1.97092
-0.218577 0.655422 2.50054
-0.544559 0.728041 2.02493
-0.219981 0.658482 2.45123
-0.537404 0.714075 2.1161
-0.52973 0.725374 2.04868
-0.509737 0.74179 1.95395
0.337181 -0.320398 2.22959
-0.515213 0.742774 1.97174
-0.525016 0.674375 2.32185
0.0425188 -0.22998 2.3439
-0.224053 0.675823 2.37272
-0.467728 0.758165 1.8551
-0.58605 0.261011 4.47406
-0.460693 0.706622 2.17848
-0.429482 0.713734 2.11191
-0.355635 0.795386 1.64022
-0.412014 0.681993 2.34621
-0.266665 0.810176 1.50501
-0.448605 0.450006 3.61864
-0.0724771 0.188561 2.18394
-0.312324 0.719699 2.09321
-0.256848 0.829223 1.47688
-0.305156 0.726094 2.08548
-0.311473 0.752881 1.98255
-0.215012 0.895094 1.16405
-0.202532 0.799221 1.63311
-0.227888 0.711601 2.16048
-0.190774 0.752283 1.94632
-0.149107 0.780753 1.74367
-0.512747 0.445514 3.34
-0.186966 0.758827 1.95411
-0.169703 0.743391 1.98882
-0.119563 0.807862 1.61017
0.233077 0.821524 1.46845
0.180539 0.415566 3.58715
0.185173 0.747329 1.97555
0.27105 0.723895 2.12556
0.293145 0.715506 2.20217
0.305739 0.715152 2.1883
0.357973 0.380598 3.69987
-0.0208122 -0.209469 2.58635
0.710027 0.321281 3.11549
0.140629 -0.0519473 2.31528
0.35726 0.793939 1.78704
0.46901 0.333368 3.83642
0.391642 0.735219 2.10941
-0.682273 0.384899 3.59598
0.521011 0.676098 2.34663
0.663837 0.618 2.61845
-0.409573 0.702706 2.18693
0.296502 -0.253129 2.26518
0.520139 0.784855 1.82556
0.553736 0.848745 1.56661
0.796478 0.598661 2.69334
-0.0459715 0.101492 2.20223
0.581349 0.716328 2.16738
0.600579 0.577691 2.80209
0.590095 0.742554 2.05527
1.14727 0.503749 3.04324
-1.00518 0.318438 3.77976
0.623152 0.669064 2.326
0.685811 0.342227 3.73486
0.542806 0.672192 2.37327
-0.765825 0.350433 3.72749
0.600919 0.770889 1.90903
0.647469 0.692653 2.26456
0.812709 0.349674 3.68372
0.705562 0.505036 3.07287
0.755641 0.807825 1.79629
0.00829735 0.00826263 2.26122
0.836278 0.469439 3.19328
0.85143 0.416325 3.4103
0.790297 0.619537 2.62345
0.806296 0.604901 2.66921
0.779332 0.732083 2.14997
0.855656 0.767403 2.00147
0.24011 -0.0593473 2.36594
0.912787 0.565991 2.81024
-0.836089 0.670742 2.25946
0.954558 0.475983 3.14207
0.952804 0.474117 3.16553
0.985976 0.405269 3.40671
0.923522 0.666362 2.40395
0.415836 0.745302 2.07465
0.282485 0.140461 2.46212
0.980576 0.576949 2.78739
1.0339 0.431903 3.31263
0.971905 0.709184 2.23919
1.04858 0.497287 3.03376
-0.0468379 0.268398 2.17916
1.29919 0.610888 2.61948
0.976582 0.693657 2.35253
0.994841 0.70611 2.27037
-0.822723 0.355574 3.69761
0.659114 0.703583 2.24301
1.07398 0.489266 3.06855
-0.143396 0.163547 2.33845
-0.833965 0.668736 2.21579
-0.292792 0.424683 3.42165
1.02214 0.69858 2.27386
-1.04447 0.662167 2.24207
1.13306 0.367229 3.51282
1.11025 0.424164 3.3199
0.111586 -0.181358 2.38261
0.41613 -0.579168 2.41217
0.374085 -0.226911 2.92633
0.292175 -0.222265 3.08317
0.11671 0.0458931 2.25058
-0.0133281 0.265865 2.19231
0.321561 -0.115404 3.15446
0.321861 0.0704686 2.46412
0.338734 0.0229537 3.0137
-1.07329 0.71758 2.04066
-0.991154 0.777668 1.70936
-0.947427 0.8241 1.4862
0.170578 0.707273 2.23455
-0.913153 0.731596 1.95739
-1.12285 0.276029 4.50373
-1.02269 0.299996 4.32875
-0.77944 0.768857 1.73894
-0.932903 0.195157 4.77065
-0.95953 0.310021 4.27261
-0.815179 0.703132 2.18008
-0.745285 0.751807 1.85889
0.616783 0.392814 2.9347
-0.923352 0.313311 4.26858
-0.747198 0.742652 1.94658
-0.250673 0.745173 1.95723
-1.0498 0.547874 2.88589
-0.692458 0.709483 2.07317
-0.691314 0.890818 1.21416
-0.345744 0.724911 2.08228
-0.330265 0.722988 2.11057
-0.308211 0.737113 2.02199
-0.304748 0.751054 1.96135
-0.225513 0.887509 1.16546
0.312604 -0.349489 2.21472
-0.283063 0.731883 2.05338
0.974983 0.473465 3.2685
0.274886 0.400644 2.46532
0.115754 0.392132 2.37044
-0.267639 0.693597 2.27812
-0.309956 0.331137 4.1027
-0.21765 0.71713 2.13618
-0.0497429 0.721804 2.17204
0.543556 0.662116 2.43643
-0.194731 0.709393 2.20186
-0.155911 0.777833 1.8066
-0.135375 0.785364 1.7354
-1.28162 0.54968 2.72522
1.44188 0.50742 3.11859
-0.102019 0.84349 1.39488
-1.1705 0.564312 2.6607
1.10143 0.648095 2.55018
-0.147265 0.741148 2.00731
-0.0639193 0.248617 4.29663
-0.768748 0.638857 2.41413
-0.0860557 0.76351 1.88031
-0.0870828 0.733599 2.04579
-0.0908753 0.715834 2.14682
-0.018698 0.816091 1.54644
-0.0267182 0.775171 1.76256
-0.0897132 0.356455 3.95026
0.00701839 0.855616 1.32156
-0.020199 0.805665 1.63552
-0.0471736 0.735754 2.05018
0.516017 0.260563 3.0669
-0.0335718 0.737264 2.07143
0.273391 0.71552 2.19784
0.305264 -0.101855 2.98516
-0.00711946 0.768785 1.86201
-0.0284318 0.714973 2.19631
1.12752 0.487916 3.10896
0.0275303 0.755672 1.9415
0.332288 0.703524 2.2674
0.766244 0.699319 2.2537
-0.00477222 0.443618 3.52228
0.065175 0.796461 1.70252
0.0387218 0.726442 2.09992
0.0285348 0.703386 2.23744
0.367514 0.696616 2.30191
0.924691 0.66846 2.38026
0.05474 0.733749 2.02688
0.101248 0.281445 4.11818
0.693136 0.610432 2.64911
0.843859 0.64518 2.47874
0.0421266 0.734456 2.07737
0.0470911 0.418844 3.61624
0.157806 0.440081 3.50253
0.182141 0.787437 1.76452
0.163522 0.427838 3.55203
0.575003 0.663456 2.41495
-1.42274 0.596615 2.50366
0.864359 0.584214 2.81665
0.210912 0.294332 4.07842
0.851228 0.591813 2.71538
-1.28558 0.616664 2.43506
0.929341 0.591919 2.79521
0.263642 0.289127 4.0175
0.174821 0.741641 2.03874
0.175113 0.72366 2.1891
0.264744 0.297584 4.02358
0.242045 0.362885 3.77946
0.281141 0.27386 4.13884
1.05981 0.584756 2.74957
-0.986551 0.673331 2.23656
0.255238 0.808803 1.6188
0.22062 0.779758 1.85618
0.232543 0.723941 2.09519
0.316441 0.278757 4.10402
0.281195 0.787274 1.73146
0.299068 0.393017 3.64641
0.281183 0.78112 1.83172
0.329104 0.32436 3.93882
0.279927 0.788105 1.84643
0.382343 0.275636 4.06106
1.1667 0.546779 2.87026
0.333828 0.799817 1.71087
0.319269 0.729563 2.1003
1.20659 0.548803 2.85795
-1.84962 0.719367 2.68703
0.313878 0.722368 2.15138
0.332059 0.705588 2.21833
0.44875 0.30792 3.87234
1.07439 0.594242 2.71572
0.347494 0.766209 1.9191
0.340939 0.72274 2.15059
0.373095 0.734292 2.0927
1.03253 0.608524 2.65625
0.881779 0.694912 2.25619
0.367884 0.679159 2.37717
0.375296 0.887775 1.3401
0.37649 0.733826 2.12171
0.42196 0.425907 3.51695
0.400588 0.736919 2.07864
0.41362 0.758069 1.94832
0.400481 0.724208 2.15463
0.458808 0.386617 3.6407
0.402644 0.678635 2.37831
0.424949 0.748435 2.0502
0.450717 0.800978 1.76553
0.450196 0.68449 2.34074
