-1.17044 -0.0897979 3.65095
-0.647087 -0.0232466 3.56429
-0.395455 0.0204042 3.52349
-1.1648 -0.250926 3.94444
-1.4767 -0.316868 3.6354
1.07663 -0.345679 4.45683
1.24424 -0.365305 4.01059
1.60106 -0.3818 4.06409
1.27542 -0.324999 4.03218
1.28042 -0.302652 4.05941
1.17364 -0.255354 4.0897
-0.440199 -0.00965124 3.55804
-0.60315 0.013214 3.54055
1.168 -0.0319108 4.01752
1.23269 0.100788 4.03012
-0.175279 -0.484156 4.32966
-1.29585 -0.34905 3.81375
-1.29451 -0.347867 3.79414
-1.20243 -0.260462 3.98365
1.09907 -0.426489 4.53135
-0.613358 -0.287477 3.86328
1.26019 -0.410167 4.14918
0.839686 -0.340414 4.06553
0.919649 -0.343296 4.05743
-0.792721 -0.155023 3.60523
1.27553 -0.293545 4.06711
1.31874 -0.304246 4.04768
-0.153566 -0.170816 3.7291
1.49462 -0.199142 4.0274
0.449248 0.122987 3.52321
0.066129 -0.333905 3.92036
1.25096 -0.412014 4.16532
0.0722427 0.0453024 3.37821
-1.58977 -0.407442 3.6962
-0.845459 -0.357706 3.95607
-0.73038 -0.31668 3.87483
1.08839 -0.348859 4.53977
1.08094 -0.3723 4.4701
-0.218926 -0.366013 3.90186
-0.649803 -0.305103 3.84392
1.22032 -0.383507 4.12633
-0.814728 -0.224483 3.67679
-0.942499 -0.119058 3.61256
1.29292 0.269836 4.18088
0.691718 0.134258 3.66994
-0.0369862 0.0863482 3.32019
-0.0642582 -0.552601 4.52573
0.182198 -0.335141 3.96968
-0.682539 -0.186492 3.62316
-1.1526 -0.0751045 3.65986
1.26622 -0.0665395 4.02271
1.55374 -0.428297 4.32245
1.16621 -0.291858 4.17902
-0.551135 -0.181472 3.67155
1.30589 -0.308718 4.07138
1.23431 0.121512 4.03792
1.37851 0.260048 4.15805
-0.141294 0.0921824 3.39982
0.317455 0.0676041 3.47843
-0.759886 -0.385678 4.29671
-0.201022 -0.459894 4.31121
-0.793444 -0.353512 4.02836
-0.765292 -0.323852 3.85113
1.41719 -0.399754 4.22158
1.24359 -0.0205937 4.0028
0.108117 0.0320759 3.66575
1.21927 0.0787503 4.01874
1.17618 0.142362 4.08595
0.968632 0.199943 3.92615
-0.434807 -0.389252 3.99411
0.834953 -0.330705 4.06416
-0.100794 -0.146612 3.68659
-0.150258 -0.572329 4.56406
0.202725 -0.558698 4.57415
0.425155 -0.476644 4.6703
-1.3793 -0.369453 3.81927
-0.36028 -0.321985 3.87201
1.16658 -0.271762 4.13279
1.31788 -0.31085 4.09021
-0.165967 0.0306964 3.49781
0.0492598 -0.598748 4.63364
-0.425201 -0.377783 3.95501
1.08367 -0.348081 4.60768
0.943032 -0.363109 4.38276
-0.561249 -0.225805 3.82045
1.35207 -0.282447 4.09034
-1.55462 -0.42003 3.68218
-1.50756 -0.423196 3.70883
-1.12778 -0.259055 3.91707
-1.13231 -0.252341 3.87639
1.57603 0.146074 4.08205
0.128752 0.0603968 3.3888
1.75361 0.317376 4.14879
0.383899 -0.483641 4.564
-1.52043 -0.299998 3.55687
1.67372 0.164708 4.12218
-1.41681 -0.303131 3.62624
-0.876019 -0.064441 3.5816
-0.16457 0.0830487 3.39869
-0.987976 -0.170155 3.67265
-0.000869785 0.0355477 3.44747
0.581966 0.133593 3.59088
1.08649 -0.345048 4.4007
-0.23278 -0.180595 3.73108
1.22621 -0.201645 4.03553
-0.772222 -0.21226 3.64659
1.45631 -0.17026 4.05045
-0.507865 -0.45643 4.38867
1.09825 -0.299123 4.66844
1.23886 -0.235619 4.06349
-1.05964 0.0289637 3.63155
1.16926 -0.357411 4.20977
1.57465 -0.0940114 4.02143
1.54994 -0.089167 4.01396
-0.546381 -0.456154 4.41874
1.16194 -0.395452 4.46485
-0.741723 -0.191242 3.62772
-1.28913 -0.346371 3.73452
-0.525674 -0.347379 3.96466
-1.13564 -0.0746827 3.63472
0.242566 -0.560639 4.54136
-1.0848 -0.291809 3.93516
-0.701103 -0.181521 3.62896
1.38975 -0.0970374 4.0265
-1.29537 -0.337726 3.74204
-0.831023 -0.354541 4.0663
-1.38691 -0.374154 3.80238
-1.1844 -0.103051 3.60437
1.43852 -0.175933 4.04057
-0.651193 0.0224019 3.52324
0.00147253 0.00605461 3.48722
0.328614 0.0510231 3.45669
0.0839262 0.0365499 3.33719
-0.689177 -0.235301 3.77686
1.31733 -0.391232 4.13662
0.684333 0.132292 3.64963
-0.406592 0.0304975 3.49888
0.364089 -0.475702 4.56093
-0.843316 -0.0737078 3.58558
-0.494907 0.0655854 3.53681
-1.72114 -0.130708 3.83405
-0.836433 -0.363839 4.06788
-0.753991 -0.206964 3.63275
-0.309317 0.00402155 3.59073
-0.81136 -0.0881139 3.59008
-0.153596 -0.39611 4.23244
-0.0572472 -0.493945 4.54808
-0.255646 -0.624764 4.61973
-1.08989 -0.283668 3.94891
1.20778 -0.2448 4.08018
-0.83666 -0.218454 3.66939
-0.662922 -0.261713 3.79876
-0.420608 -0.186734 3.70746
-0.670719 -0.32996 3.96574
-0.822081 -0.363653 4.05888
-2.50342 -11.002 20.5774
-0.123637 -0.617568 4.62855
-0.754682 -0.198352 3.62476
1.37874 -0.400217 4.40849
-0.0283241 0.0938988 3.33825
1.29631 0.370691 4.22531
1.33897 0.257789 4.10379
-1.46262 -0.386288 3.76296
1.52256 0.413987 4.35006
0.997003 -0.38467 4.47171
-0.717888 -0.339549 4.04962
-0.175737 -0.445967 4.28903
1.24114 -0.278491 4.05491
-0.308428 -0.575162 4.44204
-0.598123 -0.167314 3.73233
0.0382707 -0.46243 4.48611
-0.214404 -0.35012 3.89786
-0.445791 -0.32444 3.86791
-0.680971 -0.336673 3.97523
-1.27244 -0.327808 3.75174
-0.783483 -0.379084 4.30441
-0.584081 0.0916795 3.54237
-1.47264 -0.332633 3.60616
-0.585205 -0.0418021 3.55522
-0.408527 -0.363514 3.8997
0.786516 -0.0340507 3.99453
-0.0353519 0.0225486 3.44221
1.31767 -0.00964191 3.9797
1.60639 -0.163452 3.97746
-1.1355 -0.0742934 3.6383
1.42066 -0.11624 4.02569
-1.26269 -0.151518 3.59647
-0.449869 -0.190724 3.70466
-0.184667 -0.575788 4.50616
0.578209 -0.321405 4.05052
1.50172 -0.107676 3.98414
1.61406 -0.205643 4.01502
5.72426 8.1193 -5.82825
8.68276 10.1334 -5.98856
9.57128 9.49979 -5.43263
-0.301057 -0.375682 3.9114
1.2376 0.019118 3.99097
0.708097 -0.272728 4.06564
-0.427325 -0.007562 3.55681
-1.40412 -0.43486 3.74182
0.915155 -10.0508 13.605
1.58848 -0.335436 4.08498
1.12226 -0.30247 4.06378
-1.27985 -0.319845 3.73016
-0.71453 -0.304474 3.83822
-4.93023e-05 0.0307664 3.53745
1.23737 -0.204683 4.03575
1.15056 -0.425209 4.53003
-1.23627 -0.274759 3.80042
-0.582344 -0.263499 3.81371
0.211117 -0.368397 4.01575
-1.21268 -0.262024 3.97095
-0.609565 -0.33647 3.96204
1.2361 0.328926 4.21958
1.25973 0.316352 4.21371
1.53411 0.00068467 3.96957
0.929225 -0.32607 4.06334
-0.88049 -0.26555 3.75271
0.0699759 0.0317123 3.49003
-0.654027 -0.0492487 3.57599
-0.675891 -0.0530292 3.5703
1.22506 -0.334977 4.01879
-0.075657 -0.593664 4.56502
0.0592701 0.0867756 3.36018
0.000693121 0.0554366 3.39187
1.58223 0.121326 4.09395
-0.331291 -0.00356077 3.53776
-1.05165 0.0247526 3.62587
-0.595764 -0.0499669 3.57042
-0.719331 -0.0437938 3.55995
-0.877108 -0.099943 3.58926
-0.30397 -0.189323 3.72539
-0.352887 -0.260279 3.81504
0.859974 -0.328977 4.05115
-0.149812 -0.277069 3.85735
-0.498527 -0.257643 3.8371
-1.30012 -0.38541 3.7187
-1.57543 -0.396453 3.64801
-0.204806 0.0251778 3.42438
-0.652455 0.00542275 3.56016
1.3207 -0.105264 4.01646
1.24073 -0.226476 4.03759
-0.913498 -0.150439 3.62457
1.19089 -0.254536 4.06277
-0.973922 -0.167757 3.66444
0.883829 -0.322791 4.03851
0.871422 -0.318793 4.04662
0.896122 -0.323298 4.05972
1.20692 -0.364363 4.01312
0.931526 -0.335341 4.05752
1.11941 -0.325879 4.36761
-1.19993 -0.222439 3.95797
-0.187618 -0.334306 3.87602
-1.08499 -0.274888 3.87282
-0.536835 -0.341244 3.93963
-1.28986 -0.341832 3.74732
-1.40517 -0.354769 3.64558
-1.63149 -0.346552 3.69609
-1.50398 -0.400125 3.6612
-0.0912345 -0.59752 4.57491
-0.0598428 -0.625889 4.62813
-0.781082 -0.330599 3.85613
1.23957 0.153801 4.05895
-0.153943 0.091567 3.41075
0.0151114 -0.552593 4.53863
-0.871514 -0.157502 3.6171
1.30311 -0.375725 4.0521
-0.781264 -0.363292 3.98469
1.30354 -0.110608 4.03805
-0.0309999 3.24081 16.4173
0.143099 0.0751414 3.4935
-0.406141 -0.402682 4.1506
0.346981 -0.519528 4.59036
0.273006 -0.56497 4.62691
-1.36421 -0.301664 3.61537
-0.418715 0.0798569 3.49362
-1.36213 -0.348175 3.64646
-0.528075 0.181592 3.73349
-0.354241 0.194874 3.88989
-0.593692 0.187631 3.77293
-0.0532346 0.177992 3.85454
-0.627943 0.0836642 3.56822
-0.48363 0.0220854 3.53372
-1.3834 -0.341775 3.63563
-0.956072 0.0787771 3.66107
-0.0204143 0.210926 3.87983
-0.852835 0.145626 3.69804
-0.781931 0.0847146 3.59277
-0.761938 0.0838502 3.58119
-1.11736 -0.0298264 3.63246
0.321208 0.100029 3.45104
-0.353934 0.0365537 3.48726
-0.823069 -0.110272 3.59267
-0.853561 -0.129293 3.59752
-1.07508 -0.137291 3.64477
0.0118104 0.105475 3.32185
-0.796516 0.141905 3.68712
-0.189836 0.128156 3.43084
0.329096 0.101549 3.45971
-0.168712 0.0910429 3.40313
-1.08477 -0.11493 3.63896
-0.0189836 0.117715 3.3401
-1.5108 -0.278283 3.57362
1.21162 -0.393372 4.2173
1.57028 -0.483483 4.46438
1.13055 -0.286597 4.22781
1.06615 -0.342072 4.24464
-2.46772 -6.60637 18.9924
0.264012 0.0884031 3.44104
-0.0451185 0.138177 3.42245
1.78171 -0.0906562 3.98754
-1.28312 -2.10342 16.2848
1.2152 -0.0799755 4.05795
1.28406 -0.259883 4.08026
0.692148 -0.264416 4.02151
1.28672 -0.017651 3.98653
0.911299 -0.106617 4.03632
0.248993 0.0818903 3.4237
0.12437 0.103814 3.35468
-2.06114 0.772704 17.331
1.32876 1.09169 13.1271
-0.644423 -0.116375 3.64094
1.23246 0.00789474 4.00433
-0.0977941 -0.106361 3.61859
1.23232 0.308638 4.20306
1.59072 0.173499 4.05714
1.59287 0.172238 4.04029
-0.122495 0.0286717 3.43027
-0.194237 -0.00824196 3.50716
1.47987 -0.145965 4.02062
-2.0138 2.27847 16.5943
-2.05045 2.06006 16.4821
-0.02253 -0.558879 4.51987
1.293 -0.0723546 4.00662
-0.166146 -0.287905 3.82953
-1.43199 -0.331828 3.60492
1.20336 0.323545 4.19863
1.32853 0.0186287 3.98465
1.27784 -0.0774349 4.02039
-0.240382 -0.406172 3.97731
0.156307 -0.579321 4.52725
0.197158 0.0644556 3.38121
-1.17063 -0.121105 3.67305
-0.0854949 -0.199474 3.81526
-1.50847 -0.428648 3.74015
0.447189 0.120483 3.51671
0.0158638 0.0421507 3.42043
-0.146999 -0.0208604 3.51352
-0.770961 0.0468002 3.57195
-0.147745 -0.0264136 3.52073
-0.992997 0.0688212 3.64876
-0.702269 -0.178908 3.64177
-0.384212 -0.197359 3.72082
1.52398 0.419946 4.34082
1.17246 0.242508 4.16538
1.16869 -0.266651 4.08715
-0.722163 -0.371751 4.0481
-1.46965 -0.384894 3.66646
-4.33828 1.15761 17.0737
-1.49204 1.01732 17.0394
1.05293 -0.114698 4.02118
-0.731337 -0.161843 3.62865
1.52317 -0.512337 4.46534
1.76873 -0.302023 4.09684
-0.0789526 0.0268904 3.41895
1.43302 -0.0516732 3.99157
1.36417 -0.41293 4.34021
-1.31214 -0.367001 3.71265
-0.18229 -0.449524 4.21308
-0.216465 -0.488033 4.27489
1.4282 0.366634 4.36159
-0.437432 0.0524567 3.51143
1.31188 0.0365413 4.00723
-0.338061 0.0180934 3.50756
-1.15695 -0.238622 3.91181
1.11125 -0.364209 4.37891
0.252117 -0.55763 4.56004
-0.36189 -0.360562 3.88941
-1.42679 -0.374091 3.72398
-0.228644 -0.457265 4.22865
1.58821 0.0734389 4.02227
-0.425877 -0.235392 3.79947
-0.715451 -0.305366 3.81351
-1.11664 -0.260278 3.90809
-0.588953 -0.327495 3.915
-1.19148 -0.26735 3.97515
-0.100455 -0.375537 3.93315
-0.240256 0.100043 3.43403
1.29056 -0.264127 4.10322
-1.15558 -0.209149 3.85583
-0.633985 -0.275368 3.80409
0.269968 -0.53227 4.54454
0.106895 0.0837955 3.34305
0.227113 0.0680679 3.40086
-0.388033 0.0305062 3.50966
0.590564 -0.204568 3.9544
-1.13205 -0.119822 3.6615
-0.32649 -0.178486 3.71864
-0.573486 -0.211966 3.79886
1.24997 -0.389561 4.0651
-0.505995 -0.330475 3.86979
1.40369 -0.429606 4.31902
-1.30281 -0.330794 3.71236
0.0359054 -0.552722 4.54062
0.498837 0.120493 3.54122
0.254991 0.0787907 3.42069
0.262875 0.0630623 3.4207
-0.636202 -0.289482 3.83615
-1.18242 -0.230085 3.93472
1.07879 -0.373855 4.45654
-1.33638 -0.318267 3.70148
1.35612 0.0822384 4.05264
1.61596 -0.0979948 3.96356
0.695152 -0.209649 4.00426
1.27354 -0.271 4.11415
1.21501 -0.271212 4.09726
1.1519 -0.282051 4.10084
1.38891 -0.370623 4.16044
1.1657 -0.389693 4.20291
1.16474 -0.415065 4.25741
-0.702129 -0.338381 3.96616
-0.781494 -0.363306 3.92896
-0.109835 -0.599916 4.55712
-0.783094 2.00038 16.891
-0.478719 1.9951 16.8795
-2.72353 -9.63648 20.1127
1.25124 0.233092 4.18524
-4.15285 1.53499 17.0035
-2.33172 1.62866 16.9389
-1.61315 2.0576 16.6602
1.37131 -0.0962729 4.02162
-1.23541 -0.233852 3.7052
1.1502 -0.0270926 4.0265
0.234755 -0.526984 4.59239
1.12891 -0.36421 4.47836
1.93151 -0.376942 4.28073
-1.126 -0.21543 3.79692
-1.07694 1.3268 16.842
-0.0206083 -0.304254 3.88722
-0.661808 -0.279608 3.84478
-1.0844 -0.0383109 3.63773
-0.864682 -0.112593 3.6073
1.19672 -0.23022 4.03779
1.21385 -0.224258 4.04444
0.985652 -0.0669894 4.03176
1.22001 0.0185255 4.01259
-0.573918 0.0705965 3.53845
-0.562013 0.083015 3.5392
-0.54658 0.0711497 3.52446
0.172723 -0.57501 4.59183
1.60228 0.0797454 4.01431
1.21405 0.347398 4.23719
1.15765 -0.39359 4.42141
-1.51759 -0.222915 3.59902
0.199268 0.0682867 3.38438
1.01628 0.0560505 4.0317
-0.52041 -0.22982 3.79737
1.16099 0.316062 4.18883
-1.17362 -0.0922947 3.61111
-0.0201472 -0.561205 4.50804
1.80898 -0.0885339 3.99112
-1.08501 -0.0242023 3.6235
1.06596 0.0190217 4.072
-1.04756 0.0176647 3.62852
1.31707 0.00648084 3.99169
0.63452 -3.96464 18.0321
1.14751 -0.425877 4.52066
-1.4909 -0.265799 3.57742
1.71459 0.173436 4.07852
-0.823435 -1.65256 15.476
-0.592466 -0.187312 3.78707
-4.52987 -5.82089 19.2308
0.0937157 1.37302 2.69888
-3.22991 -5.49924 19.1599
-4.85914 -5.33323 19.167
-1.16522 -0.190177 3.84524
-0.834037 -5.5035 19.2576
-4.53555 -5.39326 19.5941
-0.456489 -5.27548 18.9434
-0.69956 -0.384265 4.36391
-1.36851 -0.2995 3.65432
-1.04495 -0.105022 3.62737
0.543756 0.0959828 3.67805
1.32277 -0.0796063 4.00118
-0.498054 -0.0361395 3.58149
-0.232233 0.0235257 3.45115
-0.140194 8.32449 7.26312
1.16767 -0.0729833 4.03407
1.18147 -0.0517775 4.01736
-1.43876 -0.342737 3.6101
-0.239544 -0.413547 4.13434
1.29666 0.01709 3.98907
0.119793 -0.326308 3.91355
1.2499 -0.367343 4.16876
0.00255546 0.0855615 3.32313
-0.80176 -0.133899 3.60663
1.23839 0.100177 4.02964
-0.358416 -0.286219 3.8372
-0.186005 -0.331993 3.86786
-0.530508 -0.194355 3.67615
0.866247 -6.15402 16.6983
1.39442 -0.120254 4.02842
-0.858967 -0.119265 3.60413
0.409441 8.69099 6.90494
-1.21522 -0.250321 3.96687
1.59563 -0.340956 4.1026
-2.29358 0.869183 17.3281
-0.691906 0.0414848 3.57061
1.20927 -0.112685 4.03014
1.19769 -0.101335 4.02436
-0.758939 -0.254423 3.74103
1.22629 -0.111411 4.02172
1.35142 -0.0816232 4.01961
1.74488 -0.0442326 3.98558
1.2512 -0.0254632 4.00634
-0.187549 -0.00306703 3.47819
1.34265 -0.0180285 3.98445
1.24578 -0.00332678 4.00615
-1.54417 7.30502 9.81772
0.0777048 0.108389 3.33992
1.81678 0.133354 4.08214
-0.101953 0.0931251 3.36458
1.17223 0.190423 4.11965
-1.16472 -0.242595 3.94557
-1.18134 -0.0993817 3.60551
-0.478015 0.00540379 3.55158
-0.118539 0.0172818 3.47603
-0.135163 -0.174857 3.71818
1.26246 0.092995 4.0121
-0.582656 7.71953 7.30102
1.22555 0.152719 4.07121
-0.963617 8.44724 6.86235
-1.44296 -0.382851 3.85004
-0.736584 -0.340708 4.0632
-0.0319723 -0.545951 4.52502
1.14926 -0.395498 4.36317
1.38287 -0.37618 4.16895
1.61669 -0.13373 3.98263
-0.0949231 -0.135271 3.66603
1.25928 -0.409932 4.47316
-0.659791 -0.0217666 3.57072
-0.978897 1.27557 2.552
-1.07586 -0.233831 3.78615
-0.139647 1.42351 2.61014
-0.055476 1.39604 2.75145
-0.968368 -0.0648971 3.58127
-0.209018 0.152659 3.43358
-0.792359 1.31931 2.58525
-0.350696 1.39726 2.59808
-0.530443 1.42611 2.56759
-0.319694 1.42743 2.63863
-0.181944 1.37546 2.30443
-0.23454 1.39374 2.33833
-0.32743 1.41831 2.4074
0.755491 0.142785 3.71555
1.10317 -0.345903 4.50442
-0.0952199 1.42373 2.60728
-0.12804 -0.14545 3.68844
0.915696 1.38763 2.76391
-0.685899 1.37469 2.46211
0.865404 1.15912 2.7333
-5.11353 -12.5715 21.0304
-3.05855 -5.84724 19.286
0.88321 -7.58874 16.5109
-1.10395 -0.0302425 3.61379
-1.17844 -0.198835 3.84698
1.1555 -0.392604 4.19476
1.2872 -0.423161 4.43462
0.107941 0.0622772 3.32351
-5.75753 -12.6848 20.9604
0.882576 -7.43366 16.6076
0.0994234 -0.471681 4.53908
1.45738 -0.129632 4.01234
-0.765794 -0.339835 3.90848
-0.90224 -0.143068 3.61488
0.219918 0.0449465 3.42179
0.104318 0.00658097 3.412
-0.122117 -0.619615 4.57906
-1.27397 -0.336176 3.81586
-3.31785 -9.77142 20.3455
1.23975 0.112894 4.03794
-1.4103 -0.351768 3.63644
-0.118267 -0.157294 3.73345
-0.193874 -0.587992 4.51717
-0.812838 1.26643 2.42633
1.47944 -0.208969 4.01384
-0.446067 -0.00654495 3.54216
-0.373654 0.0094237 3.49574
1.18504 -0.402322 4.11439
-1.2003 -0.186792 3.75002
1.31863 -0.439541 4.4555
-0.544074 -0.292663 3.89079
-0.709524 -0.285213 3.79406
-3.99956 -10.0881 20.1066
1.16616 -0.2914 4.13411
-2.46773 -12.826 18.6554
-3.08679 -9.22107 20.1032
1.04327 -0.351465 4.60222
-0.735297 -0.314317 3.85554
-0.553518 -0.0460746 3.52169
-0.163886 -0.338813 3.86814
1.54549 -2.16062 14.0652
-2.89548 -12.672 20.9455
-1.33877 -0.331243 3.97529
1.20194 -0.413745 4.23845
-1.17738 -0.24696 4.05178
-1.22839 -0.120869 3.58775
-6.27954 -12.8755 21.1139
-2.6547 -11.3829 20.3634
0.660924 1.23849 2.74561
-1.11588 -0.0856718 3.61955
-4.41024 -11.2993 20.6569
-0.484873 -0.0426675 3.58657
-2.06715 8.12841 9.50759
-4.81612 -12.9119 21.0819
-0.115533 -0.561653 4.60645
-0.667185 -0.378331 4.39089
-0.674669 -0.309535 3.88319
-0.364541 -0.279089 3.98515
1.11719 -0.335946 4.59124
0.354705 -0.47953 4.56678
-0.769185 -0.296181 3.7896
-0.378041 -0.330104 4.35027
-1.42157 -0.319468 3.63084
-1.32492 -0.377871 3.74549
-6.50941 -14.443 21.4223
-1.22342 -0.130283 3.58352
1.1109 -0.281163 4.65713
-0.205407 -0.161864 3.77341
-1.18122 -0.26917 4.02023
1.57138 0.191708 4.1407
-1.08558 -0.215692 3.74178
0.663852 1.37576 2.80091
-0.899412 -0.339493 4.02624
1.59013 0.000144805 4.06417
-2.99321 10.1828 10.5606
1.23899 0.134347 4.0515
0.0177803 -0.575918 4.66308
1.17238 -0.327214 4.05292
-0.194118 -0.160631 3.71071
-0.793254 1.29058 2.6529
1.28024 -0.429052 4.42126
-0.203452 -0.493215 4.30292
-1.07437 -0.259518 3.827
1.08444 -0.331621 4.63835
1.2281 -0.336139 4.00552
-0.278452 9.25025 6.46885
-7.03022 -14.0826 21.1117
-0.098358 0.131139 3.41244
1.21452 0.287713 4.19857
-1.11631 -0.228377 3.80507
-0.646578 -0.316485 3.87682
-0.789145 -0.323009 3.84971
1.1794 -0.381777 4.23357
1.17132 0.253936 4.18132
-1.08573 -0.198459 3.75747
-2.16624 -12.776 20.9566
1.52006 -7.64417 13.6905
1.33613 -0.0978661 4.03018
-1.42058 -0.386678 3.87154
1.3349 -0.03374 3.97741
1.28574 -0.319626 4.0652
-0.256992 0.0202176 3.44876
-0.233417 -0.308985 3.84916
-1.33137 -0.287409 3.67338
-0.804892 1.32486 2.62812
1.23978 -0.394372 4.09048
1.209 0.0776083 4.02756
-1.8489 -8.41494 19.9831
1.27273 -0.183481 4.05141
0.788858 -0.221142 4.04724
-0.678573 -0.352174 4.16684
1.15347 -0.25983 4.10039
0.773486 -0.344254 4.10846
-0.129724 0.0459638 3.37902
-2.07394 -0.529352 17.3374
1.32337 0.0013571 3.98688
0.108565 -0.552919 4.62214
1.23928 -0.42019 4.37481
1.26482 -0.398977 4.34541
-1.17175 -0.185802 3.80633
-1.07456 -0.234374 3.79634
-3.12195 -0.810967 17.6582
-2.81387 1.44878 17.0095
-3.57308 -10.9442 20.4348
-0.330539 -0.566007 4.60068
10.0673 10.0162 -5.5534
1.38803 -0.148081 3.98001
-1.26687 -0.342935 3.78639
0.0438989 0.0604494 3.33791
-0.198751 -0.0297185 3.48933
-2.89272 -4.09911 18.7694
-0.549729 -0.17142 3.67034
-1.12899 -1.66781 15.6741
-3.31943 0.925478 17.1835
-0.982878 -0.137645 3.63162
1.15225 -0.30958 4.19894
-3.87594 -6.21048 19.5218
-0.697752 1.36405 2.4731
-0.426879 1.42056 2.54919
-0.502 -0.188767 3.679
1.2782 6.85004 8.6429
-3.54801 -8.48097 19.6864
-0.0949399 0.140575 3.4074
0.248236 -0.519927 4.6091
-1.30975 -0.380387 3.7663
-0.165353 -0.174725 3.73166
-1.41795 -0.374241 3.66549
-5.18686 -14.9646 21.3367
-1.21234 -0.213483 3.88914
-4.43098 -9.3864 20.1979
-0.858697 9.05118 6.42515
-0.63524 -0.294277 3.84398
-0.509311 -0.0426915 3.58507
-0.127709 -0.108361 3.65789
-1.11847 -0.100754 3.65556
0.825446 -0.225094 4.05887
-0.355227 -0.00093124 3.46558
1.25083 -0.323023 4.04741
1.2638 -0.415818 4.5014
1.28948 0.0451156 4.00837
-0.0230366 -0.0131193 3.61084
0.840821 -0.216961 4.0559
-1.16122 -0.115547 3.67793
-1.46633 -11.8675 20.8595
-0.808629 -0.0876143 3.58801
-0.127411 -0.559877 4.57785
-0.440734 -0.346575 4.19923
1.58434 -0.162252 4.04806
-0.914004 -0.159234 3.61751
-0.100336 -0.0880974 3.58707
1.25707 -0.379734 4.02577
0.61947 -0.188615 3.94722
-0.607512 -0.339517 3.99756
-3.11811 -11.1245 20.3298
-0.354349 0.0307311 3.45689
-1.04987 1.62503 16.8442
-0.982447 -0.131333 3.63687
1.2039 0.108852 4.05358
0.969099 -0.0478511 3.9849
-2.11086 -10.9605 20.6087
1.07799 -0.288397 4.40729
1.32765 -0.441479 4.42952
-0.584741 -0.26057 3.81125
-0.0132557 0.0827008 3.33231
-0.158298 0.125994 3.40249
-1.21436 -0.240189 3.96636
-0.687584 -0.235147 3.77898
-1.1536 -0.107067 3.75349
1.24374 -0.245091 4.07151
0.700919 1.04701 2.7389
-1.19183 -0.126088 3.67326
-0.649597 -0.369273 4.12569
1.20637 -0.398947 4.43083
1.16911 -0.406612 4.34144
1.17512 -0.307118 4.10848
-1.45037 -0.361756 3.63599
-1.32883 -8.31805 20.0264
1.15013 0.156624 4.0885
-0.636575 -0.26633 3.83575
-0.571112 6.82853 8.20272
-0.828742 -0.281336 3.74595
1.18039 -0.39165 4.24065
-1.59837 -0.251934 3.54818
-3.98814 -11.8438 20.688
-0.484399 -0.396336 4.0023
0.325342 0.0713294 3.47417
-0.42948 0.00582136 3.51835
-0.155183 -0.479325 4.44654
-0.610394 -0.335933 3.92986
-1.18925 -0.250595 3.90834
1.4791 -0.204515 4.03113
-0.105141 -0.12448 3.76865
1.48909 -0.389902 4.56635
1.47397 -0.187303 4.04081
-6.00608 0.163126 17.0467
0.553654 9.04873 6.834
-0.227209 7.68321 7.47621
1.16973 -0.375879 4.19854
-0.60753 -0.157583 3.76182
-4.68222 -14.3681 21.1329
-0.615065 -0.187197 3.78552
-0.400359 7.55022 7.59655
-0.60955 0.0598763 3.5478
-0.0289324 -0.203158 3.83051
1.13745 -0.277739 4.11878
-1.07056 -0.184732 3.67262
-0.484425 0.08501 3.54911
-0.115986 0.0472016 3.51563
-5.48696 -13.8496 21.3517
1.53148 -0.150209 4.04684
-0.447258 0.00342216 3.5553
-1.39505 -0.377575 3.79852
-0.162813 -0.0162189 3.4621
-1.41606 -0.314348 3.63621
1.24231 -0.107721 4.03743
-0.105795 -0.620805 4.70295
-0.736916 -0.206038 3.72393
1.15 0.180846 4.10748
-0.106142 -0.280767 3.84743
1.59069 0.148939 4.03356
0.514189 -0.428872 4.63761
1.13715 -0.402379 4.42865
-3.46136 1.08732 17.128
1.31041 -0.348632 4.04131
1.22257 0.0159157 4.01934
-0.191699 2.17939 16.8098
-2.35289 -8.74522 19.9868
1.23855 0.234265 4.18682
-4.06981 -9.52935 20.2325
-0.922243 -0.143548 3.61761
-4.49487 -14.0844 21.2911
-0.576082 -0.307532 4.05814
-0.818129 -0.173711 3.61549
-1.43892 -0.409116 3.81508
0.912244 -0.305387 4.08438
-1.24198 -0.326239 3.78931
-0.0313215 -0.514885 4.79373
1.23115 -0.347565 4.02489
-0.0758704 -0.11378 3.64723
-1.06193 -0.247842 3.80432
1.48289 -0.144394 4.02578
1.33176 -0.378407 4.08672
-0.870678 -0.318614 3.8482
1.21245 -0.32606 4.03654
1.58851 0.103533 4.02276
1.00993 -0.216159 4.65041
1.18504 -0.409403 4.2994
-0.175421 -0.0100118 3.48966
-0.36665 -0.254283 3.81221
-1.20364 -0.238062 3.95498
-0.76853 -0.321243 3.87172
-4.88305 -15.288 21.4249
1.07344 -0.227725 4.65705
1.18194 0.142369 4.0895
-0.671876 -0.284564 3.8296
1.57297 -0.474885 4.33515
1.25813 -0.0241513 3.99881
-0.495518 0.0982053 3.54464
0.0545744 0.0433285 3.31322
0.0956858 0.0432725 3.38101
-0.585675 -0.307323 3.89878
-2.26775 -11.7248 20.5011
-0.835078 -0.143719 3.61926
-1.14171 -0.191038 3.79543
-1.1396 -0.046346 3.62398
-1.51181 2.42964 16.688
1.11003 0.103331 4.08918
1.6314 -0.0938723 3.95116
-0.069946 1.39398 2.7415
-0.817095 9.18576 6.30739
0.751919 1.2397 2.71025
0.168722 0.0445408 3.39654
-0.182358 -0.611209 4.70657
1.17296 -0.400438 4.34335
1.15331 0.166153 4.09649
1.33455 -0.135006 4.049
-0.20572 -0.469465 4.40746
-0.642726 -0.317974 3.86575
-0.269769 1.56866 16.7483
1.11014 -0.453938 4.54998
-1.13933 -0.103237 3.62096
-0.622282 -0.341002 3.94183
-2.28362 -5.7827 19.2366
-2.62897 -10.0494 20.3547
1.08247 0.250992 4.06544
-0.455669 -0.00735276 3.55085
-0.16326 -0.0245796 3.49682
0.539916 -0.0154356 3.87349
-0.244194 -0.551216 4.65431
0.974763 -0.312691 4.57033
-1.51618 7.2422 9.61754
0.809453 -0.221109 4.05975
0.140192 -0.402592 4.51199
-0.913197 -0.145623 3.61902
-1.3106 -0.360907 3.72829
-3.69778 -9.84921 20.2977
9.78028 8.99207 -5.04355
-0.0203626 -0.316701 3.89106
-1.08078 -0.112835 3.66241
-0.148707 8.67245 6.92003
0.458328 -0.463042 4.60407
8.15337 8.99661 -5.45963
-5.54402 -7.65338 19.5952
-0.00960903 -0.603278 4.71694
-0.176372 0.014588 3.41441
1.07055 -0.362697 4.6256
1.6054 -0.214587 4.01949
1.3274 -0.379801 4.08243
-0.760833 -0.271304 3.74131
1.189 -0.306062 4.0799
-0.681285 -0.34215 4.24409
-4.33633 -6.2328 19.48
-4.69697 -11.0123 20.4285
1.33272 -0.278963 4.09366
1.12897 -0.35216 4.46529
0.0900197 -0.345529 3.94615
-0.205316 -0.0202077 3.53335
-0.600978 -0.355895 4.02246
-3.0766 -10.858 20.4146
-4.4677 -10.9834 20.6223
0.290138 0.0606516 3.44485
-4.05156 -0.320969 17.5619
-5.79292 -14.994 21.4064
1.52438 -0.147402 4.02171
1.17358 -0.394737 4.44381
-1.42526 -0.429261 3.77819
-0.221202 0.11133 3.41272
-0.255234 -0.337806 3.85222
-3.50392 -11.4325 20.6935
-0.161339 -0.322651 3.84555
-0.170288 -0.0196911 3.50937
0.064522 -0.325223 3.9271
0.972475 -0.32589 4.49361
1.16946 -0.402722 4.26517
1.11789 -0.416598 4.563
-0.582157 -0.313431 3.89947
0.81482 -0.338656 4.05944
0.561345 0.110414 3.8011
0.948025 -0.102019 4.03331
-0.119696 -0.569713 4.58621
-0.786045 -0.342421 3.87486
-5.24251 -14.1622 21.2972
1.61329 -0.194338 4.00763
-0.211953 -0.475328 4.46416
0.492843 -0.252444 3.94243
-0.836562 -0.096181 3.58351
0.10893 0.0772241 3.33457
1.18033 -0.394136 4.25474
1.24491 -0.0127327 3.99719
1.47332 -0.125703 3.98617
-2.70663 -12.9025 20.8789
-3.17028 11.5588 10.0542
0.880136 -0.329219 4.05751
-1.49096 -0.428043 3.74328
0.209997 -7.72798 17.6112
1.06606 -0.268292 4.36488
1.46654 -0.17124 4.03383
-1.43796 -0.329546 3.65042
1.12735 -0.314674 4.56009
1.17694 0.188291 4.13999
-0.152906 1.39311 2.33057
-0.954475 -0.190504 3.65554
-0.773493 -0.317456 3.82394
1.62154 -0.0429121 3.99438
-2.22892 -10.2735 20.304
-0.0944804 -0.466274 4.47686
1.18636 0.0106597 4.06327
-0.242975 -0.0248482 3.46454
-3.70387 -10.0708 20.3134
0.0175611 0.0916014 3.36909
-0.2688 -0.62753 4.62155
1.21808 -0.411113 4.42947
1.45116 -0.117536 4.00654
-0.575866 -0.435497 4.42443
1.18562 -0.30358 4.11085
1.5547 0.364211 4.22105
-3.23296 -9.03508 19.9253
-1.10019 -0.12375 3.67564
1.15366 -0.0356986 4.01427
-1.23877 -0.265366 3.91929
1.33894 -0.350001 4.06356
-0.677528 -0.190197 3.63762
-1.16576 -0.133276 3.7126
-0.66592 0.0249748 3.56091
0.895464 -0.320725 4.06918
-1.08567 -0.0881413 3.63723
-0.627409 -0.292702 3.8759
0.830291 -0.176159 3.99009
-0.689999 -0.320467 3.98336
-0.289371 -0.51025 4.50536
-0.887357 -0.35127 3.96073
-2.0262 0.436579 17.4349
-0.667289 -0.339559 3.93322
-1.53108 -0.440333 3.81977
-2.73409 -10.5733 20.3283
1.35908 -0.340481 4.06356
-0.260145 -0.527137 4.42093
-1.78962 -11.8414 20.7383
0.879675 -0.321744 4.05266
-1.31736 -0.403322 3.76078
1.17849 0.138379 4.12134
1.21314 0.171322 4.1116
-1.1709 -0.0901068 3.6146
-0.0738075 -0.125005 3.68438
-1.25896 -0.312783 3.75222
-0.517569 0.0305671 3.52125
-0.820694 -0.412126 4.12988
0.0631343 -0.235255 4.42722
-0.396616 -0.320499 3.86677
-0.628902 -0.340242 4.01606
1.63003 -0.0489401 3.97558
-0.19424 -0.0209693 3.50671
-1.0394 -0.211332 3.74271
-1.20991 -0.189231 3.8885
-0.232249 -0.339289 3.88278
-0.554715 -0.328722 4.08427
1.61723 -0.138371 3.98188
1.05077 -9.17486 15.876
-1.08244 -0.101422 3.6565
1.23823 -0.240606 4.09436
-1.08979 -0.0228197 3.61842
0.107745 0.0204433 3.4167
0.123144 0.0200385 3.40663
-0.522566 -0.16869 3.67843
1.25907 -0.385055 4.13786
-1.37518 2.08021 16.7943
-1.25391 -0.147023 3.59497
1.25829 -0.0939342 4.03694
-0.180355 -0.145176 3.71
-0.974555 -0.16287 3.65435
-0.31098 -0.389814 3.97137
1.56793 0.185865 4.11788
2.37085 -0.116691 4.2548
-4.22586 11.8077 10.2844
-1.38162 -0.367697 3.69862
-1.39297 -0.377076 3.76394
-0.396756 -0.213703 3.80189
-2.41274 -13.9692 20.9376
1.26421 -0.168831 4.05254
-1.40704 -0.345417 3.67355
-0.538314 -0.1906 3.66819
1.39937 -0.106492 4.02954
-1.39958 -0.379972 3.67097
1.14337 -0.383402 4.32098
-0.637655 -0.258442 3.80508
-0.18104 -0.502304 4.59781
1.49484 -0.140086 4.00036
0.675279 1.23824 2.74824
-0.243332 0.000520934 3.49586
1.33599 -0.230911 4.03295
-3.4385 11.6218 10.2224
-0.237142 0.0455271 3.44527
1.32529 -0.0665453 3.96453
0.638578 -0.209892 3.99039
0.0614996 0.0701833 3.36143
0.859851 -0.327506 4.05692
-3.29049 11.5456 10.1091
1.21735 0.0886596 4.04176
1.29689 -0.06402 3.99655
-0.211729 -0.332223 3.86324
0.138804 0.0160621 3.38166
-0.38192 -0.175393 3.71249
-0.600028 -0.358902 4.07385
-1.01066 -0.209987 3.68062
-0.896187 -11.9687 20.6377
-1.36748 -0.368993 3.78067
1.78076 -0.10966 3.92155
-0.127325 0.0626919 3.37248
-3.47499 -13.3968 20.7658
-0.612291 -0.33154 3.92573
-0.600701 0.0850744 3.55519
-0.59584 -0.337773 4.08371
1.08455 -0.273419 4.20872
0.252133 -0.529213 4.57029
-0.598072 -0.329622 3.95362
-1.11448 -0.0795966 3.61801
1.27434 -0.409679 4.496
0.230946 -0.354568 3.99178
-0.400285 -0.283332 3.82218
1.17455 -0.0683391 4.01536
1.47248 -0.162693 4.02248
-0.545053 -0.241134 3.81828
0.352781 -0.444869 4.62507
1.29701 -0.281855 4.08417
-1.44799 -0.39625 3.84381
1.59051 0.101718 4.00987
-0.276694 -0.415967 3.98001
-3.21415 -10.6296 20.3855
-0.779874 -0.347794 3.99444
-0.47249 -0.338875 3.91038
-1.21776 -0.233923 3.9603
1.14278 0.180542 4.12743
0.919721 -0.112669 4.05273
0.0217162 -10.9976 13.1882
-1.39191 -0.387803 3.79005
-3.47477 -11.1952 20.6106
-0.872151 -0.339263 3.93484
1.16169 -0.276059 4.14417
-1.17413 -0.117598 3.71147
-1.30556 9.0397 6.3435
1.17732 -0.396202 4.26254
-1.41389 -0.385613 3.70186
1.44925 -0.132199 4.02894
-0.448108 0.0177301 3.54115
-1.15359 -0.268015 4.05223
1.17297 -0.40275 4.34687
1.56181 -0.36422 4.19045
1.18048 -0.413778 4.30606
-0.155429 -0.61018 4.58802
1.12766 -0.408407 4.58204
0.563061 -0.243988 4.60078
1.09763 -0.309728 4.66142
-0.0144278 0.00848013 3.4335
-5.19077 -11.9194 20.9104
1.10706 -0.323365 4.38021
-1.29422 -7.54513 19.3868
-0.521785 -0.352003 3.95997
-2.13026 -13.5205 21.004
-0.458152 -0.0197844 3.58666
-0.433853 -0.382418 3.98208
-5.0314 -12.3594 20.9277
-0.401303 1.37358 2.39588
-0.152392 0.0817567 3.38413
-0.112197 -0.600459 4.73988
1.64451 -0.381639 4.11246
1.50089 -0.359867 4.21413
-1.43239 -0.348436 3.84815
1.32089 -0.0270461 3.97445
1.16002 -0.369509 4.37462
-0.484703 -0.0536067 3.56764
1.58957 -0.394006 4.13985
-0.279616 -0.41155 4.19034
-0.25852 -0.565358 4.6385
1.0663 -0.241414 4.04246
-0.192602 -0.187912 3.78917
-1.2576 -0.331954 3.7998
-0.321235 -0.400111 3.99777
-1.53229 -0.317846 3.58519
-2.37774 -12.6041 20.9199
0.14019 0.0707353 3.38442
1.37293 -0.089223 4.02026
1.59963 -0.114146 4.03248
-0.528471 0.0167041 3.51887
-0.160102 0.0202449 3.44315
1.48128 -0.390771 4.78399
-1.9454 -7.54255 18.6704
-2.76767 -12.3672 20.8858
1.17727 -0.403301 4.22361
0.0105013 7.60802 7.87669
1.27372 -0.413434 4.4639
0.897704 -0.327386 4.07745
-1.07225 -0.282405 3.84056
1.56423 0.276797 4.10092
1.11195 -0.326161 4.61752
0.983883 -0.0592202 4.02859
-0.504049 0.0519145 3.52075
-3.62085 -0.399262 17.5897
0.975506 -0.069009 4.03392
1.28006 -0.398221 4.53217
-1.30435 -0.36931 3.7543
-0.754424 -0.20818 3.70533
-0.225434 -0.5094 4.39921
-0.84896 -0.196829 3.65225
1.11325 -0.286814 4.1637
1.28723 -0.203159 4.06356
-2.19344 -6.10324 19.4127
-1.47496 -0.418508 3.79391
1.49495 -0.0329511 4.02759
-0.443916 -0.316645 3.86334
-0.497596 -0.24523 3.83444
-1.21251 -0.151795 3.69073
-0.435014 0.00834403 3.55575
-3.66551 -15.3407 21.4186
1.29916 -0.384726 4.16145
-0.00536257 -0.54825 4.53195
-0.422558 -0.216467 3.82428
-1.22082 -0.312197 3.76757
-1.41052 -0.364915 3.66014
1.19598 0.142681 4.07469
-0.832153 -0.245327 3.71632
1.6183 -0.142368 3.96592
-0.168531 -0.447824 4.25755
-3.06479 -10.5547 20.4365
-1.41994 -0.413201 3.7417
1.16011 -0.394167 4.66038
-1.3257 -0.198908 3.59127
1.85615 -0.199206 4.09376
1.57719 -0.303763 4.12103
-1.28283 -0.381211 3.76856
-0.532973 0.173215 3.82431
1.0338 -0.328909 4.56549
-0.342996 -0.361582 3.89008
1.12575 0.0415952 4.03221
-0.945655 -0.152058 3.62315
1.22771 0.292309 4.24079
1.20625 -0.334085 4.04009
1.17336 0.127078 4.09469
0.70549 0.154216 3.69641
1.44601 -0.0263917 4.00487
1.21747 -0.129701 4.01812
0.118802 -0.408193 4.52378
-5.03279 -13.6386 21.3718
-4.35265 -10.6748 20.6409
0.259089 5.86567 -5.99735
-0.16063 -0.56716 4.60621
-0.674285 -0.269176 3.80645
-0.146165 -0.153626 3.71131
0.444948 0.102861 3.57616
-0.581366 -0.2555 3.84194
-0.690242 -0.276748 3.82624
0.0716698 0.0276767 3.46706
0.37253 -0.373622 4.22929
-1.17539 -0.152809 3.77534
-1.21074 -0.230991 4.12124
-1.03977 -0.25329 3.80226
0.377251 -6.79132 17.5812
-0.482344 0.0187591 3.53217
1.12162 -0.314 4.36108
1.16704 -0.408364 4.4553
1.24585 -0.146243 4.03174
-5.34459 -10.3301 20.1928
-0.762217 -0.323006 3.83754
8.25962 8.23134 -5.50005
-0.0579117 -0.0094035 3.56879
-0.277949 -0.53561 4.4321
1.23504 0.145472 4.10327
1.30382 -0.39808 4.15019
-0.545566 7.51253 7.64614
-0.0326692 0.021776 3.40493
-0.165246 -0.627997 4.68302
1.17819 0.13608 4.08005
-0.586173 7.47569 7.78074
0.411875 -0.384913 4.11465
-0.291225 0.00953265 3.47818
-0.681219 -0.314816 3.91748
-0.51653 -0.489065 4.49802
-0.241302 -0.584448 4.67473
0.957842 0.187888 3.95456
-0.387459 10.186 5.69681
1.31954 0.19757 4.17616
-1.06388 -0.230952 3.78201
-0.540414 0.123543 3.58506
-0.246399 -0.183438 3.73284
1.33423 -0.337701 4.0574
-0.325553 -0.348692 3.90616
-0.158512 -0.0502609 3.4248
1.09169 -0.417847 4.48701
-0.621738 -0.326872 4.25437
-0.850599 -0.0460197 3.58827
-1.16185 7.60239 7.52497
-6.01929 -9.61899 19.9582
-0.165904 0.0769358 3.4027
1.28571 -0.321042 4.08902
-0.691372 -0.19551 3.6256
-1.38037 -0.368884 3.81621
-1.14574 -0.202355 3.83033
-0.782062 -0.349555 4.03714
1.31001 0.0671354 4.01808
-0.137971 -0.579703 4.69095
1.32035 -0.447122 4.43619
-0.527774 -0.232129 3.81267
-0.682066 -0.41725 4.34755
1.0781 -0.324516 4.51035
0.0862463 -0.350858 3.9603
-1.21066 9.02879 6.35175
1.6166 -0.0599668 3.97059
-6.83252 -16.6406 21.6989
1.1353 0.126878 4.08999
-0.216093 0.00215526 3.44359
1.57298 0.138235 4.08652
-1.38482 -0.335311 3.65522
-1.15572 -0.123337 3.65554
-1.43286 -0.354347 3.64497
-0.20477 9.04938 6.55482
0.00554207 0.0355907 3.40286
-3.02673 -10.2282 20.51
-1.21103 -0.241427 3.95619
-0.409076 9.00905 6.51222
-0.0494264 -0.615695 4.71074
-0.786678 -0.357226 3.97498
-0.234079 1.42118 2.63077
-1.46222 -0.384829 3.64882
1.34132 -0.0819078 3.99035
-1.06511 8.94708 6.42891
1.10716 -0.388118 4.58599
-0.159497 -0.460877 4.3288
0.333893 -0.500769 4.5881
1.44342 -0.23285 4.05424
1.54986 -0.465625 4.21106
-1.24782 8.74893 6.60654
-0.209535 -0.0044495 3.64159
1.07444 -0.331661 4.51963
1.31703 -0.0620104 3.9674
5.03106 6.10766 -5.22862
-0.35898 0.0432692 3.48311
-0.265715 0.0357876 3.44278
1.10299 -0.314786 4.31351
-0.878223 -0.378564 4.05914
-1.05013 -0.0857627 3.63989
1.25919 -0.0874237 4.02315
0.742315 0.141907 3.80748
-0.0412788 0.0643119 3.31123
-0.888428 -0.384705 3.99193
-0.071179 7.52445 7.8398
0.000969784 -0.594476 4.59035
-0.56852 -0.330445 3.98983
-0.678515 -0.342567 3.95149
1.21027 -0.366571 4.03806
0.127257 0.0379617 3.45753
-1.06515 0.000872789 3.63192
-1.01684 0.0419545 3.64184
1.23786 -0.345925 4.65845
1.2508 0.29677 4.2159
-0.447387 -0.347637 3.87811
-0.155541 -0.296094 3.85373
-0.493566 -0.318262 3.86465
-1.19383 -0.126258 3.71425
0.314731 9.41773 6.31964
1.13434 -0.120613 4.75834
-0.885917 0.445712 3.04229
-4.21937 -11.4799 20.8068
1.488 -0.167224 4.02199
1.48883 -0.363084 4.19065
1.0755 -0.268155 4.27996
1.28157 0.114403 4.04605
-0.700275 -0.314262 3.8968
-0.492358 -0.00185607 3.58134
-0.402381 0.0134008 3.52033
-1.28023 -0.354455 3.78182
0.398679 0.102769 3.51442
-0.224478 0.130592 3.43687
0.659585 1.32358 2.77408
1.49283 -0.136703 3.97628
-0.00926254 -0.399369 4.05351
-1.66249 -0.266626 3.70735
1.23121 -0.163352 4.04982
-0.958406 -0.367145 4.0019
-1.4284 1.54598 16.8596
-0.180291 -0.480013 4.3824
-0.832857 -0.309814 3.83343
1.5062 -0.180476 4.00837
-1.16302 -0.140675 3.76127
-0.280633 -0.579093 4.64141
1.31123 -0.458657 4.46797
1.20742 -0.103345 4.02969
1.05662 -0.359194 4.61064
1.23678 -0.420216 4.35836
-1.42331 -0.398697 3.69441
0.119198 -0.317308 3.92342
-0.114694 0.121619 3.38986
-2.04748 -11.4899 20.615
0.0399579 0.017367 3.4732
-0.550532 -0.0510564 3.5819
-0.0512264 -0.533389 4.57752
-0.998781 -0.210691 3.66999
0.230543 7.71774 7.48904
-3.01104 -10.5049 20.4386
1.58285 -0.20861 3.9735
1.58958 0.0688523 4.00271
1.22662 -0.0582001 4.02546
-0.771512 -0.232015 3.7049
-0.351272 -0.00878597 3.4963
1.58087 -0.218726 4.07626
0.311702 0.0696241 3.45863
-0.162402 -0.314149 3.84652
1.28944 -0.388804 4.19159
-1.3083 -0.36985 3.79753
-3.22471 -8.07499 19.7102
-0.50416 -2.42598e-05 3.54436
-5.14032 -4.74096 18.8824
-0.794926 1.33636 2.58457
-0.719136 -0.133904 3.6335
-5.27068 -6.60494 19.5935
-3.49523 -11.9981 20.7857
-0.60996 -0.0487942 3.55732
-0.784509 -0.0880959 3.58781
-1.07621 -0.0266755 3.62874
-0.106098 0.133615 3.41633
-0.160802 0.0175811 3.473
-0.12899 -0.566928 4.64701
1.18599 -0.414899 4.31666
1.42557 0.155109 4.74525
0.935914 -0.13175 4.69397
1.34597 -0.448707 4.50546
0.0617309 7.50851 7.93575
1.54343 -0.5294 4.51744
-0.0684173 -0.00710281 3.45978
1.44691 -0.333096 4.12969
1.16676 0.169951 4.13325
1.10476 -0.156437 4.72493
0.627623 1.09251 2.72068
1.30665 -0.399805 4.48757
-3.93799 -0.550917 17.6221
-1.32257 -5.16107 18.6633
1.12034 -0.32429 4.24467
1.22895 -0.250908 4.06
-3.2846 -8.07823 19.6011
1.61018 -0.288402 4.06495
1.30051 -0.0999701 4.01289
-0.573182 1.4008 2.49442
-0.175434 1.40421 2.71462
-5.22074 -14.8545 21.4438
-0.151868 -0.533067 4.56016
-0.684936 -0.300228 4.05238
-0.655529 -0.304196 3.86762
1.58732 -0.166971 4.06192
-0.287163 -0.540527 4.44922
-0.64875 -11.6499 19.3304
0.126406 0.0564652 3.38303
-0.838032 -0.355888 4.00734
-1.17125 -0.19281 3.84165
1.53391 -0.519082 4.56791
-1.15205 -0.111128 3.64724
1.12319 -0.328433 4.58387
1.14822 -0.346239 4.05679
1.27888 0.0955133 4.00915
1.11215 -0.309115 4.288
-0.211955 -0.328374 3.87211
-0.411697 0.0424464 3.49664
-3.29958 11.5799 9.97711
0.670713 1.37209 2.78777
1.30542 2.16541 13.6212
-0.84082 6.59811 8.29298
3.10915 0.694242 4.17823
1.47868 -0.165438 4.02254
1.33565 0.0740726 4.04035
-0.718176 7.82007 7.30256
-0.711157 -0.298864 3.83448
-1.10446 -0.0297812 3.61871
0.103926 -0.603317 4.64311
-0.434935 -0.32847 3.83787
-1.19568 -0.241579 4.05247
-0.671694 -0.271304 3.82053
-1.8221 7.77992 8.22133
-0.54399 -0.0206507 3.55282
-3.99565 -11.5328 20.7249
-0.157588 -0.0445527 3.53671
-0.259915 -0.601624 4.57718
-0.663134 -0.318517 3.89553
1.22504 0.0970388 4.04115
1.47975 0.354771 4.55608
-1.17215 -0.0846294 3.61385
-1.17316 -0.197294 3.83605
1.18513 0.235764 4.21482
-0.782793 1.33268 2.59454
1.38091 -0.380485 4.45414
-0.653418 -0.267763 3.80958
-0.100893 -0.578975 4.58754
1.11006 -0.311358 4.37392
1.36116 -0.0576758 4.02635
-0.568821 0.0610715 3.54444
-2.65802 1.12538 17.1162
-0.710005 0.0536551 3.56801
1.16879 -0.0486642 4.01811
-0.00385407 0.0938558 3.3339
-1.21015 -0.121695 3.60446
-0.273725 -0.57916 4.51419
-5.30271 -13.9946 21.3835
-0.325367 -0.394137 4.02923
0.465807 -0.334537 3.9816
1.11081 -0.324959 4.30047
-2.15795 9.10236 7.08283
1.45169 -0.42846 4.24818
-2.34036 0.347683 17.4258
0.316018 -0.338422 4.03627
1.45012 -0.332546 4.15005
-3.4729 -9.24242 20.1534
-0.795656 -0.320951 3.8112
-1.37264 -0.38618 3.68818
-2.98 -6.03833 19.3383
-0.718943 -0.226177 3.75207
-1.04736 -0.26601 3.80102
-0.962336 -6.07716 19.5011
-0.478554 -0.363896 3.92967
1.22091 -0.345224 4.46061
-0.0235347 -0.473594 4.55274
-0.079809 -0.612274 4.66195
-1.19953 -0.185656 3.9365
1.30334 -0.431336 4.51013
0.205466 8.12759 7.15033
0.984778 -0.277806 4.02469
-0.215344 8.47499 7.19601
-0.783936 -0.356663 3.99553
-0.160908 -0.309445 3.85771
-0.312288 -0.412097 4.16997
-0.590607 -0.282283 3.84174
-0.330372 -0.405266 4.17462
-0.696797 -0.298825 3.86383
0.998856 -0.143012 4.70619
-0.504242 -0.328164 3.92675
0.325657 -0.556304 4.58911
-0.293205 -0.536138 4.44547
8.08218 10.2941 -6.08847
1.17422 -0.358046 4.12547
-1.94922 -11.2308 20.6726
-0.965307 -0.254419 3.87013
-0.0957742 -0.58984 4.71567
-1.11429 -0.0536478 3.60157
1.81909 0.143088 4.08224
1.50611 -0.567157 5.72061
0.917707 -0.331227 4.0734
-0.518093 -0.0241001 3.56207
-4.51286 -11.4765 20.393
-0.244315 0.0834129 3.42352
1.41237 -7.57763 14.1084
-0.387328 0.0365563 3.48228
-1.22214 -0.221013 3.85087
1.3319 -7.98515 14.4474
-0.41609 0.0288185 3.49954
1.26397 -0.364678 4.10623
-0.427104 -0.379678 4.05499
-0.174611 -0.323798 3.85449
-5.18624 -12.4019 20.9004
1.19079 -0.0692816 4.03987
0.857097 -0.336431 4.10111
1.61191 -0.0447656 3.96937
8.42826 10.2848 -5.64261
-5.61699 -12.4389 20.8642
-5.21921 -4.14901 18.3368
-1.12615 -0.271553 3.85596
1.62507 -0.117357 3.98745
-3.35596 -12.4103 20.8641
1.12473 -0.300974 4.22435
1.61674 -0.218762 4.03617
-0.950651 -0.131215 3.61051
-0.169991 -0.606337 4.56348
1.30103 -8.39444 14.6334
1.56768 -0.358806 4.07523
-1.43883 -0.346935 3.63148
1.56479 -0.227036 4.06347
1.59455 0.0821503 4.00336
1.6552 -0.319638 4.09924
-0.658988 0.0755281 3.60872
0.470193 0.154298 3.56669
-0.516178 -0.200491 3.68399
-0.270537 8.35 7.02455
-0.959409 -0.152785 3.62253
1.03906 0.223781 4.03952
1.205 -0.25343 4.08649
1.1149 -0.293738 4.1502
-1.48356 -0.361082 3.61572
-0.857686 -0.294502 3.77494
-3.08146 0.95163 17.0733
-0.641328 -0.0280117 3.53796
-1.16533 -0.13956 3.74868
-1.17117 -0.130966 3.7524
0.680321 -0.283981 4.0614
1.16369 -0.394392 4.56065
1.29452 -0.374388 4.0386
-0.642724 -0.351052 3.98624
-0.606638 -0.261657 3.80115
-1.5636 -0.432796 3.70545
-1.4632 -0.394706 3.7941
-1.05578 -0.0318346 3.64287
-1.55911 -0.441138 3.71276
1.16973 -0.671958 4.38301
1.09864 -0.324617 4.51921
-0.974248 1.80668 16.7618
-0.264424 -0.325589 3.86633
0.0815428 -0.334391 3.92465
-1.09843 -11.8187 20.681
-0.742101 -0.217715 3.63281
1.29778 -0.119811 4.01978
-3.40024 -4.88386 18.8807
-3.16331 0.758806 17.1246
-4.41505 -4.04753 18.9791
-3.53068 0.728376 17.1948
-0.866267 -0.276063 4.01327
-1.7864 1.02817 17.1289
1.58342 0.0541522 4.06174
-0.209217 -0.468797 4.46671
1.10017 -0.308786 4.17765
-0.649466 -0.347437 3.97871
-0.838193 -0.134292 3.61359
-0.193681 -0.572122 4.55531
-1.47426 -7.05589 19.5726
-0.149366 -0.442662 4.39742
-1.44773 -0.369777 3.64302
3.26568 0.153539 18.4353
-0.578259 -0.26491 3.76928
1.61182 -0.234705 4.03135
1.08099 -0.327181 4.32004
-0.520326 7.71237 7.39358
0.0140616 0.100694 3.31669
-0.762728 -7.23549 19.7147
-3.80293 -10.2924 20.2487
-1.24963 -0.316616 3.75904
-1.62029 -0.325067 3.62903
1.53693 0.121332 4.03005
-0.617743 -0.1274 3.69753
1.59108 -0.335432 4.08602
-2.85148 0.658094 17.2066
-1.43076 -2.89694 16.505
-0.724183 -0.0660586 3.51983
-3.87387 -9.43801 20.1883
1.38345 -0.0694234 4.01727
-0.210191 -1.61251 15.6477
-0.231222 -0.183257 3.72672
1.75081 -0.345794 4.07181
-1.15773 -0.131799 3.61695
1.49715 -0.331358 4.82516
1.23663 -0.400046 4.30848
0.736825 -6.99046 16.9722
-1.17774 -0.273769 3.99512
1.15558 -0.310978 4.17569
-0.27928 0.00456942 3.50659
-0.0519631 -0.623862 4.6551
-0.919273 -0.355502 4.00493
1.50609 -0.180255 4.02771
0.276048 -0.547421 4.6436
-0.0635797 1.39477 2.74239
0.4077 0.0953321 3.50616
-0.449393 0.0481361 3.49443
0.986127 -0.0788094 4.05954
-1.4559 -0.396726 3.84726
-0.185182 -0.0687497 3.50147
-0.39939 -0.0195985 3.49712
-0.630228 -0.0197074 3.53384
-0.595775 -0.0599429 3.53275
1.51893 -0.206461 4.06243
0.985011 0.100423 4.08991
0.944733 -7.54127 16.5331
-0.925267 -0.222104 3.66467
-5.76895 -14.5558 21.4157
-1.46005 -0.397565 3.8784
-0.601719 0.00214181 3.54117
0.379948 -0.459343 4.59592
-4.04872 -9.38248 20.2723
-0.832039 -0.371852 4.08033
0.971419 0.210277 3.92899
-1.39277 -0.385286 3.8147
1.29797 0.000925765 3.96132
-0.61884 -0.329087 4.04572
0.423048 9.40525 6.14034
-0.0461173 9.23906 6.25158
1.17927 0.0252326 4.03618
-0.15346 -0.351158 4.26806
-0.479473 9.01095 6.55814
-0.4025 8.84761 6.63104
1.28026 -0.0354135 3.9903
-1.1506 -0.133475 3.74585
-0.869917 -0.105012 3.59096
1.24014 -0.0542955 4.03051
-0.745678 -0.161835 3.62652
0.843776 -0.206666 4.0629
-1.00468 -0.187759 3.67052
0.00528153 -0.40258 4.05835
1.22835 -0.263638 4.06713
0.656217 9.61308 6.13601
1.28324 -0.325026 4.04841
-1.26728 -0.317038 3.74501
-0.225153 -0.0056867 3.45397
-1.29902 -0.348209 3.71508
-0.615655 -0.331784 3.89325
-0.0125839 8.38839 7.02567
0.0785155 -0.581121 4.68983
-1.10049 -0.0552767 3.64907
-0.790675 9.3561 6.0778
0.883334 -0.329648 4.08591
-0.964072 9.26243 6.23094
0.654639 1.38067 2.80846
0.327092 0.0487413 3.46316
-0.666796 -0.402595 4.14288
0.582683 0.139241 3.60181
-0.840683 8.83425 6.58951
-5.39218 -15.0253 21.389
-0.679429 -0.296711 3.88589
-0.553736 -0.0448519 3.5605
-0.0851401 -0.111401 3.64347
-0.0124361 0.0319929 3.70741
-0.235472 -0.401375 4.13454
-3.56537 -10.3791 20.207
1.30989 -0.0943902 4.01316
1.17149 0.274083 4.19279
-0.614621 -0.286431 3.84574
1.31673 -0.309695 4.05821
-0.274563 -0.590384 4.45644
0.595713 -0.381616 4.13862
-0.940047 -0.364677 4.01605
1.31674 -0.444848 4.45754
-4.14989 -15.2358 21.376
1.59785 0.0289564 3.99712
0.0333582 0.115702 3.33133
1.2604 0.0900507 4.02183
-1.19743 -0.135332 3.66611
0.99064 -0.299482 4.19811
1.14894 -0.402647 4.23986
0.255718 0.0445586 3.4008
1.10962 -0.302285 4.36765
1.09445 -0.272497 4.47941
0.62245 0.117288 3.608
-0.65549 -0.309539 4.01938
0.440873 9.40012 6.28244
-1.07171 -0.0185986 3.62906
-0.861893 -0.364586 4.05013
-0.196502 -0.326385 3.87189
1.23967 -0.120909 4.01797
-1.00076 0.0579062 3.64744
-0.879161 -0.131621 3.60868
-0.431684 -0.429319 4.30094
-1.29191 -0.343238 3.78409
-1.0828 -0.208973 3.7653
-0.781419 1.29152 2.67783
-0.233261 9.522 6.06769
-0.892573 9.4026 6.0502
-1.47799 -0.429238 3.82529
-0.924039 9.32978 6.13909
-1.07668 9.25303 6.14991
0.507148 -9.81668 13.0226
-0.494658 0.0670524 3.53644
-0.813276 9.04966 6.33154
-1.0857 -0.166021 3.68078
1.20186 -0.395772 4.2441
1.59542 -0.371541 4.1054
-6.55918 -15.1107 21.4874
-1.00481 9.02571 6.39008
0.0226459 0.0242179 3.51329
1.63964 -0.130922 3.95175
1.16547 0.0909339 4.07772
1.44785 -0.208463 4.05743
0.214981 1.35948 2.94603
-5.39022 -4.06405 18.7965
-1.63597 -0.232104 3.65792
-1.10459 -0.0757237 3.6468
-0.37644 -0.368445 4.17074
1.21065 -0.284154 4.08206
-0.105002 -0.329231 3.88175
1.61416 -0.242309 4.039
0.288013 0.0693909 3.44437
1.11521 -0.353184 4.56151
-5.48127 -13.4204 21.2961
-1.36731 -0.392674 3.74259
0.48647 -0.460367 4.66439
-0.465994 -0.19224 3.6917
1.09982 -0.35559 4.51015
-0.222305 0.0713148 3.43942
0.0613371 0.0569215 3.34931
-0.650497 -0.163761 3.64126
0.027093 -0.572626 4.63277
-0.244051 -0.62534 4.62183
-3.32368 -12.5071 20.7576
1.27935 0.0640505 4.01382
-1.23489 -0.31657 3.80572
-0.444114 -0.313522 3.86521
-0.140038 -0.570141 4.5046
0.997378 -0.365912 4.41147
-0.389738 -0.396909 4.03292
-1.40242 0.647459 17.1976
-1.42749 -0.366444 3.69493
0.0747515 0.0113012 3.43043
-0.752475 0.163674 3.73682
-0.254043 9.11209 6.50773
-1.08232 -0.116322 3.65319
-0.366229 0.0704151 3.47286
1.5838 0.225319 4.0805
-0.792181 -0.347054 3.91535
1.28212 -0.414319 4.52326
-0.083834 -0.193741 3.78394
-0.170412 -0.612671 4.67367
1.19022 -0.200287 4.02506
-0.832586 -0.352166 3.9221
1.28243 -0.329323 4.04045
1.29816 -0.366439 4.05932
-0.830701 -0.275794 3.7682
-4.08884 -11.027 20.8656
1.25641 -0.427273 4.17273
1.07241 -0.261865 4.16633
-0.599276 -0.311502 3.87421
-2.52315 -9.88174 20.2589
0.48247 -0.458344 4.62367
1.197 -0.099869 4.02382
-0.570522 -0.307676 3.90077
-0.0832127 -0.339298 3.86858
-0.104939 8.72539 6.81647
-1.22535 -0.23069 3.7922
-1.31261 -0.360826 3.77373
-0.673933 -0.326952 4.03066
1.61697 -0.11091 3.96935
-0.457007 -0.527054 4.48564
-0.0875661 -0.0698423 3.59276
1.34242 -0.355746 4.06062
-0.628694 -0.333454 3.91032
0.583454 0.138961 3.62544
-3.96508 0.809905 17.1084
1.00231 -0.295625 4.34381
-5.82801 -10.2788 20.2828
1.05781 -0.231469 4.67808
0.568161 0.13806 3.61681
1.16665 0.190445 4.1329
-1.17876 -0.209673 3.9288
1.61591 -0.0580096 4.00656
1.23122 -0.119461 4.03195
-1.41969 -0.407179 3.75557
-0.516299 -0.370587 4.11976
1.38688 -0.391005 4.19324
-0.464848 -0.012345 3.54078
-0.0539729 -0.617332 4.6791
2.41634 -0.0593004 4.26447
-1.1079 -0.0282279 3.61639
0.383208 -0.456151 4.58933
-1.1066 9.04391 6.32945
-0.37421 8.77002 6.7003
-0.76676 -0.333461 3.89978
0.279837 -8.24026 17.5722
1.2575 -0.0493051 4.01383
1.17707 -0.100686 4.01768
-1.18258 -0.15796 3.67821
-0.630945 -0.288021 3.82631
-0.614764 -0.169942 3.77008
-0.605964 -0.202399 3.71013
-0.617213 -0.277075 3.80946
-0.359209 -0.321483 3.87254
-0.178495 0.191061 3.6806
1.13964 0.131086 4.07449
1.21667 -0.424419 4.37497
1.16712 -0.384962 4.23875
1.20643 -0.399808 4.26761
-0.832689 -0.361014 4.15193
-0.518615 -0.299285 3.85749
1.17004 0.175999 4.13878
1.25132 -0.259767 4.64462
-0.875764 -0.17545 3.61704
