-0.266803 -0.0176739 1.4394
-0.133497 0.0325091 1.53296
-0.15376 -0.0491902 1.44204
0.0772836 -0.822773 1.02932
-0.0153428 -0.850755 1.08426
0.0531686 -0.757994 0.808
-0.0470933 0.0502282 1.57005
-0.0223256 -0.796129 1.37093
-0.0323001 -0.785558 1.38959
-0.0678158 -0.786255 1.40295
-0.0406356 -0.773097 1.43306
-0.255581 -0.051079 1.41773
0.0172258 -0.0423369 1.49741
-0.0385467 -0.794932 1.38607
-0.00427167 -0.757344 1.41403
-0.0575081 0.0128319 1.52819
-0.0982321 0.035351 1.53931
-0.0631198 -0.840915 1.32836
-0.0320159 -0.807432 1.34199
-0.0127098 -0.798198 1.36629
-0.00978402 -0.770936 1.43951
-0.057091 -0.793178 1.43753
-0.0349193 -0.119404 1.43856
-0.0353067 -0.765859 1.41813
0.193657 -0.0321104 1.5979
-0.0545772 0.0324824 1.56327
0.242721 -0.0841005 1.56543
-0.163132 -0.0258335 1.44453
-0.152736 -0.00427008 1.47215
-0.0398814 -0.817917 1.33621
-0.0817936 -0.827371 1.39132
-0.215937 -0.809631 1.417
-0.124243 -0.840277 1.38146
0.178932 -0.0379586 1.57159
0.265503 -0.0354628 1.59694
0.234931 -0.0260057 1.68322
0.208654 -0.0257668 1.57918
-0.141788 0.00152136 1.47887
-0.210684 0.00778258 1.46141
0.178584 -0.0345594 1.58044
0.188051 -0.0330896 1.58388
-0.19197 0.0118849 1.51684
-0.181027 0.0182798 1.52918
-0.171677 0.0131602 1.53438
-0.0346043 0.0533466 1.57249
-0.160326 -0.0169678 1.54907
0.169977 -0.0202047 1.64751
0.172556 -0.020932 1.65264
0.232529 -0.00745677 1.67122
0.0800628 0.0144321 1.63182
0.13265 -0.0551984 1.68944
-0.144006 -0.0344058 1.44406
-0.0990691 -0.0324836 1.45674
-0.230428 -0.0424798 1.41993
-0.183609 -0.00795972 1.44362
-0.187422 -0.00597365 1.45036
0.0535147 -0.034157 1.52424
0.218713 -0.0270114 1.57215
0.141135 -0.0371075 1.55499
0.174829 -0.0444631 1.5698
-0.255199 -0.00252426 1.44525
-0.262688 0.00151952 1.44353
-0.142001 0.0113641 1.51421
-0.128754 0.0249071 1.53417
-0.0666634 0.0577394 1.56527
-0.0704765 0.0579935 1.56647
-0.158348 0.0058013 1.55016
-0.117153 0.0364439 1.55792
0.222369 -0.0121088 1.68512
-0.0433459 -0.0470691 1.46545
-0.142873 -0.0395176 1.44296
-0.166482 -0.0233783 1.4469
0.188652 -0.0595195 1.55492
0.164983 -0.076336 1.55961
-0.0449487 -0.0183392 1.51189
-0.15922 0.0155787 1.50509
0.229962 -0.0116556 1.62414
-0.178288 0.0158435 1.51194
-0.132607 0.0128367 1.52645
-0.02605 0.0423806 1.58052
-0.00903231 0.0524545 1.58902
-0.035195 0.0637802 1.58025
-0.0669317 0.0639854 1.57749
-0.0405715 0.0658666 1.58712
-0.159107 -0.0496194 1.44302
0.201413 -0.0288271 1.5789
-0.195109 0.0104132 1.47259
-0.105285 0.0288938 1.53516
-0.0344478 0.0449633 1.57126
-0.0447698 0.0658036 1.587
0.117608 -0.0197387 1.65523
0.151277 -0.05162 1.67514
-0.00351852 -0.79655 1.36408
0.187859 -0.069842 1.54968
-0.191 0.0158989 1.48873
0.0549856 -0.00949472 1.61157
0.204744 -0.0480793 1.56
-0.172081 0.00561303 1.477
-0.130643 0.0174345 1.52599
-0.078406 0.0285171 1.54061
0.189219 -0.0200226 1.65079
0.036218 -0.798277 1.4004
-0.192467 -0.00198375 1.44698
0.132471 -0.0409025 1.67539
-0.153083 -0.011036 1.47346
0.148797 -0.0518185 1.67828
-0.0103279 -0.12016 1.44762
-0.175099 0.0181917 1.53076
-0.152082 -0.0266029 1.44787
0.0526145 -0.0230963 1.54581
0.177919 -0.0277231 1.61304
0.102203 -0.0435874 1.54892
0.176386 -0.0204022 1.63718
0.185894 -0.162995 1.61696
0.269746 -0.177934 1.62932
-0.232006 -0.00367897 1.44215
0.112585 -0.0327853 1.57987
0.211655 -0.0405539 1.59119
-0.111041 0.0412115 1.53762
-0.0120736 0.055156 1.58506
0.246302 -0.0219649 1.69278
-0.168184 -0.0136512 1.46064
-0.0297911 -0.804678 1.34496
0.218774 -0.0239378 1.62459
-0.267828 0.00113448 1.45866
-0.0610422 0.0502801 1.56012
-0.0991876 -0.0353506 1.4553
-0.163839 0.023465 1.50582
-0.0160399 -0.0276292 1.49782
-0.137199 -0.0361132 1.45364
-0.27683 0.00550314 1.45225
0.23198 -0.0248814 1.62247
0.189146 -0.032655 1.60367
-0.00247258 -0.0302696 1.4999
-0.144281 -0.0260849 1.45607
0.155839 -0.0292482 1.63119
0.115879 -0.0338379 1.61369
-0.0620201 0.0738309 1.57083
-0.237992 -0.00239368 1.44561
-0.223361 0.00889803 1.46421
-0.0550028 0.0754565 1.54966
-0.28741 -0.0668289 1.40628
-0.261298 -0.0243125 1.4483
-0.108984 -0.0605102 1.45805
-0.250555 -0.0489311 1.43611
-0.179213 -0.0337499 1.44063
-0.075136 -0.0317308 1.47594
-0.264329 -0.18258 2.22245
-0.22792 0.0464024 1.50679
-0.177655 0.0511407 1.54913
0.0465971 0.0251375 1.63905
-0.210435 0.0426157 1.55147
-0.20981 0.042105 1.55531
0.0306061 0.0156548 1.63707
0.0226482 0.00694774 1.64863
0.0394685 -0.00708997 1.66635
-0.248215 0.051189 1.50536
-0.148894 0.0576954 1.57634
-0.149708 0.0555334 1.57788
0.0465752 0.0238479 1.63294
-0.0262317 0.0448655 1.63733
-0.162343 0.0254094 1.58807
-0.120237 0.0702199 1.60195
0.0338538 0.0134061 1.65102
-0.205756 0.0382975 1.56079
-0.119759 0.0144447 1.60029
0.0663843 0.00626057 1.67769
0.0220367 -0.00409252 1.65942
0.0652928 0.0252822 1.63056
-0.218919 0.0230359 1.55016
-0.117512 -6.15437e-06 1.48757
-0.157914 -0.0245898 1.45874
0.191047 -0.0398327 1.58839
-0.074658 -0.0518272 1.45457
-0.139231 -0.042861 1.44537
-0.23436 -0.0482233 1.42247
0.169949 -0.0902112 1.55719
-0.132069 -0.0382415 1.45418
-0.132358 -0.0239654 1.46735
-0.285131 -0.0076803 1.42984
0.136014 -0.0319897 1.60666
0.274416 -0.0131357 1.65975
0.163787 -0.0976425 1.55501
-0.134109 -0.0349576 1.45396
-0.059637 -0.0241816 1.48146
-0.061676 -0.0244333 1.48118
0.230085 -0.0292394 1.61347
-0.0566164 0.0192212 1.52998
-0.0521184 0.0742071 1.57457
-0.142691 -0.0441466 1.44435
0.172663 -0.0624421 1.56594
-0.188123 0.0185002 1.49644
0.0701316 -0.771543 0.852599
-0.0166099 -0.785743 0.823809
-0.0503352 -0.0972464 1.44764
-0.157951 -0.0690158 1.42559
-0.296306 -0.0405697 1.3793
-0.338408 -0.0326358 1.36694
-0.146962 -0.0329448 1.4473
0.104963 -0.0612768 1.5396
0.139539 -0.0583886 1.55881
0.0879208 -0.0517078 1.54506
0.197591 -0.0454513 1.6022
0.13976 -0.0396996 1.5991
0.184624 -0.0401043 1.61337
0.226893 -0.0316464 1.63272
0.136565 -0.0291327 1.609
0.187841 -0.0242735 1.62741
0.183615 -0.0225404 1.63595
0.2518 -0.0200015 1.65643
0.154773 -0.020964 1.62848
0.170071 -0.0164139 1.64518
0.174735 -0.0161044 1.64898
0.223053 -0.00354052 1.67713
-0.129298 -0.0669475 1.4362
0.265503 -0.103505 1.56858
0.269445 -0.0946902 1.57634
-0.223336 -0.0490436 1.42134
-0.141927 -0.0449155 1.44913
-0.027319 -0.0341376 1.48995
0.224428 -0.0680187 1.57984
-0.0667618 -0.0256199 1.48127
0.216212 -0.0672191 1.57991
0.0864723 -0.045747 1.55338
0.20268 -0.0194061 1.64198
0.249408 -0.0173732 1.65906
0.190567 -0.0193664 1.65034
-0.181051 0.0290392 1.51945
-0.142429 -0.0930899 1.42872
-0.139658 -0.0921035 1.4309
-0.142925 -0.0910284 1.43024
-0.279069 -0.0369998 1.39068
-0.220121 -0.0518575 1.42014
-0.278622 -0.0313198 1.39638
0.201085 -0.0730392 1.56603
-0.187854 0.0152952 1.49558
-0.161921 0.0180297 1.50638
-0.0156008 -0.135548 1.43537
-0.0258465 -0.134121 1.43342
0.18769 -0.10475 1.55446
0.192827 -0.0940468 1.55673
0.220702 -0.0706011 1.57665
0.184881 -0.0620171 1.58532
0.0684926 -0.804996 1.00531
0.191123 -0.0409237 1.58657
-0.0543667 0.0247773 1.52804
0.223898 -0.02084 1.6259
-0.169363 -0.0705021 1.43735
0.1888 -0.0337818 1.60517
-0.0275628 -0.821651 1.49735
-0.185066 -0.00168744 1.47428
0.285877 -0.0296759 1.67164
0.130485 -0.0254219 1.61223
-0.284997 -0.0373293 1.39406
0.166385 -0.0773404 1.56917
0.156107 -0.091369 1.5494
0.208026 -0.0568642 1.5875
0.230856 -0.0905396 1.57679
-0.0592425 -0.079537 1.45716
-0.248615 -0.0118712 1.44315
0.171897 -0.0850361 1.56512
-0.245641 -0.0390481 1.42591
-0.249789 -0.0126629 1.44392
0.174734 -0.115736 1.54535
0.277251 -0.0159225 1.68057
0.0816691 -0.0680732 1.52552
-0.116529 -0.0545097 1.44831
-0.000900225 -0.124271 1.45275
-0.19314 0.00260336 1.47239
0.104362 -0.0419032 1.57371
0.272716 -0.0561398 1.61683
0.24944 -0.0575828 1.58556
0.224348 -0.085215 1.5667
-0.0670462 0.0721435 1.57565
0.152156 -0.0510467 1.69368
-0.13044 -0.0496616 1.45161
-0.176571 0.0246436 1.50284
-0.155192 -0.0577116 1.43714
-0.0124992 0.0594846 1.58335
-0.14611 0.00449614 1.48179
-0.271768 -0.0131503 1.44496
0.184386 -0.0756507 1.55519
-0.0635232 -0.0321012 1.47167
-0.109896 -0.0293852 1.45975
-0.275553 -0.0296818 1.402
0.00960298 0.0151675 1.58727
-0.105793 0.0253208 1.53335
-0.171964 0.0075366 1.47014
0.263487 -0.0702873 1.56932
-0.144842 -0.0489444 1.44183
-0.1913 -0.0544857 1.42261
0.160536 -0.0461471 1.67862
-0.193883 -0.0045292 1.45336
0.16655 -0.104526 1.55482
-0.164651 -0.0343041 1.4411
-0.143464 -0.0398633 1.44585
-0.181557 -0.0502689 1.42618
-0.142655 0.0242717 1.50995
-0.188879 0.0214649 1.49248
0.210858 -0.0548789 1.56047
-0.139301 -0.0495601 1.44278
-0.173083 -0.0566918 1.42726
0.0317871 0.0455187 1.61322
0.217548 -0.0349521 1.58616
-0.196364 0.00795906 1.46902
0.147378 -0.0414374 1.55124
0.17466 -0.1037 1.54192
-0.177666 -0.0466942 1.43075
-0.276793 -0.0381859 1.39741
-0.275699 -0.0399236 1.39668
0.0209175 0.0484497 1.60449
0.0715855 0.0245611 1.62616
0.167698 -0.0246699 1.64965
0.167277 -0.0268283 1.62358
-0.17026 0.0338799 1.51107
-0.136966 0.0294743 1.5202
-0.0566399 0.0254693 1.53184
0.243399 -0.0305768 1.62683
0.196767 -0.037792 1.58654
0.209987 -0.0370106 1.58353
-0.149203 -0.0254679 1.45631
0.166161 -0.0945872 1.55597
-0.248119 -0.0486874 1.42334
-0.253447 -0.0683651 1.43301
0.0750261 0.0102828 1.62342
-0.0450881 -0.11969 1.47871
-0.153131 -0.0635962 1.45486
0.22625 -0.116192 1.57044
0.107825 5.21571e-05 1.6374
-0.175637 -0.0123302 1.46078
-0.309607 -0.0251608 1.37685
-0.307279 -0.04729 1.38239
0.0216758 -0.193141 1.4867
-0.0879635 0.0730096 1.54905
0.0506482 -0.180079 1.50387
-0.0300241 -0.203221 1.46727
-0.24885 -0.00808191 1.44671
-0.327089 -0.0173113 1.37037
-0.261179 -0.0389617 1.44194
-0.104643 -0.06043 1.45816
-0.262479 -0.0839914 1.4334
-0.16008 -0.080659 1.44907
-0.0580151 -0.159625 1.45907
0.185335 -0.13284 1.58429
0.228649 -0.124355 1.57867
-0.272839 -0.089951 1.43123
0.269737 -0.177411 1.60072
0.202292 -0.0996144 1.57695
-0.271497 -0.0323461 1.40337
-0.311587 -0.0522269 1.37816
-0.325826 -0.054894 1.36378
0.181132 -0.0982798 1.58208
-0.173668 -0.0990788 1.43825
-0.0496334 -0.148947 1.46507
-0.0514522 -0.149783 1.46764
-0.312012 -0.0143011 1.38342
-0.256718 -0.0184299 1.4462
-0.326375 -0.030487 1.3609
0.206888 -0.116199 1.57326
0.187548 -0.15636 1.58782
0.0876578 -0.179661 1.52943
0.00490972 -0.210886 1.47482
0.0711764 0.024902 1.63269
0.0490807 -0.0522187 1.66469
0.0259914 0.00657686 1.64918
-0.103818 0.0225804 1.61002
-0.135943 0.0419643 1.60116
-0.13382 0.0447601 1.60183
0.233372 -0.0173962 1.65617
-0.252302 0.00134628 1.501
0.0373507 -0.046886 1.50273
-0.0451091 -0.774552 1.41967
0.191312 -0.01788 1.64027
0.201168 -0.0339315 1.60541
-0.0173051 -0.127131 1.43784
-0.0672769 -0.785609 1.40808
-0.042596 -0.792256 1.38424
-0.0300913 -0.799921 1.36445
-0.0485237 0.0686412 1.58042
-0.0579654 0.0556534 1.57137
0.227371 -0.0263608 1.67376
-0.117306 0.0275701 1.53238
-0.165312 0.0185732 1.5035
-0.190082 0.0213273 1.49498
-0.0950227 -0.00323323 1.49651
-0.0978631 -0.0176108 1.47882
0.133302 -0.0392773 1.54898
-0.0575587 -0.0215638 1.48985
-0.125306 -0.0225087 1.46881
-0.277146 -0.0231352 1.38703
-0.0732042 -0.77975 1.42039
-0.0210812 -0.774088 1.42464
-0.00384632 -0.75598 1.40997
-0.0386751 -0.784442 1.38902
-0.0661084 -0.802731 1.3759
-0.014013 -0.798695 1.36397
-0.180072 0.0232958 1.50934
-0.249267 0.0025347 1.49413
0.122603 -0.0303028 1.59379
0.187546 -0.0350316 1.58435
-0.228105 -0.00161261 1.45223
0.0969281 -0.0421348 1.54456
0.13736 -0.0364825 1.55172
0.139299 -0.0397677 1.55228
-0.256212 -0.0484637 1.42596
-0.060409 -0.0253469 1.47629
-0.234494 -0.0355134 1.42391
-0.0929796 -0.033208 1.4582
-0.124643 -0.0390152 1.45021
-0.0115928 -0.811132 1.34669
-0.27166 -0.0384059 1.40668
-0.169676 0.029455 1.51258
0.188278 -0.0211121 1.63086
-0.176232 -0.0417847 1.44057
-0.0345439 -0.872078 1.42221
-0.0593045 -0.863488 1.40969
0.0902839 -0.0563014 1.56239
-0.000300051 -0.808812 1.35479
-0.0149256 -0.842087 1.05107
-0.0918516 -0.00264471 1.55275
-0.026809 -0.866948 1.42187
0.0181139 -0.84014 1.40667
-0.0680944 -0.846244 1.38323
-0.0112384 -0.840278 1.40649
0.0115272 -0.844943 1.41118
0.0234695 -0.817587 1.35637
0.0924326 -0.0586993 1.56023
-0.000398668 -0.867296 1.43031
0.0408154 -0.0597552 1.5622
-0.0524946 0.000143832 1.55908
-0.152684 0.0361034 1.53556
0.170102 -0.0263364 1.61369
-0.0291912 0.0588383 1.56756
-0.163558 -0.0343416 1.45099
0.0589307 -0.17842 1.50727
0.182707 -0.052029 1.58371
0.0639943 -0.171159 1.50922
-0.0332881 -0.025209 1.49623
0.21294 -0.0711035 1.56742
0.290172 -0.115018 1.58052
-0.229487 -0.810348 0.950682
0.140145 -0.881196 1.2087
-0.207593 0.0489253 1.53894
-0.209204 0.0462564 1.53833
-0.0673477 -0.863589 1.14387
-0.0612343 0.0247334 1.52792
-0.0704647 -0.861742 1.17936
0.154758 -0.0703573 1.68517
-0.123194 -0.0230803 1.45487
-0.0780891 0.0600926 1.55479
0.231979 -0.0265109 1.62367
-0.109067 -0.0135622 1.46767
-0.374407 -0.879758 1.27976
-0.0116684 -0.120452 1.44741
-0.316544 -0.894211 1.1011
0.236715 -0.679765 1.39668
-0.596087 -0.841637 1.73345
0.197583 -0.843252 1.45993
0.114971 -0.814255 1.36135
0.0955532 -0.861147 1.29068
0.0388693 -0.796575 1.39264
0.0343421 -0.824692 1.34849
0.120309 -0.827481 1.35411
-0.117612 -0.83182 1.2819
0.190529 -0.0251282 1.62225
0.185672 -0.0376568 1.57954
-0.0274348 -0.798329 1.36143
0.184194 -0.0319205 1.60584
-0.226889 0.00850507 1.46355
-0.0508295 -0.0139579 1.50955
-0.104162 -0.0164474 1.4759
-0.21661 -0.0490069 1.41892
0.0240817 -0.796102 1.38349
-0.0338983 -0.802253 1.35679
0.0284604 0.0453657 1.61337
-0.206819 0.0159325 1.50976
-0.0783528 0.0355033 1.54119
-0.24927 0.000838332 1.49712
-0.16813 0.022143 1.5028
-0.0801384 -0.00171839 1.50336
-0.174812 0.00743308 1.46955
-0.266843 -0.0356855 1.42424
-0.0581439 -0.0219117 1.47951
-0.0331931 -0.135598 1.43018
0.189032 -0.0672189 1.7143
0.145477 -0.0492536 1.66817
0.166612 -0.0269079 1.64509
0.19274 -0.0170962 1.63174
0.183553 -0.039264 1.58027
-0.155152 -0.0614262 1.4323
-0.0667254 -0.881568 1.09941
0.00264735 -0.873193 1.12712
0.0452408 -0.850959 1.11936
-0.035483 -0.865322 1.08074
-0.22665 -0.881981 0.991024
0.082181 -0.889864 1.20292
-0.166783 -0.872497 1.05503
-0.0572593 -0.760554 0.761218
0.24801 -0.45336 0.84236
0.0502413 -0.891079 1.18569
0.307471 -0.456724 0.855301
-0.215833 0.0441536 1.54469
0.0296735 -0.847619 1.14554
0.0663407 -0.851437 1.17518
-0.0175361 -0.815603 1.29664
-0.182188 0.00815084 1.47088
0.294618 -0.034161 1.61449
0.0676535 -0.817972 1.36923
-0.0825685 0.0591745 1.55892
-0.0702752 0.0588935 1.55715
-0.213802 -0.844031 1.3743
-0.193369 -0.848745 1.32904
-0.114658 -0.835494 1.30132
-0.129638 -0.820439 1.25579
0.231103 -0.0189223 1.6281
0.222269 -0.0778466 1.56416
-0.279454 -0.0148005 1.38824
-0.0480643 -0.0816961 1.45588
0.0394972 -0.81397 1.37566
-0.0179216 -0.817698 1.33255
-0.172902 -0.862106 1.22791
-0.142149 0.0316272 1.53575
0.188438 -0.0217308 1.64508
0.0365358 -0.127829 1.46594
-0.194716 -0.847707 1.37316
-0.184387 -0.854038 1.34937
-0.0526162 -0.825671 1.31539
0.0145603 -0.82684 1.27179
-0.173887 0.00591092 1.46379
0.203497 -0.03163 1.5762
-0.0909933 -0.0306131 1.45919
0.0632848 -0.830139 1.29022
-0.103161 -0.728461 1.89925
-0.0622215 0.0764623 1.57439
0.235034 -0.0201529 1.66975
-0.113671 -0.0159302 1.47844
-0.164026 -0.0221335 1.44425
-0.240918 -0.042914 1.42485
-0.252459 -0.0571792 1.41884
-0.0400803 -0.0369262 1.47509
-0.190781 -0.869272 1.31825
0.000675059 -0.80405 1.35282
0.0163977 -0.819967 1.34418
-0.147469 -0.829588 1.25945
-0.108051 0.0487809 1.56055
0.204641 -0.0395701 1.58852
-0.150692 -0.0197094 1.45592
-0.147307 -0.0230611 1.45682
0.0145047 -0.8085 1.35119
0.0094646 -0.809204 1.34834
-0.0274976 -0.821727 1.33321
0.00707223 -0.81917 1.3414
-0.00783468 -0.825847 1.32346
-0.0371746 0.071796 1.58464
-0.130698 0.0369647 1.53414
0.0764029 -0.0276547 1.55454
-0.0996092 -0.00138809 1.4969
0.178986 -0.0487044 1.57364
-0.143523 -0.0185378 1.47253
0.229611 -0.0548106 1.57153
0.183061 -0.0619187 1.55445
-0.121089 -0.0296425 1.45467
0.231739 -0.0742148 1.56426
-0.151159 -0.0451363 1.4404
-0.0262233 -0.797717 1.36607
-0.0289177 -0.80196 1.34874
-0.0112487 -0.803413 1.35042
-0.0212504 -0.824957 1.32428
-0.0479837 -0.818116 1.31577
0.0225191 -0.825618 1.27591
0.0381306 0.0416758 1.61637
-0.00800925 0.0593229 1.59263
-0.00528082 0.0578086 1.59049
-0.0857048 0.0530066 1.54955
-0.254979 -0.0490544 1.42605
-0.11944 -0.0281978 1.45786
0.167714 -0.0991119 1.55135
-0.288273 -0.015323 1.39626
0.0149387 -0.124801 1.45519
-0.000805616 -0.827754 1.32366
0.255654 -0.0132723 1.64324
-0.155378 0.0212536 1.50574
0.202483 -0.0432922 1.58643
0.192389 -0.041345 1.58271
0.228553 -0.0483389 1.57535
0.189804 -0.0582362 1.55679
0.192216 -0.0526383 1.55421
0.191901 -0.0621102 1.55492
-0.0633528 -0.0272659 1.47383
0.189911 -0.0669624 1.55167
-0.053208 -0.0326953 1.46875
-0.155716 -0.0488061 1.4397
-0.0231834 -0.133918 1.43521
-0.0304813 -0.138243 1.4305
-0.0231771 -0.80138 1.36307
0.00312143 -0.80597 1.34812
-0.0558863 0.0772254 1.58197
-0.0660899 0.074031 1.57493
-0.0298961 0.0607408 1.57398
-0.142658 0.0261544 1.52189
0.288109 -0.00390119 1.65328
-0.143231 0.0168631 1.51309
-0.0625514 0.00165285 1.51333
-0.083526 -0.00275278 1.50166
-0.101764 -0.00116909 1.49259
-0.137322 0.00113966 1.48157
-0.171821 0.0110076 1.467
0.236814 -0.0416901 1.58617
-0.298279 0.00759779 1.41959
0.190192 -0.0372257 1.56957
0.185921 -0.0480793 1.5631
-0.258535 -0.0542338 1.42224
-0.204817 -0.0266687 1.42924
-0.165865 -0.0310418 1.43985
0.169706 -0.113074 1.54975
-0.0659351 -0.0305981 1.46523
-0.310662 -0.00926649 1.37061
0.0520591 -0.118011 1.4869
-0.0389754 -0.12164 1.43575
-0.00443868 -0.136102 1.44337
0.0319204 -0.794894 1.40402
-0.0490364 -0.800458 1.36481
0.0307913 -0.805741 1.37319
0.135127 -0.0412639 1.67189
0.0569512 0.0318494 1.62456
0.0284588 0.0447861 1.61201
-0.0465608 0.0652135 1.57816
0.00448402 0.0570233 1.5937
0.145422 -0.0362577 1.65453
0.149336 -0.0405729 1.65464
0.157666 -0.0322528 1.65409
0.176379 -0.028478 1.65595
0.214732 -0.0258396 1.6254
0.217331 -0.0293769 1.62608
-0.262555 0.00638938 1.47185
-0.204061 0.01447 1.4799
-0.173864 0.00679471 1.48106
-0.20507 0.00101074 1.44851
-0.22992 -0.00172946 1.44168
-0.257418 -0.0469265 1.42849
-0.31159 -0.00115243 1.37747
0.252363 -0.101685 1.54982
-0.476569 -0.844045 1.42518
-0.216642 0.0099204 1.46373
-0.121798 -0.804177 1.57173
-0.556796 -0.951047 1.31103
0.196757 -0.765178 1.13531
-0.525871 -0.980607 1.39747
0.15314 -0.794368 1.11043
-0.546334 -0.989402 1.4045
-0.138643 0.0293557 1.55362
-0.129751 0.0412956 1.53368
0.192803 -0.0317572 1.60667
0.193145 -0.0187441 1.63084
-0.145269 -0.86959 1.08356
-0.014324 -0.860322 1.1319
-0.422898 -0.891861 1.17787
-0.144605 0.0242198 1.51754
-0.0948614 0.055492 1.56116
0.262696 -0.0270432 1.61571
-0.175837 0.0239668 1.52907
-0.186337 -0.0263123 1.43238
0.179517 -0.092359 1.549
0.154311 -0.0307871 1.65088
-0.264043 0.000419693 1.45337
-0.186865 0.00588525 1.473
-0.197943 -0.0165543 1.44027
0.257533 -0.0156107 1.64163
0.189155 -0.0427102 1.58326
-0.0754051 -0.0272019 1.47217
-0.143293 -0.0286407 1.45111
-0.267902 -0.0261229 1.40138
0.0276693 0.0355059 1.60791
0.234394 -0.0199777 1.6606
-0.0631195 0.0230215 1.5364
0.188111 -0.0301407 1.61308
-0.198558 0.00567864 1.46338
-0.084456 -0.0337457 1.46121
0.115189 -0.0129297 1.65314
-0.0302302 0.0684996 1.58599
-0.0343285 0.0682638 1.58474
0.0168043 0.0473687 1.60397
-0.0572979 0.0616559 1.57084
0.16115 -0.0262262 1.63278
0.243811 -0.0238342 1.64727
0.230725 -0.0313225 1.61786
-0.258709 0.00184819 1.46267
-0.2437 0.00352777 1.45756
0.121874 -0.0394139 1.56801
-0.0437776 -0.107153 1.44926
0.114275 -0.0098601 1.65341
0.224527 -0.0225374 1.68953
0.0755332 0.0211436 1.6302
-0.0183117 0.0635659 1.58952
-0.0538145 0.057195 1.56897
-0.0819916 0.054692 1.55458
-0.102729 0.0537922 1.54717
0.195256 -0.0192929 1.64454
-0.0910483 0.0411884 1.54308
0.17352 -0.0243423 1.63389
-0.184398 0.0212465 1.51271
-0.268343 0.0039449 1.46009
0.204105 -0.0359075 1.59793
-0.22212 0.00644279 1.46065
-0.127382 -0.000717841 1.48397
-0.0600713 -0.022259 1.48058
-0.354154 0.00508223 1.38861
-0.348879 -0.0174414 1.37672
-0.0134108 -0.772018 0.778675
-0.229485 -0.038987 1.43424
-0.351037 -0.129777 2.76422
-0.0632008 -0.0416268 1.47035
0.23326 -0.115296 1.57423
-0.103046 0.46386 2.15564
-0.133273 0.468772 2.14537
0.177648 -0.110141 1.57443
-0.0913421 -0.0971809 1.47111
-0.0719391 -0.176765 1.44773
-0.195693 0.501727 2.08867
-0.049635 -0.00716493 1.51096
-0.264472 -0.00950695 1.44091
-0.273295 -0.0356299 1.4015
-0.337015 -0.0456351 1.35985
-0.174467 0.495301 2.11947
-0.0601768 0.0181899 1.51248
-0.0573931 0.0116995 1.51038
0.0475338 -0.166255 1.50832
0.0331149 -0.186196 1.4841
-0.0139657 0.390005 2.15428
-0.103397 0.0430898 1.50782
0.148818 -0.0467119 1.55698
0.00718221 -0.76467 0.797405
-0.0952597 -0.777824 0.779995
-0.153209 -0.759905 0.722798
0.150453 -0.0616076 1.67396
-0.302042 -0.0109266 1.36632
-0.182726 0.00732485 1.46032
0.209324 1.03911 1.95765
-0.291833 -0.0151159 1.40453
0.215153 -0.0284762 1.57758
0.117277 -0.824922 1.04834
-0.229029 -0.84723 0.943147
0.0928791 -0.830534 1.11859
-0.0706788 -0.0579997 1.46182
-0.101261 -0.85705 1.06327
-0.237007 -0.0434933 1.43099
-0.0816617 -0.859834 1.08858
-0.0260462 -0.818352 1.35123
-0.0117968 -0.824578 1.04474
-0.228768 0.00610027 1.4609
0.0578926 -0.827875 1.09468
0.0124369 -0.843924 1.08857
-0.115781 -0.0584082 1.45574
-0.178565 0.0237977 1.50363
-0.466509 -0.960422 1.33815
0.28022 -0.0452236 1.58368
0.182655 -0.0281066 1.61075
0.238458 -0.0181579 1.66807
-0.0362586 -0.758292 0.76877
0.0154261 -0.801678 0.962989
-0.154099 -0.0783373 1.46125
-0.222883 -0.863456 1.30567
0.00154638 -0.79416 0.912319
0.0989224 -0.807147 1.33697
-0.200167 -0.0147361 1.44002
0.106735 -0.861757 1.26775
-0.184092 -0.0117092 1.44058
-0.259801 -0.00317557 1.45763
-0.081568 -0.0250567 1.48022
-0.197894 0.00259249 1.48873
0.301595 -0.584185 0.986852
-0.153432 -0.0279984 1.44797
-0.186808 -0.86734 1.0612
0.221392 -0.11087 1.56979
-0.0229975 -0.746738 0.739846
0.136014 -0.0369708 1.54982
0.0978885 -0.700021 0.738107
0.194557 -0.136693 1.59242
-0.122387 -0.723696 0.62511
0.00615943 0.0627997 1.58319
-0.0943564 -0.764115 0.745202
0.0967925 -0.719303 0.767822
-0.0237918 -0.206007 1.47486
0.163863 -0.0245194 1.62018
0.0635216 -0.172643 1.51292
0.16391 -0.0278668 1.65512
-0.193927 -0.0660009 1.43324
0.174665 -0.0317598 1.61029
-0.0377006 -0.714812 0.645354
0.252194 -0.0126027 1.63263
-0.0194959 0.0762632 1.57816
-0.154923 -0.0611044 1.45341
-0.258511 -0.109493 1.45114
-0.0473546 0.0493803 1.55659
0.169881 -0.0249013 1.61593
-0.162753 0.0353521 1.52717
-0.234619 -0.868787 1.14934
-0.0205925 -0.781409 0.861668
0.159075 -0.0951969 1.57636
-0.269111 -0.00140407 1.45705
-0.0147222 -0.205362 1.47001
-0.249159 -0.00349525 1.44852
-0.296646 -0.0250391 1.38977
-0.145423 -0.054229 1.45142
0.0168161 -0.769469 0.832748
-0.0866553 -0.0335142 1.46025
-0.0651877 -0.18879 1.45918
-0.339096 -0.0333836 1.36244
0.0520096 -0.81858 1.29495
0.033352 -0.808071 0.9576
0.20034 -0.0323374 1.594
-0.221749 -0.0373048 1.43337
-0.0804755 -0.870847 1.17862
-0.21678 -0.863581 1.32118
0.471062 0.988873 2.01184
0.196172 -0.0132373 1.62567
-0.0160443 -0.168384 1.48834
-0.0305507 -0.770228 0.804921
0.0482676 -0.86732 1.20274
-0.152849 -0.0137125 1.48482
-0.189017 -0.881053 1.17623
-0.301784 -0.0374402 1.37995
0.17842 -0.0273785 1.61174
0.0909705 -0.77109 0.863904
0.0320292 -0.0448322 1.51714
0.180228 -0.0239457 1.64807
0.0982771 -0.827158 1.30292
0.287587 -0.131991 1.58121
0.186963 -0.102093 1.57862
-0.258758 -0.867539 1.04227
-0.13066 -0.789563 0.81192
-0.0159202 -0.806378 1.35646
-0.23872 -0.0497595 1.43075
-0.130696 -0.0267824 1.46989
-0.122166 -0.0447969 1.44952
0.02783 -0.183596 1.50824
-0.0586483 -0.156075 1.45608
-0.128587 0.0462836 1.52355
0.111078 -0.86462 1.38024
0.180618 -0.0227058 1.6109
-0.139517 0.0436905 1.53262
0.235957 -0.0123875 1.65737
0.100649 -0.0515724 1.54661
-0.23039 -0.866948 1.32592
0.28051 -0.00979438 1.65666
0.133212 -0.0328584 1.59612
-0.114172 -0.895956 1.26459
0.241504 -0.129459 1.57903
0.0802483 -0.769775 0.858854
-0.258022 -0.00018616 1.46269
0.149901 -0.0489343 1.55704
0.17367 -0.700289 1.30196
-0.0284382 -0.823816 1.3225
-0.00688612 -0.205615 1.47349
0.150979 -0.759718 1.12067
-0.0239975 -0.201445 1.48534
-0.0268072 -0.805424 0.921319
-0.219632 0.00976363 1.46419
0.175047 -0.119998 1.60002
0.0210952 -0.813354 1.24588
-0.0056903 -0.201292 1.49156
0.0844006 -0.71399 0.67509
0.0217853 -0.18857 1.49669
-0.135106 -0.161766 1.4715
0.173536 -0.14725 1.58239
-0.174326 0.00932806 1.46257
-0.0705614 -0.9336 1.38464
0.203392 -0.0717635 1.55956
0.0515248 -0.946073 1.43032
0.177046 -0.0813064 1.57433
0.257218 -0.0142257 1.62946
-0.0280565 -0.813731 1.33372
0.0812256 -0.913876 1.45239
0.194185 -0.0653927 1.56338
-0.0734879 -0.0917131 1.46997
0.21499 -0.0524228 1.56948
0.136363 -0.0304739 1.60566
0.0069135 -0.746388 0.760657
0.162873 -0.0254891 1.61912
0.195078 -0.0303617 1.59197
0.271941 -0.0490121 1.5942
-0.025171 0.084862 1.57026
-0.155945 0.036866 1.52126
-0.0283106 -0.176931 1.47603
0.147687 -0.0424035 1.6809
-0.163113 -0.0267084 1.45249
-0.0619637 0.0474271 1.54674
-0.0552255 0.0471525 1.55467
-0.00880388 -0.816789 1.34061
-0.309594 -0.0570351 1.38298
-0.323503 -0.0288819 1.37107
0.014695 -0.728958 0.700163
0.0677351 0.0344283 1.62156
0.219178 -0.739515 0.825947
-0.290328 -0.859006 1.04614
-0.333594 -0.0437674 1.36029
0.200534 -0.0822461 1.57007
-0.249981 -0.0544099 1.41809
-0.280277 -0.149773 2.2774
-0.305457 -0.862017 1.01425
0.196157 -0.0264634 1.61586
0.0783054 -0.749811 0.794846
-0.0578072 0.0109861 1.51744
-0.134732 0.043253 1.52607
-0.107613 -0.865566 1.11685
-0.30967 -0.0182353 1.38296
0.241479 -0.0207374 1.63872
-0.0423632 0.0886624 1.57309
-0.0657546 0.0867491 1.562
-0.236188 -0.0580596 1.43521
-0.252644 -0.0208517 1.42399
0.193443 -0.113755 1.56607
-0.205058 -0.921716 1.3263
-0.101022 -0.0346966 1.46837
-0.200992 0.0164956 1.48377
-0.143875 -0.752981 0.650608
-0.0877615 -0.757819 0.726056
-0.111631 -0.0265263 1.4684
-0.0592739 -0.0244503 1.48045
-0.0755906 -0.0224566 1.47705
-0.166974 0.0275415 1.49995
0.23078 -0.055038 1.56873
0.182349 -0.065978 1.5786
-0.205852 0.0175136 1.47552
-0.297787 -0.04425 1.38615
-0.152285 -0.0348159 1.45213
-0.236089 -0.0351305 1.43417
-0.1848 0.0598278 1.55948
-0.156115 -0.0689093 1.44595
0.0633812 -0.0737523 1.60161
0.0919767 -0.164443 1.54647
0.056226 -0.0695619 1.59485
-0.0294236 0.0727428 1.56535
-0.165526 -0.0186122 1.46035
-0.0443479 0.0837336 1.56032
-0.195658 0.00992757 1.47722
0.0361916 -0.172669 1.49739
-0.134584 -0.0443273 1.45957
0.118534 -0.683832 0.740615
0.0555312 -0.767667 0.800972
0.218028 -0.0205777 1.63863
0.128756 -0.0451609 1.546
-0.113117 -0.751197 0.705274
-0.266583 -0.884245 1.24135
-0.123046 -0.000806582 1.48561
-0.104493 -0.0582627 1.54672
0.0149637 -0.736093 0.71338
0.0271875 -0.7875 0.876602
0.0309884 -0.185049 1.50472
-0.335544 -0.0263021 1.35821
0.21768 -0.0571821 1.57567
-0.183297 -0.0984646 1.43825
-0.282651 -0.0311396 1.38947
-0.225332 0.00821735 1.46329
0.213382 -0.108742 1.56595
-0.247773 -0.0307978 1.43266
0.0845486 -0.0618786 1.60192
-0.258334 -0.0997118 1.44943
-0.169561 0.0283792 1.53396
0.521603 1.06257 1.86697
-0.227898 -0.882311 1.15798
0.275879 -0.0353956 1.59159
-0.316978 -0.0450461 1.36726
0.196048 -0.0599954 1.55785
-0.164994 -0.0200917 1.46145
0.0125295 -0.831483 1.27484
0.0511764 -0.781388 0.87895
-0.15998 -0.823581 1.71084
-0.186359 0.00451728 1.45733
0.289302 -0.132816 1.57983
-0.13118 -0.157966 1.46583
0.15972 -0.031496 1.61849
0.0803721 -0.825524 1.33452
-0.254545 0.000667896 1.45689
0.175863 -0.0251152 1.6192
0.155208 -0.0961229 1.54293
-0.0382746 0.0664851 1.55694
-0.0635408 0.0441948 1.52758
0.0810936 -0.762465 0.844935
-0.258669 -0.107738 2.31731
0.13014 -0.814004 1.39876
-0.358197 -0.0354939 1.37664
-0.244149 -0.236771 2.19683
0.0057562 -0.187437 1.48676
0.0676808 -0.760607 0.862428
-0.0648425 0.0280598 1.53608
-0.254649 -0.0351666 1.43577
-0.259491 -0.0314392 1.43767
-0.0464418 -0.183538 1.45608
0.173439 -0.0266638 1.61634
-0.119137 -0.146999 1.47019
0.17742 -0.0791662 1.7015
-0.0560027 -0.0260326 1.48804
-0.141945 -0.0733534 1.43484
0.166014 -0.134192 1.57484
-0.0539892 -0.850783 1.06721
-0.0959867 -0.0265112 1.47571
-0.0137537 0.0621265 1.57852
0.0773747 -0.0426658 1.55108
0.141417 -0.0468174 1.68017
0.1747 -0.145895 1.59712
-0.113902 -0.16006 1.47213
-0.203425 -0.00172018 1.45061
-0.218572 -0.897768 1.16035
0.0125752 -0.178558 1.48724
0.1917 -0.0106152 1.62753
-0.0613646 -0.0879863 1.47436
0.10013 -0.848687 1.47488
0.207064 -0.0283103 1.56991
-0.0122752 -0.145725 1.51507
0.0962801 -0.833438 1.3427
-0.216699 0.00688488 1.45981
-0.171543 -0.908823 1.20112
-0.26118 0.00361216 1.46353
-0.316374 -0.0385157 1.36679
-0.260702 -0.0837141 1.43193
-0.134362 -0.936894 1.32356
-0.103848 -0.84248 1.39079
0.011042 -0.153789 1.50975
0.0656596 -0.051668 1.55223
0.00481332 -0.747223 0.73688
-0.058516 -0.0051625 1.52344
0.10367 -0.745933 0.791813
0.200636 -0.0252452 1.6206
0.145221 -0.0487926 1.55489
-0.150447 -0.0759161 1.46128
-0.183871 0.00292468 1.45666
0.0492888 -0.771573 0.865287
-0.238355 -0.0397252 1.4291
-0.192466 0.0340282 1.53005
-0.253086 -0.881427 1.08749
0.168234 -0.737755 1.04404
0.0369106 0.0480762 1.61229
-0.0645148 -0.0302757 1.47849
-0.271646 -0.0363701 1.42867
-0.0292263 -0.0293171 1.4955
-0.0198207 -0.814008 1.3361
0.16742 -0.0356509 1.65569
-0.216126 -0.186982 2.22133
-0.141791 -0.0503806 1.45472
-0.0616047 -0.0315401 1.48091
-0.175981 -0.0472442 1.42499
0.135872 -0.0442783 1.55163
0.215697 -0.056821 1.59389
-0.0659546 -0.758779 0.742405
0.108145 -0.0800492 1.53039
0.123707 -0.742711 0.812801
0.144459 -0.0517113 1.55324
-0.171857 -0.0161211 1.46092
0.0796592 -0.151246 1.56764
-0.256944 0.00979728 1.48135
-0.104409 -0.00493602 1.52943
0.103684 -0.764569 0.857367
0.18835 -0.0323256 1.60375
0.201313 -0.104018 1.56948
0.0490786 -0.785775 0.89889
0.193557 -0.0753523 1.56298
-0.235655 0.479917 2.08874
0.0470572 -0.749507 0.78104
-0.0448966 0.0576384 1.55509
0.197607 -0.0779488 1.56386
-0.0535952 0.0703775 1.5593
-0.0877848 -0.0395713 1.46586
0.0515103 -0.180942 1.51206
0.209847 -0.0883577 1.56609
-0.155471 -0.0273899 1.46009
-0.271519 -0.035303 1.4272
-0.0684143 -0.0271029 1.47221
0.164655 -0.0400446 1.65983
-0.313266 -0.00080898 1.38601
-0.017242 -0.828494 1.37632
-0.0309512 -0.178644 1.47313
0.0776102 -0.765494 0.847355
-0.249685 -0.00814339 1.44611
0.187382 -0.0620678 1.55086
-0.162284 -0.0373794 1.44511
-0.269089 -0.0165582 1.4462
0.212825 -0.719911 1.11635
0.213532 -0.0515565 1.5676
-0.125217 -0.0284429 1.4752
0.208497 -0.0858747 1.56951
0.164016 -0.0275525 1.62029
-0.0997702 -0.0212586 1.48124
-0.153936 -0.0382799 1.4551
-0.116945 -0.0202352 1.4832
0.23107 -0.112903 1.57438
0.254992 -0.0319506 1.61158
0.14704 -0.0357397 1.64666
0.185651 -0.0583716 1.57767
-0.25733 0.00658287 1.48376
0.200881 -0.0254718 1.62118
0.203163 -0.0306851 1.61735
0.12859 -0.0375818 1.58599
-0.156306 -0.797558 0.830293
0.208545 -0.0204645 1.68798
-0.194319 -0.0119779 1.44835
0.220979 -0.0351054 1.57992
-0.116266 0.049839 1.52639
0.214199 -0.0188368 1.62056
-0.170431 -0.0385629 1.44349
0.113625 -0.802392 1.3501
0.205351 -0.0763874 1.56766
-0.244174 -0.024662 1.44259
-0.236151 -0.0413436 1.43414
-0.216261 0.011612 1.47051
-0.294887 -0.041121 1.38065
-0.155044 -0.776038 2.39733
0.173004 -0.122483 1.57591
-0.0345957 -0.820923 1.35658
-0.246445 0.00400669 1.46091
-0.172797 -0.834772 0.926668
-0.147257 -0.0410323 1.45878
0.187171 -0.138365 1.56623
-0.0474757 -0.82535 1.52046
0.0213731 -0.821777 1.38456
0.11625 -0.0366344 1.66122
-0.17204 0.0330924 1.5286
-0.263134 -0.0869027 1.4345
0.2498 -0.058249 1.6003
-0.0352596 -0.832836 1.00038
0.29579 -0.590929 0.96496
0.132391 -0.711134 0.741409
0.0532004 0.0300002 1.62399
0.228698 -0.0595777 1.59083
-0.0816232 -0.758613 0.732021
-0.278216 -0.041128 1.40204
-0.248104 0.00466119 1.45898
0.37351 -0.0456356 1.68475
0.201284 -0.085106 1.56198
-0.0724797 0.00455005 1.51304
-0.0692513 -0.056226 1.46432
-0.0497848 -0.207206 1.463
0.163026 -0.062137 1.67352
0.375956 -0.0502534 1.67416
0.228453 -0.708969 1.04566
0.170204 -0.10184 1.57769
-0.122903 -0.0577124 1.45488
0.230165 -0.108105 1.58325
0.17731 -0.0855315 1.57323
-0.00648277 -0.788739 1.35617
-0.320442 -0.0380748 1.36285
-0.0816738 -0.844993 1.05229
0.243353 -0.533104 0.778627
0.210454 -0.0324251 1.57683
-0.0957785 0.0583075 1.57028
0.222587 -0.0500946 1.56883
-0.0655639 -0.189197 1.47028
0.122126 -0.0302255 1.59705
0.27408 -0.593638 0.950232
-0.0757862 -0.00776858 1.5077
-0.213712 0.00704553 1.46002
-0.0893491 0.0737185 1.55228
0.0897771 -0.810733 0.995991
-0.26704 -0.0291101 1.41313
-0.144048 -0.0720256 1.44826
0.194867 -0.142475 1.5918
-0.0110389 -0.841471 1.41158
-0.280049 -0.0522749 1.40305
-0.0725519 0.0361626 1.53044
-0.0613631 0.0113868 1.50861
0.0905616 -0.738278 0.773084
-0.261602 0.00784984 1.46933
-0.0692342 -0.170763 1.45246
-0.214929 0.0115955 1.46948
-0.173657 -0.102857 1.43646
-0.208564 0.0151033 1.47365
0.204278 -0.0248852 1.6268
0.169648 -0.776386 1.08181
0.177546 -0.155603 1.61254
-0.0559737 -0.0254776 1.48341
-0.219003 0.00522198 1.46017
-0.137746 -0.0569797 1.45642
0.0181075 -0.202629 1.48366
0.098917 -0.0597131 1.55987
-0.183773 0.0183986 1.49812
-0.18413 0.0634529 1.56062
0.191723 -0.0976623 1.56984
0.0521889 -0.875632 1.40843
0.0625034 -0.783614 0.891218
-0.274126 -0.0351172 1.42233
0.00893478 -0.806121 1.35499
0.196973 -0.0932852 1.5642
-0.0832099 0.0461443 1.53623
0.1835 -0.0299371 1.59659
-0.198403 -0.0218749 1.44271
0.0449896 -0.167906 1.50213
-0.150894 0.0387844 1.51956
-0.0267649 -0.0661913 1.48127
-0.171266 -0.0126655 1.46099
0.326104 -0.131753 1.5962
-0.0058332 -0.840667 1.41189
0.193498 -0.129719 1.56683
0.196099 -0.0187059 1.63582
-0.0556609 -0.773343 0.807767
-0.249289 0.00511121 1.46989
0.248708 -0.729095 1.05339
0.357779 -0.0280079 1.69166
-0.243574 -0.00187781 1.45325
-0.18781 0.032432 1.53517
0.204194 -0.0814113 1.56472
-0.0628161 -0.019415 1.48712
0.102006 -0.79811 1.01728
-0.0679768 0.0826202 1.56943
-0.268783 -0.0412943 1.40883
-0.270245 -0.151723 2.2855
-0.358609 -0.0369984 1.37917
-0.0887104 0.0534585 1.54193
0.194737 -0.0660304 1.56662
-0.274231 -0.0409282 1.40501
0.149925 -0.0477254 1.55797
-0.0253235 -0.840449 1.39869
-0.0949399 -0.065769 1.46092
-0.0610596 -0.76775 0.766533
-0.0662994 -0.0255686 1.48211
0.11125 -0.0320661 1.5748
0.142935 -0.0424468 1.55704
-0.0517464 -0.773159 0.805244
-0.0944205 -0.867603 1.1082
-0.297832 -0.048275 1.38933
-0.165687 -0.0180805 1.44714
0.20252 -0.142046 1.58133
-0.0560405 -0.0763961 1.44992
-0.0112124 -0.793484 0.884281
0.201006 -0.0351228 1.60207
0.170218 -0.029923 1.61593
0.146429 -0.167976 1.61887
0.137666 0.000438808 1.63317
-0.0889601 0.0053792 1.55045
-0.165101 0.01493 1.50355
-0.151983 -0.0257117 1.4616
0.251286 -0.65351 1.06789
0.290745 -0.132001 1.57944
-0.0814247 0.0752046 1.55142
-0.0996723 -0.0754986 1.46291
0.114567 -0.0365655 1.58427
-0.241384 -0.0240042 1.44015
0.176386 -0.0297321 1.60964
-0.112532 -0.0670515 1.45472
-0.175962 -0.05428 1.43861
-0.00862789 -0.123064 1.45073
-0.24994 -0.0213112 1.4424
0.0758904 -0.655529 1.99733
-0.0273947 -0.805795 1.34539
0.296747 -0.716286 1.00748
-0.0571942 -0.147116 1.46665
0.276175 -0.064536 1.6265
-0.309964 -0.0384758 1.37383
-0.0442141 -0.7564 0.743657
-0.0320081 -0.110512 1.45454
0.174705 -0.126714 1.57834
-0.116943 -0.747019 0.687349
-0.157996 -0.134527 1.46035
-0.153006 -0.0334065 1.4486
0.219858 -0.0397589 1.591
-0.0874545 0.0421509 1.54909
-0.00921172 -0.177881 1.48597
-0.216024 -0.0464295 1.44325
-0.172221 0.00707424 1.4875
-0.153981 -0.818643 1.24135
0.0608113 -0.0536398 1.5695
0.0166629 -0.189732 1.46522
-0.0466003 -0.124708 1.46797
0.185127 -0.151449 1.59028
-0.174319 -0.0665957 1.43853
0.131196 -0.744886 0.793932
-0.311383 -0.129689 2.32042
0.0237498 0.0475011 1.6121
-0.137718 -0.0208782 1.46939
-0.394655 -0.853312 1.18066
-0.231866 0.00422627 1.45804
-0.0816362 0.0465556 1.52553
-0.0399973 -0.794129 1.36004
-0.188988 -0.106209 1.9655
-0.349764 -0.030293 1.36409
-0.0454428 0.0913576 1.56892
0.177224 -0.0960266 1.57843
-0.180838 -0.00361759 1.462
-0.0825432 0.0703724 1.55605
-0.303679 -0.0686693 1.38036
-0.213809 0.0184186 1.47575
-0.171927 -0.0501173 1.44244
-0.0142997 -0.798018 1.3586
-0.0279817 0.067613 1.56358
0.19687 -0.0382389 1.59213
-0.00322134 -0.0259463 1.49889
0.21214 -0.651902 0.945877
-0.3433 -0.0502094 1.37302
-0.0885339 -0.843839 1.39599
-0.0995304 -0.819406 1.42436
-0.266587 -0.0568231 1.44503
0.16703 -0.0588833 1.57832
0.0290191 -0.821124 0.963618
0.191992 -0.0285861 1.64874
-0.110264 -0.0571321 1.54347
-0.141229 0.00385158 1.47938
0.0954065 -0.0535693 1.54396
-0.0514224 -0.757518 0.745276
0.0720807 -0.94185 1.40589
-0.0408699 0.043195 1.56878
-0.0524413 0.0292008 1.54654
-0.0927245 -0.758629 0.725317
-0.0444797 -0.825486 1.3461
-0.109902 -0.710601 0.599899
-0.283101 -0.0300034 1.39922
-0.0501618 -0.113779 1.48161
-0.197343 -0.856363 1.39693
0.0970427 -0.707635 0.696805
-0.144598 -0.0714558 1.45628
0.268423 -0.0703584 1.58165
-0.141335 0.00342913 1.47924
0.0228541 -0.776452 0.871873
0.00262191 -0.0374395 1.50387
0.0339048 0.0028048 1.60064
0.204152 -0.735922 1.06669
0.238311 -0.765857 1.09928
0.126809 -0.0387416 1.64774
0.0218369 -0.125702 1.45614
-0.0774295 -0.785666 0.830189
-0.144138 -0.0657104 1.4523
-0.0179726 -0.791945 0.876519
0.203226 -0.153481 1.60116
-0.146358 -0.0354635 1.45633
-0.0927156 0.063853 1.53141
-0.177058 -0.0197234 1.43307
-0.233404 0.00328638 1.4586
-0.0989392 -0.0545582 1.45782
0.171302 -0.0319962 1.65238
0.0844528 0.0095801 1.63753
0.0906391 -0.0441007 1.53841
-0.0524168 -0.796422 1.36126
0.167935 -0.0329937 1.65792
-0.0690534 -0.138631 2.38908
-0.00780154 -0.197401 1.46295
-0.191522 -0.0735465 1.45113
0.19801 -0.0870919 1.56223
-0.0980234 -0.152367 2.31644
-0.125686 0.0662337 1.60016
-0.0376825 0.0808243 1.56389
0.189908 -0.151623 1.60149
-0.0873172 0.0194755 1.5378
-0.159652 -0.039441 1.44927
-0.148023 -0.0981517 1.44606
-0.121281 -0.740422 0.659929
-0.000565348 -0.84109 1.40035
-0.0906605 -0.0409241 1.46332
-0.262532 -0.0219336 1.45371
-0.336745 -0.0395095 1.36025
-0.0240026 -0.806229 1.35471
-0.152055 -0.0547031 1.44879
-0.363386 -0.031344 1.38927
0.264787 -0.031491 1.60863
-0.243149 0.197175 1.92494
-0.0102585 -0.798044 0.882217
0.190159 -0.0479501 1.57796
-0.0320879 0.08696 1.57136
-0.187159 -0.0246408 1.44567
0.21681 -0.0622695 1.57056
-0.132602 -0.0158993 1.5406
-0.028192 -0.83965 1.0456
-0.0446529 -0.790477 0.866906
-0.266125 -0.00780558 1.44795
-0.0589752 -0.83326 1.29629
0.0768958 -0.16501 1.52958
-0.117603 -0.865907 1.31746
-0.0381139 0.0810442 1.57886
-0.296578 -0.0408799 1.38932
0.243253 -0.0150458 1.64667
-0.0104718 0.0237687 1.57583
-0.0641985 -0.0254708 1.48177
-0.0965019 0.0473613 1.54936
0.248941 -0.0226134 1.62585
-0.0419173 -0.808352 0.931756
0.132709 -0.0234192 1.60776
0.19357 -0.0181459 1.61111
0.232907 -0.0205089 1.61348
0.051548 -0.786933 0.896658
-0.0285801 -0.828269 1.38934
0.170373 -0.0384144 1.68379
-0.250269 -0.0947997 2.34321
-0.103282 -0.0311587 1.46434
-0.0107268 -0.184014 1.47283
-0.134771 -0.0451162 1.46042
-0.260874 -0.21083 2.21241
0.0365631 -0.757343 0.817852
0.192493 -0.147438 1.56923
-0.0381203 -0.053585 1.47837
0.161789 -0.779387 1.05245
0.121422 -0.0848351 1.5473
-0.510095 -0.973196 1.2359
-0.0218189 -0.825638 1.2463
0.0901392 -0.045427 1.5438
-0.0224593 -0.863728 1.11422
0.218686 -0.0139265 1.67415
-0.00463308 -0.848771 1.41449
-0.214379 0.0124954 1.468
-0.0377902 -0.849322 1.09066
0.114385 -0.750978 0.830402
0.126943 -0.0331356 1.60118
0.216042 -0.0225813 1.62995
-0.297872 -0.0510858 1.38935
0.149583 -0.0384376 1.64976
0.145025 -0.844274 1.19304
0.191337 -0.118334 1.5673
0.180895 -0.0777266 1.56845
-0.120276 -0.881033 1.15171
-0.301703 -0.0281641 1.36571
-0.080798 0.0771017 1.55475
0.204792 -0.0354061 1.56887
-0.0611296 -0.0239663 1.48978
0.218284 -0.0330199 1.5765
-0.0184095 -0.86144 1.14269
-0.132429 -0.163796 1.47146
-0.260985 -0.0615199 1.42601
0.102751 -0.758681 0.842157
0.221269 -0.0187178 1.62372
0.159483 -0.141545 1.57844
-0.194714 -0.0774211 1.43738
0.00154171 -0.717513 0.698636
0.192904 -0.0664954 1.56794
0.0571277 -0.162512 1.50618
-0.209585 -0.896396 1.24675
0.218878 -0.0266951 1.6228
-0.276367 -0.0444852 1.40314
-0.135371 -0.115331 1.46453
0.182761 -0.0287311 1.60839
0.253291 -0.0308835 1.61884
0.198898 -0.106769 1.57042
-0.3542 -0.0339889 1.37319
0.229534 -0.0195202 1.62133
-0.094517 -0.095056 1.46371
-0.303819 -0.847977 1.01929
0.187113 -0.132357 1.56197
-0.308474 -0.101114 2.28708
-0.315815 -0.000805359 1.38035
-0.306912 -0.888496 1.11005
0.211554 -0.0735827 1.55983
-0.0517162 0.0341572 1.53369
-0.0390835 -0.804157 0.900919
-0.315483 -0.0470653 1.37832
-0.0411387 0.0786085 1.55565
0.18554 -0.0422463 1.58431
0.199384 -0.0227691 1.62574
-0.0805166 0.068719 1.53916
-0.00905147 -0.124128 1.44336
-0.0586294 -0.793004 0.857509
0.0860042 -0.185736 1.52827
0.107401 -0.206983 2.40178
0.223051 -0.0198758 1.62558
0.0654468 -0.164238 1.52651
-0.266098 0.00681949 1.461
-0.0928818 0.0545606 1.56707
-0.0786659 -0.0565344 1.46164
-0.0598761 -0.0305233 1.48005
0.188623 -0.125387 1.58172
0.175954 -0.066327 1.56503
-0.286882 -0.0299335 1.38577
0.0856073 -0.829068 1.30441
0.187286 -0.118448 1.56266
0.206017 -0.0330486 1.5765
-0.113905 -0.045677 1.46136
0.186387 -0.0597492 1.56831
-0.138343 0.0347608 1.5161
-0.319533 -0.0342019 1.3745
0.0342288 -0.80211 0.944834
-0.0412988 0.0827862 1.56509
0.0223136 -0.823901 1.37436
0.0711343 -0.227156 2.39608
-0.199085 -0.0761724 1.43234
0.0736924 -0.778597 0.880064
0.166838 -0.14067 1.57368
0.199809 -0.081023 1.56399
-0.0984532 -0.000212711 1.5513
0.0263025 -0.705543 0.657099
0.249682 -0.0138727 1.65118
0.162247 -0.0247724 1.62446
-0.103589 -0.178554 1.46773
-0.0762852 -0.0426491 1.47042
0.189867 -0.114954 1.57966
-0.0470894 0.0788249 1.55972
0.161202 -0.0437978 1.6394
-0.104789 -0.0250641 1.47426
-0.252066 -0.0121771 1.4448
0.239207 -0.0918931 1.56272
-0.125391 -0.759663 0.712717
-0.0650431 -0.828846 1.81545
-0.196398 -0.0666527 1.43335
0.0602919 0.0267349 1.62525
-0.0309222 -0.829995 0.984465
0.0098184 -0.739288 0.717843
0.0696317 0.0316187 1.62234
-0.0818445 0.00867908 1.554
-0.226064 -0.00294618 1.44924
-0.307339 -0.00526289 1.39976
-0.0505494 0.0675305 1.57957
0.277179 -0.0395346 1.59481
0.177521 -0.029109 1.60936
-0.155378 -0.732366 0.736926
0.213186 -0.0916486 1.57131
-0.0980887 0.0686396 1.54757
-0.0111793 -0.0364296 1.49921
0.250488 -0.0296431 1.6179
0.1244 -0.0440667 1.634
-0.0264322 -0.165525 1.48377
0.222452 -0.117028 1.57812
-0.30072 -0.134969 2.28
0.0304691 -0.829315 1.03011
-0.237932 -0.0304114 1.43739
-0.0336041 -0.83923 1.39087
0.18491 -0.138096 1.57615
-0.247292 -0.0489801 1.43068
-0.18146 0.0097336 1.46248
0.0545408 -0.853413 1.39046
0.435046 -0.0455112 2.42215
-0.181005 -0.0344489 1.43708
-0.0583051 0.0755601 1.5768
0.0720021 0.0248422 1.62816
0.0874251 -0.0469372 1.54603
-0.161396 -0.0315232 1.45492
-0.123939 0.0503328 1.52654
0.435882 1.08752 1.82039
0.179332 -0.0498768 1.56786
0.211985 -0.03361 1.57981
0.19708 -0.112379 1.57084
0.190844 -0.0196298 1.63873
-0.196732 -0.0222657 1.44554
0.16053 -0.15875 1.62746
0.228101 -0.703119 1.02873
-0.00482591 -0.821304 1.31406
0.0136786 -0.165683 1.50807
0.291542 -0.56266 0.997996
-0.0294633 -0.210273 1.46716
0.144518 -0.778644 1.05533
-0.157216 -0.0323414 1.45536
-0.238492 -0.0597895 1.433
0.0189159 -0.847979 1.41859
0.232344 -0.0259176 1.61144
-0.189693 0.0359021 1.57153
-0.144894 -0.830094 1.23604
-0.0255179 -0.775536 0.85386
-0.303607 -0.648962 2.07206
0.0758834 -0.173972 1.52404
-0.314103 -0.0138251 1.38892
0.254145 -0.250332 2.37743
-0.253688 0.00728945 1.48382
-0.280984 -0.0321298 1.39535
0.198801 -0.0191893 1.6384
-0.145821 0.0381944 1.52575
-0.114709 -0.0245829 1.47029
-0.100631 -0.0074833 1.52872
-0.0989226 0.0431726 1.56896
-0.0336711 -0.200701 1.46957
-0.0642327 -0.022105 1.4808
-0.134774 -0.84287 1.4196
-0.132501 -0.063912 1.45821
-0.152636 0.033897 1.51069
-0.148543 -0.0392613 1.44851
-0.113888 0.0452589 1.52474
-0.119923 0.038146 1.53538
0.0908312 -0.750942 0.808757
0.177727 -0.0514669 1.5693
-0.0617815 0.00325628 1.51079
0.14857 -0.0474615 1.65905
-0.267709 -0.0208861 1.45186
-0.149907 -0.0778817 1.45992
-0.0464726 -0.153922 1.47574
0.214293 -0.0596441 1.55985
0.216968 -0.10931 1.5785
-0.252924 -0.0298913 1.43507
-0.0244519 -0.77779 0.820925
0.230422 -0.0192659 1.62945
-0.0533842 0.0479367 1.56128
-0.147435 -0.0263221 1.45911
0.0889848 -0.0477133 1.54291
-0.232843 -0.00532355 1.44773
-0.269115 0.822724 2.04576
-0.0736618 -0.0401864 1.47481
-0.181311 -0.00284076 1.46006
0.0926561 -0.82474 1.34973
-0.191786 -0.0600745 1.43594
0.197899 -0.0344179 1.57259
-0.0992567 -0.317631 2.25451
-0.323391 -0.0343011 1.3665
0.179266 -0.0214349 1.62911
-0.193074 -0.000721262 1.45408
0.0972766 -0.722372 0.737275
-0.0936345 -0.0565318 1.48706
-0.0675789 -0.0730822 1.45281
0.0314324 -0.743387 0.766915
-0.0708937 -0.0111776 1.50414
-0.283239 -0.0306854 1.38865
0.0236634 -0.774806 0.852709
-0.030129 0.0733126 1.55024
-0.164408 -0.0217875 1.46404
-0.185154 -0.0920577 1.43571
-0.0303414 0.0629688 1.56302
0.191002 -0.0665667 1.57415
-0.270953 0.00514231 1.45342
0.0333184 -0.788171 0.903311
0.218085 -0.056501 1.57193
-0.0158904 -0.806156 1.35179
-0.144396 -0.0298802 1.45479
-0.165948 0.0344493 1.52613
0.215216 -0.0872906 1.57249
0.151482 -0.0419239 1.65115
-0.265883 -0.0538829 1.43687
0.0662616 -0.849651 1.14683
0.152029 -0.0371584 1.65347
-0.209925 0.0199786 1.47956
-0.182634 -0.132469 1.44934
-0.061127 0.00294265 1.51388
0.121628 -0.0428663 1.56797
-0.153641 -0.0742155 1.4543
0.0487011 -0.758225 0.80356
0.207991 -0.0354522 1.56401
0.288392 -0.744599 1.02215
-0.17856 -0.00554762 1.46235
0.298603 -0.586292 0.984489
-0.0307573 -0.174145 1.47442
-0.251678 0.00480841 1.456
-0.158998 -0.0270778 1.45731
0.0593098 -0.0671326 1.51626
-0.0319132 -0.777779 0.859191
-0.0602888 -0.831668 1.32175
-0.0260029 0.0701184 1.58839
-0.317686 -0.0562684 1.36783
0.0783708 -0.733371 0.746316
-0.100448 -0.867057 1.05596
0.016184 -0.940591 1.63895
0.230988 -0.0176369 1.6531
0.0567454 -0.812668 1.30901
-0.159401 -0.0443658 1.44739
0.176602 -0.1469 1.5838
-0.191981 -0.897567 1.19783
0.21491 -0.0181394 1.64046
-0.0437617 -0.139503 1.47395
-0.301326 0.00572177 1.41801
-0.204361 -0.914879 1.28906
-0.036983 -0.182211 1.46528
0.191255 -0.706661 0.936379
-0.0389762 0.0900301 1.56962
-0.0997724 0.0670949 1.55394
-0.172264 -0.0349957 1.44026
0.0850798 -0.0457375 1.54079
0.236532 -0.027615 1.62119
0.0492819 -0.0169038 1.54306
0.181649 -0.0196944 1.63087
0.211705 -0.0514218 1.56922
-0.158978 -0.891327 1.20052
-0.269079 -0.00735869 1.45305
0.218058 -0.0555999 1.57025
0.0774629 -0.0813146 1.61613
0.0768004 -0.746788 0.779323
-0.0460494 -0.459903 1.39603
0.152857 -0.0419102 1.6807
-0.141055 -0.0323249 1.46825
-0.324073 -0.886391 1.08489
-0.143674 -0.0710656 1.45488
-0.309871 -0.0454769 1.3776
0.34223 -0.399333 0.711811
-0.143494 -0.0695734 1.44896
-0.260721 -0.888195 1.10686
-0.0312415 -0.744312 0.699906
-0.0805662 0.0683595 1.5464
-0.173491 -0.0439755 1.44342
-0.100756 0.0503449 1.54673
-0.0745889 -0.868057 1.12797
0.262264 -0.023997 1.61268
-0.0431221 -0.127377 1.47574
0.25575 -0.0289331 1.61913
-0.248987 -0.874038 1.09984
-0.149111 -0.140735 1.46362
0.219527 -0.714275 1.08585
-0.119936 -0.854448 1.03548
-0.148 0.007296 1.47349
0.26137 -0.157245 1.60701
0.121911 -0.056653 1.54553
0.118134 -0.0437234 1.56839
-0.180533 0.00912267 1.47699
0.0633446 -0.028446 1.54003
-0.324173 -0.0130927 1.36939
0.191674 -0.104166 1.58301
0.195127 -0.0404147 1.58701
0.0940756 -0.695382 0.714529
0.183178 -0.0603481 1.57801
0.283648 -0.0106195 1.6521
0.228256 -0.152305 1.71712
-0.198361 -0.00127366 1.45169
0.109322 -0.715098 0.739699
0.182024 -0.139762 1.58545
0.0393477 -0.714721 0.686738
0.0233811 -0.843092 1.41675
-0.136433 -0.0353188 1.53872
0.00223761 -0.793968 0.888852
-0.244249 -0.0265541 1.44046
-0.149366 0.0394886 1.5244
0.164987 -0.11198 1.55298
0.129653 -0.754312 0.84275
-0.0590767 -0.785328 0.842551
0.115398 -0.815187 1.02187
