-9.12154 -11.3713 470.577
81.3431 -10.4738 566.158
-123.551 56.8797 560.825
-40.0699 11.4764 447.317
-38.9585 80.394 476.167
-42.3944 -30.5006 486.473
-1.56637 25.1934 491.293
53.7157 -75.8957 521.794
-91.1996 -49.4745 533.961
-66.3069 13.4004 429.369
-83.632 0.590278 454.749
-52.5428 -17.5131 464.319
52.4983 -2.16457 536.784
38.0757 -27.3435 511.448
152.711 -126.14 592.836
85.7078 -24.5885 562.008
-31.142 33.9907 464.777
-78.8835 -47.2661 522.278
-7.26578 4.86384 479.23
28.1249 94.9769 459.929
-82.0308 -19.145 478.174
-3.80172 32.011 493.381
94.8832 -26.9937 570.578
-6.15996 -19.7956 466.178
-65.6683 25.1506 435.953
-109.903 12.1642 488.521
136.251 -147.89 605.257
-29.6793 34.5664 466.377
11.9667 -13.3423 493.194
-75.6036 48.965 476.138
16.0245 -71.2035 526.756
-34.3508 7.21426 449.282
114.26 -23.345 588.037
29.1636 96.3734 459.362
-46.414 16.3318 440.778
-4.43298 48.6038 495.776
-11.3561 -17.0337 463.336
-82.3007 55.3792 496.14
25.7775 -7.72481 509.475
-146.456 14.2748 548.346
-46.846 -7.15392 449.072
121.919 -44.3549 590.772
56.4916 -78.2201 523.506
-107.547 21.0379 495.949
84.1894 -58.6621 550.885
95.0187 -9.25871 574.431
21.8543 -8.15606 501.278
-79.4049 49.8013 482.601
22.5512 42.9492 527.776
-99.5365 -48.006 528.031
-167.36 -36.5566 544.476
-130.467 36.9113 549.755
-13.1892 67.8055 498.298
75.0246 2.26036 560.868
-118.379 20.7311 509.221
-0.307139 9.13298 487.435
-68.0356 65.1158 483.97
3.74751 -27.0849 476.498
-11.7942 37.9512 482.042
-111.851 28.4972 506.033
131.145 -45.4516 605.612
-4.72546 14.4181 485.461
83.9982 -31.8846 558.671
-115.675 -48.5988 538.099
49.3924 -104.357 564.264
-44.5361 -0.374435 442.859
-62.071 48.3665 458.292
54.2745 -2.08896 541.211
-99.3436 -65.5704 554.992
-28.2905 11.1477 458.992
90.9588 -173.215 656.469
-12.4289 14.3603 475.174
18.0011 49.1064 519.446
-80.3997 64.1072 506.306
-14.6659 34.7293 483.175
-113.225 44.1221 529.078
-93.2696 -72.7606 552.486
13.8751 35.6844 508.342
-21.9848 -12.8943 459.498
-64.6762 29.8618 439.115
-88.0058 -18.1563 480.418
30.4466 21.5871 522.541
-148.881 -34.3897 533.777
-159.131 -7.34279 541.617
-112.539 3.61835 483.295
-102.348 -9.63736 479.221
125.507 -50.9514 595.893
45.6572 21.8514 538.359
65.0186 -109.464 568.162
-10.5955 2.18126 474.125
9.87731 -7.2333 491.916
-88.5995 2.91325 455.601
-24.445 11.7093 463.046
-61.1684 68.002 474.272
-114.142 25.9502 508.106
14.5741 11.972 501.908
120.787 -151.845 611.655
31.5996 -63.3833 507.414
21.056 3.56913 506.882
-19.0553 -6.49822 458.943
-137.797 116.333 491.934
-108.585 45.989 525.282
-50.3504 11.0647 437.407
-73.9819 52.1461 478.432
53.0387 -81.5103 528.125
52.4146 -15.6235 534.091
-5.17089 49.781 495.751
-51.6783 -37.2114 500.283
-47.6373 3.58252 436.615
-85.4004 -16.7453 481.036
-175.098 -24.9058 553.802
25.3467 -51.5398 496.301
-55.6326 55.4823 458.085
81.5593 -79.8868 536.395
79.976 -41.0223 550.593
50.6178 -60.0682 509.577
-12.2728 64.6524 495.702
-130.915 6.60132 515.015
-62.1724 -62.804 531.959
-57.6372 18.2116 434.828
-73.8315 56.9469 482.721
8.53486 -27.9116 480.688
32.4028 -4.77008 517.772
34.4636 -79.2291 528.273
134.855 -107.478 583.161
12.7487 0.179029 500.369
12.989 51.2609 522.643
-137.595 30.6643 553.645
6.46444 34.6623 507.642
105.241 -36.2003 580.034
-9.28235 -57.8914 510.843
-107.647 48.7729 526.336
45.4974 -6.93321 527.15
-58.0283 59.8409 464.901
-95.1389 -3.2855 466.475
-131.534 -15.3113 501.295
101.567 -14.3491 579.205
-10.7802 0.857671 475.6
35.1712 -94.3215 553.612
-94.2263 -6.28061 465.723
-10.6755 -24.5211 469.989
-290.09 -252.729 1134.95
8.60876 41.5429 507.133
140.852 -123.685 582.72
-87.0246 49.5939 493.587
127.746 -51.8316 592.731
-72.1025 2.49604 447.089
-5.04429 17.8502 484.072
-33.4597 -23.1693 472.316
-161.932 14.2976 574.463
-31.7619 46.9333 469.545
-38.5513 8.36304 445.286
-19.7346 53.2297 483.366
14.8306 -4.81569 496.323
41.0573 -63.1383 505.734
-85.3497 9.61867 453.989
23.5211 -46.0212 492.468
-136.619 -50.3573 561.083
134.961 -134.466 586.581
-147.121 -37.7632 546.806
-95.0824 -58.2814 542.122
14.7373 -9.82951 497.164
-73.9925 -63.6965 541.057
-24.1969 -20.5512 464.714
-50.3723 20.4313 439.048
155.792 -115.052 596.231
78.866 -89.3959 538.219
-59.0966 53.1221 459.349
22.3763 -9.87368 501.524
-66.9416 68.7882 487.436
91.3827 -76.5529 545.561
-5.08547 40.2093 495.568
-42.8545 9.88987 445.332
15.0475 -60.1942 507.257
117.859 -38.3189 593.395
101.095 -62.4123 564.779
-144.604 17.27 548.811
-31.6649 -25.9872 473.95
48.5819 -64.1642 508.746
-66.7144 15.1754 428.78
5.43593 -37.4783 481.91
-10.8462 -9.56945 471.005
58.0906 8.04419 549.107
23.5354 1.07912 508.674
-40.0842 68.3202 468.564
-29.4372 37.4417 467.338
-96.1467 11.9236 464.238
-45.4039 15.8306 445.81
-44.5036 -19.0831 468.308
-49.7277 -37.9387 496.465
-156.084 25.7416 579.08
-44.1753 89.4088 482.048
60.273 -66.2737 517.121
-40.2585 20.5753 451.218
-168.171 -40.3613 558.207
-18.6579 -25.4669 470.851
98.4328 -16.2858 576.021
19.4296 13.9033 508.071
155.687 -120.524 593.995
35.7257 -13.7121 516.402
-148.238 -33.3203 531.758
-37.7542 49.2266 462.905
-137.478 -17.408 508.216
-91.4316 71.114 526.874
-166.241 -17.8935 542.789
-90.8273 42.8902 493.178
84.5134 -132.407 593.438
-7.30941 4.75237 479.178
22.12 -16.8725 503.047
-63.9537 9.97373 431.769
-57.5617 35.5768 441.571
69.02 -84.9046 531.055
-56.5462 69.1903 469.934
83.5752 -71.0545 540.523
-60.6184 -28.8683 488.354
119.101 -25.9608 599.661
157.581 -67.2659 624.096
54.9309 -100.205 555.189
22.7972 -43.3656 491.478
-37.467 52.2644 460.096
110.174 -90.3069 562.188
-27.6989 -30.4699 478.331
-139.723 -33.0122 525.489
-62.5799 -30.2292 490.384
-102.286 9.21544 471.296
32.7471 -49.8878 496.948
64.8574 -35.9616 536.223
137.725 -59.2001 601.025
6.49789 16.8932 498.138
-56.9357 59.2199 462.854
-60.3953 -41.6246 503.332
-59.2522 37.0895 444.753
-53.551 -10.9564 464.366
-72.4153 -15.9235 470.227
-53.3082 31.658 442.578
161.869 -68.7938 629.335
103.899 -26.0383 579.241
6.64716 38.3331 507.367
75.5574 -102.73 552.899
-233.327 71.1843 598.706
-39.4484 59.9616 465.77
-38.8506 79.6879 478.842
-165.919 -27.0289 538.644
-58.9232 24.3202 436.024
97.7773 -153.535 618.692
-114.908 -64.7746 583.304
-32.7912 -24.8769 474.185
-23.2622 11.1407 464.192
-127.62 15.286 517.538
-59.0196 29.1064 436.812
-92.3607 9.79836 462.063
132.558 -99.1328 575.045
34.7794 -5.92696 518.591
72.7997 5.26717 563.246
-29.2433 14.0391 457.116
-56.5268 49.3529 451.731
119.789 -47.0031 588.333
52.1188 -46.4965 519.439
-14.9281 45.6184 484.162
-84.4085 -74.6 562.882
72.1101 -40.7852 541.021
101.951 -113.634 562.161
106.003 -43.5805 578.895
10.0008 -52.5549 499.414
-14.9388 39.7 482.978
114.099 -90.0618 561.282
81.2009 -17.2855 558.752
13.4227 -2.64613 491.682
-48.5954 87.0017 479.262
20.3096 28.7912 514.149
-6.81496 -42.8705 491.729
-11.3414 66.502 496.273
-81.036 -5.80464 461.544
16.9434 -7.38595 498.221
-42.4343 24.4944 449.89
-163.644 -11.2197 552.08
102.304 -47.3245 571.105
2.96871 54.4661 505.422
6.97703 -41.0054 489.439
-21.9705 46.9544 480.132
-53.8167 -23.945 477.554
-75.6102 3.68785 446.501
-125.347 13.6061 513.118
-141.164 47.6665 587.172
-52.3353 67.5743 464.745
-90.358 -3.95679 465.849
-62.9953 -27.1297 488.941
-69.1055 26.8034 435.236
-49.5008 -21.2023 476.08
-7.1748 50.3741 492.949
-108.323 -56.683 543.735
-28.0734 73.5381 485.534
-132.31 -36.8506 526.832
58.5643 -52.3124 524.688
-52.2977 12.9547 432.918
124.624 -147.864 605.327
-105.975 -0.714609 471.853
-98.1436 54.1086 518.163
30.8001 -86.1765 544.785
-27.4178 -6.62226 455.36
-33.6616 -24.4928 472.017
-37.1932 -42.9946 499.242
138.38 -48.5362 605.262
-56.4452 11.8243 427.373
-60.3222 -37.8258 502.667
-29.0058 -28.5816 476.467
92.0881 -136.971 599.049
6.47118 18.1242 496.523
-34.3906 -31.5427 482.008
-98.3915 -71.8135 560.501
-48.9712 91.6045 476.254
-72.829 -17.5224 469.759
-74.3423 4.0763 448.159
-32.5432 41.7877 467.186
64.244 -7.11083 555.492
-34.5148 2.49216 447.861
122.471 -149.056 608.041
-28.9598 6.3842 459.797
-23.3249 -41.1156 495.051
-39.5877 -26.9553 478.667
45.3648 -17.8883 522.39
-84.5044 13.8049 451.501
-131.256 8.5769 517.375
79.338 -30.3695 555.14
148.235 -109.688 591.57
-122.018 22.8551 518.318
1.65043 52.2376 503.737
-50.1282 80.1798 472.385
-112.737 23.4485 502.08
-99.5096 3.73368 468.17
-32.1773 64.4267 473.19
-43.044 70.9268 467.074
-151.789 -38.1105 552.829
71.797 -128.686 588.388
-7.51473 -10.5885 473.733
-84.1742 47.5497 487.576
96.5969 -90.5158 548.377
3.73374 -20.8472 477.614
59.4116 8.44412 552.008
78.229 -37.4524 550.372
23.1999 -16.04 502.62
-119.393 20.6089 511.034
-67.698 34.6624 440.591
59.9591 -78.6958 528.261
99.2223 -44.4581 569.727
-36.5885 10.9684 449.462
1.974 -15.6528 478.235
-98.752 -44.5283 523.273
-105.087 31.0161 500.32
94.213 -15.1459 572.61
85.3332 -129 588.249
-105.469 36.7779 507.432
-49.3412 77.1281 470.33
3.80867 54.3275 503.683
66.5418 -10.9418 548.116
-130.226 11.1148 517.015
-55.6575 -37.0234 499.966
18.1839 -73.2669 528.03
-4.03749 -40.0321 488.75
4.10974 58.1757 512.657
-7.06037 3.33622 479.15
-70.6412 31.1241 449.008
-159.147 -38.07 554.74
11.4599 -9.2532 492.73
-78.7999 57.4156 490.692
-96.8097 -13.1954 477.431
16.6374 -53.1204 498.634
-97.1817 -13.141 479.647
-41.7156 3.00324 440.821
-100.03 -67.841 560.169
40.4499 -69.2195 513.157
76.6095 -62.0756 537.978
73.531 -79.9468 529.452
130.569 -80.5586 589.93
117.965 -136.564 593.119
-33.6969 53.8032 472.734
-165.875 -29.456 538.793
3.10944 -18.4331 480.511
1.21354 -45.4185 492.321
-32.6844 76.7636 481.089
-14.3132 -25.4043 472.229
-78.1935 5.3059 446.895
108.682 -106.442 551.551
48.6106 -88.5358 544.237
-26.1813 43.2294 472.519
65.6663 -62.436 524.191
-119.409 12.3047 503.506
-98.3607 27.9533 487.435
-44.2452 90.9657 478.4
43.6831 -40.8706 513.478
113.714 -45.2392 578.381
-24.9732 -25.1704 470.561
-51.5982 -38.0848 497.353
-73.0197 17.5688 440.703
-142.592 -4.71371 521.874
-4.47531 -10.0371 475.768
-46.5661 0.698 438.276
-69.5964 73.4546 496.696
60.3887 -107.44 562.902
113.78 -61.5772 577.75
-33.9749 -3.39461 448.337
-61.8692 48.5935 458.337
-147.29 33.6019 575.445
-31.595 71.1394 479.307
1.77916 -33.8485 479.447
-85.9742 11.1595 453.789
31.9084 5.47966 523.812
-104.802 21.3983 488.751
28.601 13.2004 517.723
-41.3747 -23.7385 474.705
-125.58 19.0445 518.689
31.9126 -20.3795 509.084
-36.727 -22.1752 473.401
-90.7548 51.2646 500.116
-115.89 31.9798 517.424
-92.609 111.133 483.172
26.7184 2.87574 512.366
-90.2724 -10.019 475.888
0.313493 -63.7282 523.7
2.45489 -1.43502 485.032
14.3935 41.6446 518.652
-79.6902 58.0975 492.698
-1.27837 -10.63 478.456
19.6321 32.7264 519.983
128.28 -101.712 575.265
-78.8515 -14.3986 473.793
-45.3769 71.1732 466.355
10.6485 -8.52773 491.822
75.0649 -12.3069 554.889
-62.6578 66.7277 478.467
-77.2145 28.0339 457.965
47.844 -43.9923 515.398
-17.5784 9.43123 466.379
119.568 -66.2142 583.211
3.61364 -27.102 476.641
-73.1419 63.0503 492.266
41.4425 -27.3418 517.602
113.658 -25.3734 588.036
-57.75 56.0698 461.462
-43.0065 -15.6985 463.239
-122.187 20.1855 515.104
-103.982 -53.5656 541.672
-85.195 -63.9588 543.509
5.78929 -18.1774 481.946
-4.20505 -25.8861 468.819
-48.8942 53.2009 456.188
178.738 -73.4941 646.712
-86.9477 64.0742 509.541
-120.412 41.5896 537.332
-160.19 -30.1883 536.026
1.06293 -4.85827 484.663
-88.4021 40.9557 485.655
-99.3193 -2.94465 468.201
59.5583 -59.3761 517.283
40.8112 -26.7582 517.913
-74.3085 24.7963 453.592
8.02462 -30.2786 479.577
-69.1593 55.3427 473.919
-46.9774 6.65879 441.91
-126.267 41.0378 547.963
133.992 -70.5316 593.237
-134.577 -16.6129 504.434
17.9252 -2.13633 501.937
-37.5185 -24.5769 475.631
51.8334 -23.3085 529.522
-14.1354 -4.12528 469.376
-72.0219 -11.7374 466.957
-48.1649 -35.745 492.875
-26.8566 8.56269 460.488
19.7842 -38.1256 486.947
-34.6332 -1.16892 449.823
-88.3727 62.9894 512.935
-54.7367 10.5625 433.54
3.37618 57.1122 513.326
14.958 -2.00658 499.436
27.0227 -47.3436 495.817
-34.2838 4.14191 448.9
-10.7563 -8.31324 471.269
86.0364 -27.7147 561.518
-106.071 25.3034 497.855
-70.0124 66.597 489.869
-134.86 52.9483 583.046
-148.685 1.46275 533.787
-103.773 -68.0914 561.723
-91.2668 31.3587 480.475
-120.532 16.6397 508.832
-11.7834 -51.6531 510.176
19.6641 -90.1007 548.326
-143.811 -48.8325 563.905
84.9011 -97.6819 544.923
-47.2575 54.2406 456.331
-148.701 -18.8757 519.534
-65.121 67.3319 482.941
-135.518 -53.2045 568.755
-46.0748 23.3948 445.996
-49.7579 -2.11819 445.785
40.9302 18.4314 529.413
47.5279 -48.6801 514.621
-232.677 48.1904 630.468
-17.9265 63.2452 487.581
-150.611 21.6796 563.62
-4.58384 2.83509 481.406
30.8752 -51.0276 496.175
19.7216 43.2747 523.742
-88.8393 40.4986 487.331
18.0703 -23.8329 494.385
-160.223 13.3099 571.654
-16.4725 25.9121 479.316
71.15 -77.8103 526.673
74.9229 -13.7583 558.722
23.6065 -6.52467 505.993
-57.0946 67.4544 466.544
57.6239 -57.9663 519.815
83.9201 -56.053 547.601
-55.9859 29.3804 438.065
115.038 -142.481 600.321
-39.4622 -24.6872 474.133
22.4879 -23.0306 497.208
-10.2487 24.0516 481.672
-69.5992 -32.7172 493.852
-90.1874 47.5081 495.693
-1.15766 -52.8342 505.269
-143.298 -45.1758 546.621
6.6898 54.8897 509.655
11.4109 -36.8891 482.4
126.016 -119.521 565.78
1.52869 15.8784 491.105
-142.512 -3.24973 517.883
-80.8384 -2.1566 457.891
-14.6514 -10.0086 470.329
9.52615 19.1026 500.108
66.5315 -83.7195 528.51
101.325 -93.7992 552.233
5.19908 -1.81528 489.108
4.67699 55.0163 507.269
-115.116 42.1439 527.342
-39.8633 -65.6205 509.323
105.873 -16.8989 581.064
31.0868 -77.693 530.318
-111.114 46.25 528.561
98.602 -98.3755 547.764
-4.21298 -4.35723 477.151
-64.8398 -38.8059 504.17
-89.4699 71.8525 527.977
-4.29061 -40.3869 491.086
36.204 -36.3111 506.186
-30.9858 -49.2974 508.67
-48.8076 -0.445444 441.87
-99.6428 66.0085 535.539
31.0584 -52.7548 496.228
58.1475 16.5749 554.012
-196.17 101.31 556.786
-150.687 17.8536 557.848
-197.122 -291.656 1167.19
26.49 -52.7926 498.196
25.9513 -10.9359 505.535
-56.9867 -42.5207 506.626
-79.5163 -24.3392 488.814
-10.7747 49.9554 489.081
126.662 -98.9493 575.103
115.602 -36.9761 590.973
-79.1311 8.59445 444.685
-165.705 28.4239 598.882
97.6164 -77.5736 554.65
-41.4839 53.4595 461.511
-83.7472 49.986 489.613
62.2705 -84.6554 531.632
24.3048 -13.4264 504.577
36.1261 33.7402 533.66
9.08222 -61.9662 516.882
13.078 -56.7121 506.032
-3.16566 -24.601 470.47
-33.3283 -2.57845 442.85
-59.1531 38.8506 444.026
27.3277 -83.2542 542.131
46.2518 -54.5577 509.729
-74.3785 -10.9296 467.638
-70.0377 51.6983 469.525
-146.143 -34.6507 524.489
-91.4063 44.6184 493.424
-94.8756 -69.6592 561.052
147.39 -113.095 589.615
-64.6727 19.445 432.421
-109.044 29.3342 504.449
149.304 -147.806 600.883
5.24175 2.03733 490.019
26.7903 -2.91129 511.292
0.221112 -0.363293 484.33
8.44009 -6.94404 490.944
-41.9366 1.3551 439.969
-74.5061 2.6894 447.976
-10.9684 -19.0897 465.254
-104.21 -54.976 542.538
56.8273 -36.2364 528.409
48.4609 -34.2341 522.119
4.77812 -23.8698 478.257
29.599 -31.9176 501.98
54.9683 -38.9278 525.846
8.41469 -28.0705 482.793
0.845311 10.2303 487.784
35.1886 -34.3966 506.987
40.2156 -37.2155 511.641
-6.65404 -0.795473 477.59
69.4186 -46.0641 538.045
-32.5499 1.04759 448.538
-27.5607 -26.2549 478.441
-91.4991 8.46014 460.294
159.253 -74.0883 623.074
-34.9562 -26.2773 476.879
38.6155 -28.909 513.511
-95.1346 -15.2766 480.048
-79.5156 -3.16213 456.995
44.4925 -49.0868 509.314
55.4995 -41.2274 526.692
-30.0621 -31.6434 482.934
-0.608701 -39.3007 488.443
-23.4896 -35.1443 485.522
-75.353 -24.2609 485.256
-65.406 -27.8356 486.452
-51.467 -32.2791 487.831
-8.07342 -42.6315 493.03
57.2065 -59.8471 517.461
-103.719 24.0163 494.676
-0.665027 -46.7107 496.399
62.7555 -65.027 521.922
52.4039 -63.7516 512.895
-51.6268 -43.2187 505.839
58.9863 -73.4768 517.249
-152.928 -29.8034 529.645
13.3729 -67.2467 523.818
128.674 -97.1744 574.6
71.054 -80.3786 526.284
80.9943 -83.7093 530.941
110.249 -103.457 553.785
99.0908 -106.196 553.232
100.566 -139.55 599.336
100.18 -151.67 617.241
-27.6535 82.6923 491.429
-47.116 68.596 464.243
-46.3461 67.309 463.379
-41.6282 65.2383 460.975
-65.3817 69.9449 486.116
8.64201 48.0594 515.817
23.179 34.1561 525.618
-59.8861 37.1025 442.217
-60.893 33.4687 439.208
59.9244 12.9598 553.78
-9.21759 20.9363 481.488
21.954 -9.83274 501.206
69.3076 6.74096 560.74
-79.1883 30.262 457.757
36.4751 2.79364 523.984
-29.5029 12.5664 456.826
-10.4599 14.5543 478.47
32.1867 0.0827352 519.261
-4.24753 6.15157 482.302
-6.69383 6.0215 479.035
4.33283 3.6549 488.836
11.1271 -1.85912 494.127
-87.5653 -11.1296 470.3
-2.45945 0.589388 481.017
72.557 -14.2489 556.421
-52.1628 8.75801 431.239
-115.707 20.0995 504.292
11.8964 -4.91317 494.536
91.3651 -22.1156 572.509
19.8075 -8.67068 500.693
105.526 -26.8642 586.918
70.4081 -21.0245 550.317
56.3159 27.2421 553.66
115.755 -33.6801 591.262
-4.07415 -8.57463 475.619
130.742 -37.1573 605.241
-35.6221 -3.50136 444.402
-8.45619 -23.0849 465.892
48.8104 -23.5444 526.044
23.8552 -25.6495 498.334
46.6838 -31.0187 520.41
53.9468 -36.2325 526.394
47.5303 -40.3212 517.468
4.11022 -3.27372 487.568
-39.7273 -25.3604 475.663
-56.0379 31.865 438.607
-110.092 -47.8682 532.703
117.497 -102.044 563.799
22.0614 -78.4135 536.342
63.2045 -89.3872 539.429
88.9561 -95.6654 540.383
-127.556 -49.7933 543.974
63.1835 -91.1708 539.733
125.769 -83.2237 585.699
109.104 -109.939 555.224
41.9462 -96.584 554.771
115.77 -118.239 564.03
-91.9551 -68.7948 562.528
143.562 -128.976 581.185
126.571 -124.398 570.442
-23.5072 74.5742 488.29
133.56 -127.289 578.443
67.6536 -115.517 572.482
9.50007 43.8578 513.115
151.447 -140.815 591.963
-57.6976 52.2646 457.396
111.555 -138.303 595.643
78.0098 -132.609 593.599
102.209 -25.2259 582.437
162.501 -155.049 609.273
95.7224 -151.454 618.466
129.026 -169.784 639.827
-29.2662 80.2709 483.894
48.973 -26.9405 524.574
-50.2334 77.9859 472.131
50.4994 -39.9753 516.916
-128.145 -24.8223 509.441
-122.688 -47.806 535.458
152.978 -92.6914 605.934
-79.7615 -58.3141 533.003
95.8204 -76.8729 548.215
46.5006 -66.4035 511.124
-66.7551 -45.5262 520.258
-120.235 -53.2637 546.914
164.96 -142.486 598.343
88.7462 -133.207 588.826
142.644 -152.174 612.896
-47.9757 97.4126 481.582
-36.8557 77.1997 477.93
-51.402 55.814 456.405
-69.5691 96.1468 497.804
89.0815 -43.2021 559.934
29.2636 -35.5818 499.854
1.91513 -29.4868 473.923
140.379 -134.684 584.816
113.72 -137.783 594.322
149.249 -151.408 605.584
-35.1492 73.6106 477.757
-30.445 -6.83773 449.018
-14.2468 -10.6605 464.448
45.8974 -28.6325 518.892
157.835 -54.5999 625.977
-69.9919 -27.6635 486.64
134.403 -80.492 590.567
40.2405 -57.738 502.801
144.707 -111.951 587.313
101.743 -105.885 551.204
6.38456 51.9205 512.773
59.4691 8.42465 553.6
72.1093 -7.46125 558.114
-30.3135 2.051 450.61
52.8812 -37.8757 523.123
-29.8426 -20.4621 467.774
57.3677 -40.8373 528.581
-6.88599 -28.3734 472.949
-89.2161 -15.2951 478.148
84.5368 -71.5296 541.263
40.9455 -66.7737 513.286
17.1473 -68.8431 523
-176.434 -36.7022 548.481
-13.8964 63.8718 495.857
-61.9976 34.46 441.627
52.8864 -8.93069 537.785
50.5673 -11.8808 533.296
-13.3676 -9.23004 465.847
-1.2878 -26.1802 471.3
42.2655 -30.6867 516.134
-6.29599 -45.4148 495.39
-308.577 -243.277 1132.99
-292.9 -258.709 1131.67
-311.714 -260.909 1124.2
-58.8128 35.2394 441.276
-314.658 -275.67 1123.4
26.8343 18.502 522.237
-285.049 -250.53 1136.87
44.4023 -19.6605 526.396
-203.606 -292.406 1168.46
-276.26 -333.04 1199.89
-66.0769 -2.38799 452.365
9.42283 -5.45506 490.137
-10.1327 11.1079 476.253
10.6951 -3.61004 493.715
-119.613 22.0422 511.216
70.2724 -48.431 538.131
-1.03232 7.98021 485.165
7.03809 5.17205 492.156
-5.97466 5.07459 479.372
-101.021 25.106 487.973
-108.282 25.6908 499.015
-86.3798 -11.1028 469.977
-111.938 24.3848 502.91
-131.909 -5.80858 505.002
-117.472 20.6851 508.745
-13.8324 -42.6607 493.435
-108.057 21.8287 492.886
-5.74492 -40.5502 484.758
20.2762 -9.78104 500.737
-101.012 29.6986 493.549
5.72864 -7.52982 487.741
-110.956 22.137 499.967
8.4222 -0.413362 492.143
-101.022 27.2774 489.202
-99.9728 27.4225 490.534
6.60265 1.24247 491.06
-313.794 -231.485 1123.54
-336.184 -314.606 1179.68
-317.027 -264.004 1121.85
-213.948 -273.853 1153.09
-114.847 -64.7032 562.219
-282.278 -257.629 1134.46
-284.378 -253.56 1135.91
-241.127 -331.145 1187.83
-229.857 -331.282 1191.7
-251.056 -321.816 1175.53
-312.803 -269.725 1122.94
-219.328 -273.369 1150.32
-287.481 -254.564 1133.79
-322.351 -233.769 1125.92
-246.087 -328.098 1186.32
-248.757 -318.546 1177.85
-282.291 -284.949 1147.25
-309.613 -264.937 1128.01
-190.004 -279.441 1165.41
-311.39 -276.441 1123.36
-180.618 -314.138 1180.69
-321.464 -265.684 1117.69
-227.264 -289.454 1166.27
-296.778 -266.45 1136.56
-284.268 -348.399 1189.37
-273.905 -329.648 1199.84
-175.189 -307.461 1178.13
-40.4855 -20.5092 469.17
-289.321 -276.956 1142.54
-280.605 -273.748 1140.33
-203.184 -269.339 1153.32
-196.799 -304.139 1170.06
-309.096 -249.766 1127.09
-299.635 -215.312 1227.95
84.5464 -58.367 547.744
-30.3268 -26.4459 475.792
72.012 -49.3309 539.629
7.73961 -4.36714 491.059
-12.8077 5.19808 470.102
7.75631 2.75443 492.653
-10.6893 6.55208 477.867
-62.3077 19.3752 430.735
139.878 -152.731 608.626
-91.6216 -59.9096 542.443
-94.295 -52.7088 533.527
-152.655 -37.1676 537.753
-171.741 -32.183 544.401
-62.9726 -40.7067 504.981
60.8151 -52.1462 523.736
-93.4295 -13.1046 479.53
-17.0405 -18.9799 462.324
-39.402 61.5412 468.207
-79.5013 -6.84393 461.383
42.1191 -31.9249 516.698
-79.5707 -5.5477 460.63
-103.977 -0.829033 471.42
-77.6341 8.54626 442.811
-32.5106 54.0943 470.599
-26.599 71.5624 486.123
22.298 -85.5397 544.93
150.582 -60.3781 620.127
14.7188 -67.8088 523.076
-85.9755 -0.186743 457.088
55.3803 16.941 550.138
5.77897 26.5621 501.539
-44.0713 56.4579 460.169
98.3677 -19.0266 581.589
93.8867 -92.5444 542.324
-149.982 -43.4357 546.58
-127.483 -28.0653 513.646
-122.053 -61.3676 559.433
84.9856 -81.6744 537.977
-129.895 -16.996 501.735
-77.4648 -13.0997 468.455
81.8991 -65.2712 541.133
79.0592 -2.19719 569.806
-50.4107 16.1274 434.479
-169.771 -32.8096 544.719
18.2772 -12.0934 498.558
19.8315 -13.6759 499.639
93.3749 -131.225 589.438
-111.64 20.0622 498.594
-5.21464 60.764 503.557
0.75864 6.71758 484.971
24.0184 -16.7862 500.442
-118.17 18.6215 506.721
132.555 -82.4918 585.387
-25.9132 -36.6949 489.935
-99.0611 -5.3119 545.545
-112.426 32.9392 603.924
-308.432 -230.23 1131.78
-100.817 -3.70778 547.361
6.4474 43.571 507.322
-269.932 -253.19 1135.46
-325.184 -217.709 1120.77
-16.3307 64.2764 492.433
-108.448 42.9259 607.905
143.632 -134.435 576.438
129.055 -119.437 562.597
-122.545 -58.6708 556.057
-113.317 -55.0291 544.045
-146.586 -261.363 1093.78
78.4657 -79.1245 531.051
10.6841 -32.6166 480.79
107.924 -57.3972 570.445
-69.0976 -9.25278 461.588
-140.047 -27.24 517.16
-28.339 -44.0521 499.931
40.7826 -59.7131 508.104
-50.4194 -33.3508 491.085
4.04789 -45.0555 489.24
15.4181 -41.838 488.934
14.0762 -40.3026 482.661
-81.0264 -17.3328 470.148
83.0818 -54.6103 547.269
-100.342 -11.4903 476.734
-103.006 29.5633 493.662
-101.528 -3.97234 470.538
-54.3174 -6.14378 450.014
49.5609 -30.2655 524.284
23.2142 -5.04686 507.322
-78.9806 -59.9496 538.379
-103.255 -48.9137 529.923
-82.2444 -53.5516 527.442
-4.48767 -68.702 531.308
79.3974 -65.9601 538.583
-104.522 -8.68888 476.44
-5.37023 -16.4273 471.022
-44.6823 1.29626 439.523
40.2953 -4.13405 526.33
-63.1828 18.3862 429.572
-23.0338 11.6843 462.457
52.5112 -3.7985 538.791
10.7771 51.8609 517.233
-68.1668 -30.3733 491.036
45.824 26.5963 546.936
11.1125 34.5731 509.988
3.85795 43.8253 507.267
-2.76556 46.2235 499.832
-28.324 54.2248 474.256
7.24186 51.7038 515.739
7.24037 54.7774 516.141
-15.4253 63.2277 494.508
64.8742 -97.7189 550.502
61.7245 -76.1632 518.43
90.0273 -84.4155 541.031
-78.2211 -28.7885 491.913
84.4203 -67.2761 543.994
-31.7984 1.77464 448.785
99.1763 -17.894 582.244
97.1542 -12.1981 582.577
-28.9343 15.8117 459.122
-23.1317 30.7044 471.142
45.9509 20.1119 543.101
52.486 20.8281 550.551
-7.27989 53.5836 497.941
-24.8199 62.8753 483.094
-36.8169 88.1506 475.704
-42.482 97.8348 478.766
-98.2071 -70.3983 563.197
121.474 -111.168 563.963
-73.5922 -60.211 537.636
39.7072 -80.7899 534.746
-52.2398 -19.9936 474.419
39.1377 -42.0899 508.743
-54.9064 55.4338 457.943
132.097 -151.82 611.165
147.858 -120.732 589.033
57.3438 -84.7519 534.56
141.513 -66.9674 606.344
24.3424 -32.0554 496.669
-17.9485 27.2572 475.029
92.2801 -54.4329 556.319
-4.82241 55.322 502.619
-61.6136 -61.5904 532.321
23.1119 -7.82297 504.835
2.62599 14.3189 493.679
67.2266 -46.305 535.652
-107.142 -6.75372 476.473
-118.674 -66.7617 564.636
-48.6387 -23.9362 477.909
24.0765 -17.0489 502.998
-111.879 18.942 497.108
88.5892 -20.1838 570.641
-63.3009 24.925 436.176
-77.8252 29.7672 457.624
-106.271 45.9576 521.769
-111.091 47.642 531.875
-89.2077 42.2136 490.247
-52.9927 60.2417 460.305
-32.2174 81.0447 482.191
119.913 -133.429 583.253
55.8296 -115.771 578.598
57.6667 -113.55 570.279
59.3007 -112.182 569.899
71.2971 -90.5754 536.708
-119.944 -47.7516 540.139
125.444 -99.1347 574.767
-168.845 -30.8583 542.384
-34.3985 -39.8578 495.472
11.7588 -49.3279 497.098
-51.3101 -32.1005 489.108
-84.7268 -24.3264 487.255
-23.4598 -36.8219 486.44
158.852 -71.1863 625.202
29.5364 -38.193 498.221
38.2305 -38.9 506.449
-135.367 1.67462 516.348
57.2421 -30.4123 530.122
-68.7494 -2.38925 456.921
-154.009 14.8649 559.734
-42.521 -6.1205 450.739
-47.9445 -2.73791 446.976
-45.8341 3.9149 437.492
-39.7792 3.66985 440.567
49.8182 -6.80176 533.569
-65.8352 -16.4538 467.891
-71.5734 -14.9965 469.405
-33.0841 -16.1446 460.936
2.82772 8.32848 492.36
-52.0814 61.5708 460.893
-52.8185 70.7125 467.252
-49.8419 71.0395 464.809
0.25936 -43.3791 495.652
17.3852 -42.2318 488.299
-50.9329 72.9127 471.778
-86.8784 14.67 460.302
-18.9794 -16.0969 492.859
-56.6428 55.7305 457.949
-43.8314 1.96472 442.371
-20.1211 -39.9843 487.044
7.2504 6.48305 490.135
1.06904 -1.49161 484.709
8.02688 -5.61058 491.524
2.89139 3.19359 486.642
-65.2856 9.89835 435.672
8.82915 49.1117 517.493
-55.9253 116.225 466.502
-67.1867 48.8519 465.269
-124.538 55.5505 558.058
-68.946 35.2099 450.217
-7.75559 -4.61301 473.416
-13.3986 -51.404 507.253
20.9927 78.3396 486.117
-142.131 24.8439 553.409
-61.5536 81.6066 496.705
-11.1347 46.0139 493.429
-28.2932 -19.5072 465.476
100.804 -56.1287 567.116
76.861 -59.7276 538.71
-87.5261 61.1464 508.848
-141.682 15.7724 542.468
-157.743 14.6098 567.198
158.488 -67.5095 626.615
-56.2418 -22.7091 477.655
-1.29529 -41.1177 488.899
26.2045 -47.4948 494.493
-69.7499 -28.2576 490.456
152.034 -98.5907 603.745
-147.671 -30.2504 527.239
-5.68461 -67.8296 527.41
155.514 -138.778 592.41
81.2403 -122.961 579.844
142.998 -144.842 594.83
130.916 -151.957 611.768
-55.6084 47.3878 451.313
-60.654 37.9605 441.117
-75.4439 23.7968 451.244
-61.0186 16.0572 425.528
71.8089 -6.95849 557.777
-103.147 28.6946 494.548
-105.115 27.075 494.833
-109.75 25.3178 501.103
-117.037 18.5818 505.224
31.4862 -75.6811 528.732
51.8931 -94.3326 520.266
125.246 -129.246 587.051
-129.922 51.2029 558.075
-43.215 5.3218 437.327
112.789 -101.965 556.285
117.876 -127.535 580.48
-49.3716 29.0421 438.148
-20.713 4.24622 464.653
66.4786 -60.9022 528.783
134.662 -122.184 573.645
65.1779 -115.263 576.879
-39.2105 -29.3607 481.519
-18.688 -35.9046 486.239
-42.4648 -30.1914 483.726
125.075 -116.221 564.228
-145.336 -53.1209 558.322
115.854 -117.302 572.016
-14.7486 59.4262 489.779
-60.4655 66.4625 474.292
-38.5838 55.7217 470.276
-35.1685 17.7688 451.405
-104.5 22.1439 492.442
-39.6492 5.9369 442.896
-80.5015 6.4724 448.631
-73.3489 4.30763 445.379
98.908 -52.6534 566.446
5.29213 -73.47 533.132
98.9066 -113.797 563.054
58.0842 -13.5076 544.642
47.6736 -20.7694 527.076
75.7671 -27.6706 559.986
82.7194 -33.5651 559.755
112.686 -42.0776 587.087
52.9078 -69.2587 515.583
124.832 -98.9471 573.048
-116.115 -46.0087 538.649
52.2346 -91.6913 546.736
-108.198 35.9713 511.065
96.9928 -12.2795 581.747
51.5522 -13.4401 534.901
34.3946 -9.56737 520.971
41.9742 -20.4314 522.685
86.7145 -34.5833 560.434
-9.1592 -11.0266 470.041
2.06842 -14.8646 482.303
99.1704 -39.9773 573.05
57.6369 -30.6102 534.139
62.2311 -32.0628 536.828
127.358 -52.5755 595.732
91.1976 -45.5604 560.678
10.8833 -31.2251 484.563
-14.5579 -25.2641 470.636
70.6617 -57.2638 530.905
11.8566 -41.7493 486.089
-19.4316 -42.4464 495.622
56.6843 -69.9723 514.794
58.445 -77.7463 524.84
91.0408 -89.1676 541.225
135.17 -106.194 578.037
-101.568 -47.9199 527.992
87.2651 -95.7638 547.67
135.849 -111.403 583.001
104.369 -100.032 545.124
123.957 -110.885 567.334
36.4515 -91.7349 550.541
58.6672 -113.829 572.387
-7.75362 50.8891 497.423
16.6797 46.4201 523.454
-3.64358 48.1796 499.48
68.5691 8.0238 562.854
-10.2636 19.7402 479.48
51.5906 -1.43495 540.136
122.406 -30.7482 599.871
16.9114 -7.58494 499.557
121.007 -36.1644 598.253
40.0575 -24.2031 518.371
55.5678 -37.4491 529.44
25.1958 -29.846 498.874
-4.42291 -23.9836 470.879
-2.93604 -35.9915 481.619
131.146 -82.5842 586.145
-163.921 -14.3793 545.726
54.6382 -67.3366 513.16
61.1887 -69.9373 518.846
62.059 -91.8313 543.434
53.8577 -91.1499 546.888
32.067 -86.3984 543.475
59.3468 -95.1698 548.438
111.623 -109.735 558.922
-97.98 -64.916 548.252
-123.571 -62.7975 562.302
-10.1292 7.00767 477.812
-111.623 31.8759 510.493
10.5892 -8.33849 491.774
97.6816 -47.2461 571.982
32.1987 -30.4098 504.878
0.762174 64.239 513.514
4.96971 -50.8708 500.504
-28.0466 10.847 458.648
-98.7594 27.2352 486.974
123.343 -105.21 568.344
75.4013 -91.6103 536.818
76.4686 -109.559 563.611
-109.826 31.2896 506.51
6.94859 -50.8315 500.879
47.1924 -64.1642 507.199
-137.901 -36.9229 529.559
74.5364 -84.7649 530.58
40.2603 -16.2332 519.961
-29.3722 -43.8107 501.044
-168.425 -32.2854 541.323
58.5113 -110.134 567.63
120.528 -138.019 594.513
-5.95344 23.3412 488.93
-63.3219 32.2067 440.033
-121.399 -67.0662 566.699
-187.694 95.0276 539.213
63.3586 -25.6785 538.804
-77.8089 1.16974 452.438
-116.448 -71.1388 571.602
-4.52031 -23.0841 472.105
-54.2047 -27.507 483.273
-131.182 -52.2783 550.503
114.935 -48.7503 583.926
-146.709 -46.6248 548.4
63.0704 -99.4853 549.772
-30.198 -10.4621 453.193
-58.6304 -20.1462 475.768
-87.5712 -16.0642 478.441
-161.592 -13.2938 544.076
72.464 -75.061 526.716
57.315 -83.9657 531.642
-2.61789 -2.66867 482.373
-6.17439 -3.71536 476.323
-129.654 -28.9107 516.138
-126.137 -47.596 539.634
-50.9834 64.658 461.009
-2.24328 59.7994 506.718
-1.41543 -30.9914 471.99
-3.79465 58.9659 504.531
-16.3368 -26.9562 469.894
17.951 45.7302 519.744
1.07925 38.7958 501.448
6.7078 35.646 506.951
-65.3253 33.5212 445.6
71.7552 6.71533 563.639
-65.0925 -36.9272 498.645
-31.5472 15.428 455.961
5.56541 6.70401 491.011
-42.2171 7.08658 438.623
16.9745 -6.28005 498.671
15.3884 -6.06365 498.677
58.9884 -19.6366 537.981
57.8795 -20.8663 536.608
17.5635 -13.0935 497.876
103.385 -37.0576 577.583
111.608 -24.2487 590.291
75.435 -32.8005 550.971
2.98423 -3.31347 487.304
-128.973 11.3232 517.854
-42.4091 -7.39662 450.692
112.922 -39.4366 588.346
45.5642 -32.7875 518.277
124.835 -57.704 591.307
58.6457 -39.5014 530.178
-107.452 -5.49912 474.533
-99.0403 -12.2027 475.709
-26.9946 -37.7458 489.92
124.245 -77.8085 580.131
-28.9905 -37.1786 489.212
-31.8046 -37.0372 492.855
1.66936 -47.8505 495.211
-64.9844 -35.0114 494.849
90.1683 -72.9108 547.123
-21.6133 -61.6636 525.05
-33.1361 -44.6326 501.167
38.8196 -24.3887 516.069
97.9416 -38.2263 569.009
44.9171 -26.9116 520.546
47.0542 -32.479 520.894
48.4773 -33.5061 521.089
107.521 -114.534 561.647
-67.9405 -8.66124 463.967
-139.431 3.0173 523.627
55.7602 -40.3108 527.005
-105.088 -4.92366 475.957
113.544 -139.256 596.201
-7.33618 -29.6039 468.4
-98.7816 -11.5994 479.32
-84.5577 26.6118 465.562
-78.0732 -61.1912 538.825
-65.6372 21.6441 433.375
6.01375 -73.6497 536.452
69.3252 2.58614 560.164
-33.3317 6.29482 450.579
-45.1532 74.2145 468.337
-33.9807 78.198 481.058
168.462 -154.667 608.235
-34.869 79.7142 481.829
-103.714 -62.4048 551.705
25.3808 -85.0104 544.022
97.8314 -94.8762 545.431
107.44 -93.9058 557.026
70.8504 -77.3867 524.429
-54.5236 -41.2566 502.081
82.1859 -68.4567 540.271
47.475 -48.1223 514.764
79.3087 -52.7598 545.063
37.3475 -33.3216 509.238
44.1466 -31.5032 518.748
29.0682 -27.8699 502.59
40.8631 -29.1073 515.804
-2.88062 -9.72112 477.379
-46.3693 10.0153 436.871
-22.3047 6.53842 462.535
13.8772 0.726834 497.929
-0.951543 7.12551 486.093
25.3426 40.3137 530.185
10.8762 47.1152 516.745
61.5151 -119.119 583.865
-191.034 97.3539 540.349
-26.263 61.4845 482.168
-22.7625 68.7861 488.608
-23.4356 78.8185 490.008
-14.8273 99.4484 458.622
-12.4341 -189.081 585.613
89.5788 -142.704 606.597
-34.5167 -38.3931 492.569
116 -148.749 608.575
-160.573 -16.1725 541.08
133.905 -139.734 591.626
-2.77807 -43.9064 495.87
175.842 -150.709 610.895
-64.2393 -29.2366 489.747
169.081 -147.441 603.405
138.136 -138.435 588.822
-50.5653 -12.1285 460.142
85.73 -120.531 577.285
-138.198 5.00271 525.751
140.355 -127.135 580.583
-78.6723 -5.03433 461.247
52.3375 -105.667 564.191
51.3421 -98.2962 552.6
33.8947 -90.2153 548.692
-78.7002 -63.2766 540.173
-119.64 26.9185 518.487
137.735 -114.741 581.208
124.898 -108.125 567.49
73.0177 -89.5463 535.847
-103.801 -49.7381 528.57
83.496 -87.6468 534.095
-141.74 -36.7888 532.959
8.92237 -68.3069 523.407
122.895 -96.1674 571.217
58.104 -76.0763 521.194
-127.333 -34.7035 521.542
-13.1655 -58.4343 517.053
-141.632 -30.6357 522.947
-93.4202 -57.8641 540.568
113.526 -89.0446 565.926
5.65529 -75.8279 535.045
-50.0757 -45.1431 506.509
25.9897 -58.399 507.501
-128.144 -24.5344 510.89
-148.719 -32.7946 526.554
-44.6305 -41.9639 500.718
-166.418 -24.9475 540.949
-61.4162 -33.9656 495.356
131.903 -83.0679 589.11
-66.6208 -30.0948 491.855
-35.0855 -41.3032 497.711
37.9535 -53.3569 498.371
-60.0414 -35.3436 495.958
-18.176 -40.2464 492.059
35.9868 -49.3355 500.925
-72.2564 -24.5388 484.698
-124.633 104.288 500.719
-88.2073 -20.7379 484.842
125.848 -70.2438 587.499
-97.6842 -15.6567 478.691
-106.552 -3.41237 474.799
23.2345 -42.5799 490.295
-41.3287 -27.9153 480.349
-71.5001 -20.7002 480.974
-46.0542 -25.3488 478.297
52.017 -48.1781 519.039
-51.0433 -22.843 475.622
-17.3606 -30.2963 475.852
-13.1049 -31.1848 476.782
135.839 -54.5567 606.72
-32.0759 -8.80107 452.168
108.718 -40.3483 582.4
-36.4999 -7.38923 452.134
-33.8869 -7.45409 447.475
-25.7107 -8.01685 456.038
-5.66832 -11.7161 473.492
-113.658 13.9283 495.704
25.2861 -15.8693 502.774
109.693 -27.2223 594.356
84.5881 -140.434 606.423
36.4893 -9.95399 518.62
101.649 -21.0809 581.745
91.2608 -18.4712 574.027
31.1886 -5.87171 515.122
-37.1844 13.6517 449.501
-68.7037 21.9366 436.425
-76.1365 26.7291 454.452
77.5414 1.23941 568.26
72.4892 2.19197 562.537
10.5316 31.3533 508.165
5.62248 41.5831 507.451
-3.51105 61.628 507.425
-50.834 68.0928 464.265
-38.9312 96.4326 483.333
-15.8519 67.0381 496.6
-37.2209 71.5553 472.938
-12.7135 72.567 501.354
-28.4055 75.4893 485.519
-20.6396 76.7521 495.71
-39.3386 77.8561 474.73
-1.10583 -24.7506 471.571
-38.7003 81.864 476.895
-34.5354 82.0014 482.676
-14.1341 -20.2512 461.517
79.2304 -136.516 600.313
155.074 -145.23 597.342
111 -116.358 563.679
121.179 -112.697 561.876
-98.2635 12.8592 474.704
28.0788 -88.7 547.583
81.2718 -96.4676 542.881
-100.062 -49.7963 529.576
8.08415 -72.51 531.822
-69.2881 -54.7094 538.492
26.1426 -72.6474 525.86
-102.254 35.1745 501.652
52.9415 -77.8444 524.815
16.9958 -65.3773 518.851
-113.266 -33.304 512.683
77.0547 -76.1576 530.753
-65.8612 -40.8216 504.092
-14.0388 62.0431 495.723
50.8092 -65.9095 509.637
-20.4486 73.8721 495.267
-33.0269 -41.9535 498.47
-9.8194 -44.5935 493.733
-48.836 -31.0733 485.632
-92.4554 -21.4563 489.267
117.869 -72.2264 577.85
186.724 -90.807 648.001
-122.142 -60.463 556.584
37.7771 -46.8568 501.207
76.308 -98.2141 545.586
-128.615 -9.81931 497.906
-81.2148 -64.4094 545.563
17.3471 -39.294 486.221
-4.9581 -33.5063 479.521
-127.44 -55.1179 550.262
31.334 -40.795 499.321
51.7453 -90.9497 542.146
51.3673 -44.5152 519.521
22.465 -75.0389 531.207
81.0372 -45.7385 550.305
-5.5399 -70.3313 533.13
38.3082 -34.7359 508.457
-99.9978 -2.67693 469.779
15.8408 -28.6427 488.254
83.1558 -41.4306 554.428
140.54 -55.035 611.106
-92.939 0.636584 458.373
-57.7185 -4.52103 446.182
-57.5264 -1.30665 448.039
-48.9142 -2.18636 446.792
136.713 -42.9359 611.649
-34.9222 -4.66418 446.131
-42.7731 -1.59916 446.711
-23.8524 -5.55186 454.06
-50.7677 -10.7065 458.002
-116.998 17.9032 504.225
156.807 -56.0399 630.375
-25.5156 -2.77994 454.025
20.4763 -12.2892 499.469
82.3172 -22.7431 562.25
-55.6306 7.63077 433.05
-50.8017 7.66842 432.679
22.5655 -3.02759 506.57
-0.632288 1.74021 483.159
100.186 -17.3448 582.896
-13.7323 6.76182 470.088
73.7102 -8.25975 558.534
-63.2447 19.9666 433.198
-41.8005 15.4651 443.23
48.4479 -0.78891 534.646
23.7668 4.94375 511.691
31.4123 7.34653 521.594
41.9174 6.56241 531.91
-39.4681 1.53632 439.831
49.6254 10.0657 542.32
-7.34795 19.3229 483.812
-40.0872 25.98 436.265
-1.75275 23.5497 491.989
34.4329 20.7659 530.93
-94.9434 49.7198 507.455
-30.2273 35.6459 464.68
-6.77515 36.0336 492.157
37.0633 30.3895 538.026
9.01309 34.6094 506.624
-0.654385 39.739 500.743
11.1526 39.031 512.868
-52.5181 47.1429 450.59
-20.9473 45.9287 479.251
-71.6727 68.2465 496.201
-48.4961 64.7767 461.278
-42.301 74.9548 470.485
174.008 -154.855 607.26
37.9955 -1.02936 525.451
98.5296 -130.202 586.982
0.0945211 10.0605 485.429
63.0024 -120.243 580.811
85.0589 -114.169 568.145
-123.686 46.3724 549.821
72.4301 -109.944 564.886
159.092 -127.935 598.529
-126.283 47.5664 553.09
142.983 -118.484 585.029
113.36 -107.799 556.991
4.62089 37.0713 506.787
40.2873 -89.7455 547.302
86.1355 -91.89 535.236
21.8915 -71.6257 526.162
-24.0169 -58.9746 518.214
47.6193 -72.4298 518.923
-73.9871 -46.6442 528.932
53.827 -72.6264 517.814
-53.1118 -41.8931 506.319
44.9553 -61.5668 505.812
-111.219 -61.4229 552.716
-62.4364 -19.3403 473.812
-105.665 -59.5694 548.171
44.1873 -40.0251 512.654
-104.351 -3.94914 472.535
-89.0267 -18.2719 479.685
-55.6248 -7.80667 455.272
68.0139 -35.8239 540.016
-15.5358 -14.3323 462.189
146.486 -51.0066 619.156
2.44776 -17.7924 480.079
17.4459 -15.5922 497.495
-4.44779 -6.86102 475.807
15.52 -8.11249 497.801
62.4258 -81.7798 530.414
-5.63532 9.21462 482.824
-21.905 12.8914 461.405
-24.21 33.191 471.773
14.3546 28.4877 512.304
-42.0984 52.5325 459.924
-33.3599 51.8303 471.033
-185.266 99.3781 538.939
-25.4695 57.5377 479.456
22.5612 61.3541 527.423
-24.16 67.5864 487.788
78.9144 -146.3 619.061
108.637 -146.011 605.791
109.766 -131.613 588.593
81.3787 -120.228 581.232
-68.9413 22.448 440.377
91.5947 -121.07 574.122
-148.925 -18.628 521.308
-78.9095 -68.1304 548.263
-82.6184 -59.8308 541.793
-11.8331 -40.4077 493.086
-4.56564 -41.5488 491.981
169.232 -76.9643 633.888
-28.0398 -35.5618 493.191
-19.7892 -21.8323 467.315
132.033 -55.3443 600.498
-39.9595 -7.49711 451.224
-17.9598 -2.80689 463.854
106.751 -24.1721 588.366
115.628 -51.4376 586.808
-52.8024 10.6199 426.032
31.3658 -2.39302 514.545
30.719 -134.944 601.374
120.119 -142.321 597.192
109.391 -120.592 569.157
152.455 -132.935 590.266
30.0872 -38.1582 501.369
-71.2019 -68.8796 544.105
153.758 -121.447 596.455
-67.0532 -60.6614 537.111
22.7989 -69.0579 525.873
47.7838 -39.1418 519.106
102.12 -83.3821 555.743
-25.711 -48.1446 505.708
-10.8044 47.5862 493.568
-49.1402 67.1273 463.743
-341.007 -219.22 1119.7
-55.3612 78.5333 477.036
-68.586 2.19658 445.813
-50.3773 17.9288 437.991
-306.927 -201.264 1134.25
-59.6073 99.9466 494.541
-49.0443 78.8604 473.509
-34.2881 -32.0663 481.485
-54.8808 62.4253 462.063
110.85 -140.043 598.849
87.8526 -58.5625 551.497
-136.208 -33.7104 525.758
-155.88 -6.84851 541.775
42.8398 -2.6014 527.235
-33.0753 5.23196 450.488
-2.48072 11.0015 483.885
-78.8563 -17.5086 476.597
-30.8138 -39.5134 491.876
15.9725 -67.1158 520.483
-64.2737 -21.4629 477.985
-98.7029 -73.2442 583.295
-165.198 -35.7491 559.316
-112.314 22.2553 502.263
40.659 -70.5906 516.093
-69.8878 -10.6493 469.186
-32.8872 79.8503 480.447
121.419 -105.749 564.963
-113.526 -29.5711 514.315
-40.3753 83.1796 475.571
-60.8458 -41.2454 509.72
104.618 -131.922 588.129
18.2495 -55.8857 498.956
26.7222 -57.2187 500.305
120.3 -95.6794 571.534
21.6406 -53.4864 499.03
53.5088 -91.7481 542.452
19.5936 -52.2838 496.475
-43.3593 -2.75493 444.495
-121.132 -55.4536 549.97
-27.0573 -37.7396 490.238
-54.2821 2.232 439.024
-129.747 -46.8992 541.342
-62.6834 -28.4751 491.631
21.7005 -49.6447 493.839
74.8306 -79.7002 526.424
-96.8547 -11.7994 479.665
-95.2623 -10.9898 476.819
41.0681 -69.7415 516.719
-35.611 -41.6933 499.314
-75.5827 -13.4545 470.781
-127.114 12.569 514.02
52.9152 -67.085 510.88
65.4871 -64.989 526.102
-100.388 -3.56964 470.483
116.573 -118.683 567.379
-117.239 14.9816 502.152
-11.6158 -44.4543 496.333
-42.0671 -17.212 465.438
-137.82 4.66957 522.567
10.5126 -42.2234 490.114
-159.24 16.2988 572.57
-61.9186 48.4077 458.237
-101.129 -12.3579 479.848
-94.4329 -13.3986 476.403
11.3216 -7.58929 493.21
-41.5959 13.0917 445.423
82.7352 -112.01 566.004
-116.649 -5.54885 484.661
-64.8462 13.6122 429.177
31.0576 -39.5552 500.83
-112.546 25.2347 504.648
-52.504 -0.906328 446.439
-80.6134 7.65821 445.714
78.9901 -119.119 575.13
-150.162 -38.0511 551.858
-50.8293 76.5339 472.311
75.2976 -117.177 575.414
150.237 -114.479 589.937
119.148 -117.736 561.081
144.529 -110.135 586.884
45.2519 -130.508 592.009
42.5607 -68.0559 515.228
31.0184 -95.4888 555.128
-58.6638 -42.5584 510.227
-109.901 -63.6466 558.228
-123.024 -24.9983 512.349
-107.144 -62.7635 554.844
116.117 -33.3645 592.87
-91.4853 -67.1885 556.512
97.6325 -84.6816 551.972
-124.836 -57.3402 554.695
41.2083 -15.2923 523.246
-112.046 -60.5394 555.215
116.875 -91.4229 568.729
-110.851 -56.0625 542.984
-106.91 -61.133 552.999
-63.9924 -37.1849 501.778
-63.4732 -64.0882 535.695
20.2402 -85.6646 545.754
-129.398 -20.5857 509.147
25.6181 -83.3955 541.606
22.8602 -59.5648 503.491
54.5415 -10.4451 539.071
-85.7574 -55.0655 534.015
-47.6256 -40.6576 500.798
-82.4017 -55.7076 533.153
105.364 -85.5975 558.855
-151.746 -38.7454 541.845
40.2364 -68.4685 518.156
81.1622 -76.2922 537.077
-8.56509 -65.9617 526.082
-8.81892 -14.0551 473.539
-0.291918 -65.0207 523.263
-103.317 0.0364773 468.161
-65.4283 -7.81394 458.858
-48.8697 -11.5455 459.19
27.7014 -8.22033 510.733
-121.65 7.97906 500.704
-97.6171 3.66054 463.693
115.251 -50.8786 581.042
-111.434 9.40141 486.982
-63.4177 18.0156 429.511
8.3991 -44.4993 491.62
-130.459 3.88929 511.421
-164.256 -16.4488 543.312
-124.211 13.6232 511.096
69.191 -27.4158 545.245
4.9731 46.9982 509.302
118.48 -99.8251 566.719
17.4107 -11.1892 498.052
-34.5892 2.01144 451.168
22.7845 -12.4065 502.769
-10.0099 0.418614 473.823
50.7657 -33.8899 523.794
-103.113 35.873 502.969
7.60245 -6.65394 490.085
-129.947 30.2184 538.498
-64.073 14.3727 427.214
-64.8038 15.2898 428.024
-90.8015 38.6563 488.018
42.9085 -57.5089 505.419
61.2554 -12.8876 541.383
4.3496 -2.10083 487.766
-54.3532 15.0173 435.909
-101.579 21.0232 485.804
111.513 -19.9196 587.583
-113.457 26.8147 511.895
-101.259 34.4231 498.696
7.68729 31.5992 505.764
-85.8314 -18.2079 479.29
11.5121 -0.421317 501.083
14.5152 9.7002 502.068
16.9745 -42.169 488.71
-105.906 40.8975 512.379
-6.26242 47.2853 498.561
37.2243 -5.298 521.397
-88.8542 36.922 484.028
-89.0594 68.5452 520.806
5.37841 -37.6603 483.593
-113.235 27.6638 508.463
-64.7091 31.6538 442.944
-9.88862 48.2951 493.603
-8.95481 5.40066 477.644
-49.4208 28.1963 444.144
-8.49354 48.9844 495.908
6.864 2.47269 490.601
-61.0214 34.2967 442.386
-9.1424 51.901 496.718
-11.1583 24.9975 484.067
-54.2786 59.314 459.022
-114.695 31.4276 517.578
4.47719 33.6481 500.542
-5.59525 62.4162 504.92
-10.0748 67.4641 502.668
-50.3248 75.3069 472.784
0.241954 14.057 486.477
-55.8746 82.7185 485.107
-60.2779 35.2424 441.122
-45.0821 88.1682 477.436
-112.122 -53.157 539.375
100.101 -33.8704 575.834
-23.7077 31.9712 470.754
-151.011 118.705 502.694
83.766 -28.3681 562.14
9.09069 40.9771 509.067
128.055 -139.634 591.029
72.5159 -22.6101 549.758
-67.7896 -1.52926 452.669
-58.8124 4.97345 436.96
-39.7509 53.7234 457.629
44.3447 -103.096 559.749
-125.554 -58.1576 572.028
-59.4355 60.8114 464.907
39.9286 -98.736 555.783
-52.7191 64.6914 461.117
132.207 -122.407 572.642
145.855 -120.726 586.081
18.5189 -8.5804 499.973
-24.7038 -61.4901 521.761
109.276 -144.937 606.666
20.7673 -73.2236 524.708
47.3122 15.0434 543.152
137.938 -151.016 608.098
-32.7643 -58.571 524.276
-29.8325 82.0037 488.284
13.4992 32.6806 514.432
153.411 -150.67 605.048
76.7657 -82.7552 528.78
63.8503 -123.135 584.281
-55.7813 -45.6212 512.398
-54.555 -15.4655 466.179
147.56 -140.101 590.184
39.2164 -70.8043 517.545
83.21 -122.374 579.37
88.3678 -85.1043 541.19
-25.2943 -16.2243 461.934
-13.3292 10.8459 472.983
63.3262 -116.971 574.477
38.4687 -68.6321 512.992
-81.7681 -73.4261 549.472
25.8971 -64.059 508.734
-97.6743 -62.1636 550.389
17.7794 -58.8195 506.401
166.621 -105.954 609.886
89.5851 -98.2098 541.933
-46.3919 -39.333 499.518
152.784 -116.385 595.297
-42.5889 -40.0792 497.535
-43.3701 11.1165 438.642
-84.7918 -53.6135 529.999
40.5645 -84.7824 537.67
-4.20833 -49.6095 499.029
112.823 -154.692 607.853
-92.0187 -49.6342 528.533
97.8627 -117.288 572.511
-80.2051 -57.3106 535.795
24.2621 -57.5177 503.116
-133.707 -45.5213 542.532
-61.6751 -34.2177 494.843
76.1321 -78.3726 529.543
-109.529 21.2723 496.865
55.2042 -76.5406 522.189
24.5153 -78.8961 536.088
-151.81 -11.9155 530.066
-1.79779 -72.7482 533.76
-79.0007 -27.1961 492.572
-107.924 -46.3683 529.475
2.70744 -47.9912 494.178
-44.7811 -20.0075 473.919
-63.4816 -39.1391 503.068
-2.97775 -66.6303 527.085
-9.92517 -43.6755 492.111
-128.88 -47.9268 543.358
50.991 -74.2564 519.679
-11.5713 -40.5681 493.382
-89.1188 49.2769 496.287
-26.5369 -64.2814 528.865
-66.5699 -24.3391 483.724
54.8363 -65.8691 514.14
-140.842 -7.20575 517.078
-131.802 1.39963 510.62
-31.8907 -38.4485 493.201
-94.125 -16.6424 481.395
-98.8264 -4.39347 469.889
40.3271 -22.6056 516.328
-12.7298 4.07146 471.704
-48.7539 -25.0647 477.986
-95.1317 -3.5226 466.845
-13.6682 22.1561 478.172
-81.2129 -16.5201 473.066
-59.8393 -8.94858 458.612
-82.7029 -15.9802 473.677
75.5138 -43.7914 543.709
-26.17 -2.80474 457.485
-38.2765 11.2744 445.255
142.454 -45.4472 615.867
-4.45152 -7.32757 478.002
-45.9717 -17.2504 466.464
52.357 -21.6001 530.519
58.6953 -40.025 527.196
-31.3472 12.975 453.301
99.6716 -35.9906 573.436
-149.155 30.0638 575.812
64.0641 -41.5203 534.952
50.9615 -38.0317 524.153
20.4834 -5.64826 502.651
17.788 -78.0189 535.442
17.3105 -74.2503 531.666
-59.0267 -29.5167 484.427
-124.215 -23.7078 510.664
50.3242 -69.5599 514.151
19.605 -58.2684 503.226
48.9377 -32.3954 522.719
-20.134 -1.59417 464.016
87.0109 -79.3337 542.316
-113.974 16.0845 498.524
-151.402 -15.1426 528.787
-17.4836 -45.1194 496.321
9.92682 -1.93827 493.706
-133.275 -57.9434 557.439
-1.81352 -49.276 498.214
-36.7142 -39.8835 496.351
-107.788 20.8311 493.708
11.9006 -52.3953 500.219
22.1935 -11.2152 502.442
-53.1337 -33.7828 493.114
69.8058 -68.1344 529.143
-29.3687 -38.9989 491.043
66.1815 -114.878 576.153
-2.22732 59.143 507.032
36.9356 -55.7624 500.519
45.4001 -24.1351 523.58
-28.4067 -36.9134 489.639
56.5615 -15.4986 538.573
-53.957 -29.4184 488.66
-145.239 -43.6006 544.623
13.4214 -4.70603 495.888
-56.2943 73.7066 478.648
-125.046 -21.8288 508.868
93.0225 -53.484 559.95
-18.7022 -45.8979 497.976
20.5185 -15.8456 501.596
-163.048 129.096 495.305
49.5388 -65.6798 510.12
-0.191505 11.4294 487.03
81.7582 -9.96619 567.847
100.058 -34.0529 575.4
-50.639 28.2351 442.515
-58.4381 -7.96874 455.511
-106.947 -4.77066 475.629
-60.3516 31.8803 440.104
3.78233 24.583 496.368
-101.48 51.1309 518.75
25.9505 22.5964 517.395
34.5106 22.8138 526.588
-103.62 27.4592 494.329
0.000563778 61.8924 505.906
-99.6606 -71.2691 582.396
40.4561 -102.614 557.295
-126.637 -53.5811 562.021
-133.318 -51.7356 564.649
-321.472 -224.092 1120.02
-12.0306 47.9455 492
153.785 -131.169 589.362
-110.081 -52.3575 551.827
-124.309 13.4642 511.485
123.514 -116.535 566.599
3.60038 -78.6147 535.193
-134.041 -43.8857 551.235
-103.553 -51.141 545.887
42.9096 -89.2769 540.982
-298.961 -292.009 1134.97
120.999 -123.838 571.622
