1.00416 0.556967 2.86832
0.0644034 0.806606 1.70414
0.568806 0.643423 2.5908
1.04937 0.646773 2.52375
0.99211 0.717976 2.20768
0.974106 0.583032 2.7506
-0.101737 0.321738 4.00718
0.549647 0.668954 2.4234
-1.18789 0.573451 2.62672
0.0469929 -0.0851329 2.3308
0.642568 0.382418 3.57407
0.743132 0.722735 2.19221
0.0769179 0.757675 1.97101
0.393596 -0.550312 2.59992
1.0775 0.466574 3.17132
-1.18094 0.541508 2.84568
0.616392 0.625754 2.61066
0.0962059 -0.278487 2.26735
0.796737 0.381084 3.55583
0.222357 0.0600668 2.34646
0.987856 0.529938 2.96577
-0.116174 0.67494 2.40769
-0.726117 0.692591 2.18333
0.572671 0.59877 2.74604
0.83242 0.54187 2.92666
0.507452 0.445624 3.41449
0.379062 -0.613154 2.44029
1.01546 0.399361 3.44136
0.805844 0.476901 3.19708
0.615362 0.798443 1.83878
0.730888 0.758912 2.04638
0.193738 -0.178029 2.32201
0.105573 -0.561165 2.61617
0.056231 -0.197593 2.366
0.742939 0.811669 1.78344
0.444682 0.431016 3.52614
0.701977 0.610143 2.66688
0.0615329 0.167015 2.20956
0.305786 0.473512 3.37002
-0.507209 0.348761 3.78974
0.541184 0.769056 1.99761
0.831554 0.692817 2.30027
0.616853 0.836628 1.64282
0.804662 0.599429 2.70638
0.865256 0.522536 3.01178
1.2021 0.4429 3.27787
0.677917 0.412628 3.46765
0.0152681 -0.377968 2.27196
0.838792 0.319541 3.82344
-0.552224 0.48126 3.22531
-0.092137 0.0765232 2.25286
-0.152799 0.695888 2.26471
-0.0201858 0.484787 3.35716
0.979166 0.573409 2.79877
-0.134975 0.439773 3.53651
-0.138573 0.594749 2.73814
0.287343 0.479117 3.24302
1.10309 0.541896 2.90424
0.769944 0.70164 2.26956
0.21196 0.780569 1.8299
1.35097 0.61417 2.65508
0.549349 0.604006 2.72663
1.13569 0.48459 3.09939
0.435827 0.331639 2.62334
0.782009 0.681587 2.35545
0.0138548 0.165283 2.18329
0.527979 -0.517871 2.38092
0.33074 -0.117622 3.1793
0.526652 0.79044 1.80152
0.710532 0.697416 2.28033
-0.385813 0.457727 3.38072
0.586608 0.700679 2.28846
0.687383 0.490415 3.16175
0.844977 0.333226 3.76908
0.682987 0.676452 2.38965
0.752552 0.547357 2.95714
0.344222 0.277944 4.08405
0.64249 0.572785 2.81398
0.373072 0.81133 1.70652
0.81861 0.535933 2.96866
-0.504464 0.7558 1.86072
0.0358207 -0.166719 2.40443
-0.00536438 0.741012 2.03819
0.615079 0.633217 2.58571
0.990543 0.578988 2.77579
0.41368 -0.444867 2.69809
-0.703607 0.704404 2.12307
1.14517 0.408429 3.41834
-0.803927 0.575393 2.7412
0.368555 -0.566453 2.59741
0.727755 0.697295 2.28311
0.756339 0.399809 3.4991
0.387417 0.291578 3.90441
0.223883 -0.524446 2.65883
0.305343 -0.216971 3.0384
1.12977 0.581555 2.74984
0.853989 0.495653 3.12856
0.32627 -0.310293 2.91457
0.223033 -0.280733 3.10469
0.652003 0.688107 2.32303
1.0729 0.788801 1.99014
0.13788 0.390563 3.69085
-0.524081 0.362621 3.72129
0.809873 0.482545 3.18456
0.229903 -0.503476 2.20621
0.796195 0.396111 3.48707
0.250405 -0.237479 3.23101
1.2356 0.461181 3.20839
-0.878971 0.562959 2.79266
0.954911 0.482869 3.14403
-0.0861056 0.360529 3.81839
0.299466 0.785874 1.88159
0.148046 0.389586 3.68682
0.301442 -0.304365 2.23028
-0.554697 0.701855 2.1411
-0.493976 0.70017 2.18495
0.342598 0.317637 3.1027
0.0670632 0.342136 3.85247
0.204184 0.314781 3.23565
1.04206 0.470283 3.16187
-0.28423 0.508423 3.11852
0.697175 0.521198 3.05068
-0.471379 0.796503 1.75158
0.723502 0.700235 2.27104
1.35987 0.507378 3.04899
0.666833 0.506094 3.1297
0.688482 0.529782 3.0386
0.7728 0.574943 2.80204
0.545732 -0.540092 2.49285
-0.508712 0.80993 1.74131
-0.257918 0.780679 1.72901
0.214292 -0.263674 3.18903
0.0117899 0.743023 2.00107
0.964272 0.571191 2.814
0.299829 -0.287781 2.23989
-0.501928 0.276797 4.11956
1.02932 0.647081 2.52558
-1.00553 0.327033 3.78195
1.23836 0.430496 3.33195
-0.269774 0.477082 3.29013
0.124538 -0.472328 2.21977
0.668058 0.463342 3.28785
0.975539 0.653065 2.47701
0.515818 0.731318 2.12754
0.804578 0.748396 2.10544
-0.886699 0.722468 1.95184
0.754724 0.691434 2.33066
0.931824 0.49259 3.10438
0.62046 0.39377 2.94027
0.975606 0.552817 2.87575
1.0403 0.795299 1.9736
-0.719657 0.532131 2.93324
0.226119 -0.139401 3.36356
-0.431012 0.621951 2.55587
0.627102 0.706073 2.22767
0.540474 -0.537052 2.54365
0.11161 0.0528603 2.25944
-1.1556 0.475462 3.11439
0.681191 0.492272 3.15911
0.015002 -0.421092 2.27351
0.149625 0.0271039 2.29719
-1.03501 0.56557 2.75401
0.902553 0.551534 2.90437
1.22629 0.564641 2.81551
-0.414568 0.353446 3.7458
-1.01694 0.662111 2.27622
1.34224 0.556039 2.87717
0.683882 0.404688 3.50004
0.719866 0.541268 2.94466
-1.08151 0.524949 2.93848
1.30276 0.442531 3.30058
0.47504 0.401317 3.57819
0.823863 0.613687 2.65483
0.601098 0.619191 2.64336
0.933981 0.646544 2.52169
-0.922708 0.641596 2.38325
1.18567 0.496204 3.06393
0.424921 0.747447 2.09212
0.767482 0.514963 3.06532
-0.0555282 0.787002 1.78118
0.989074 0.454591 3.23953
0.496022 0.426693 3.51532
0.585658 0.314299 3.88961
0.465825 0.698121 2.29217
0.0985252 0.501318 3.36135
0.865396 0.395749 3.47898
-0.759749 0.585938 2.71088
0.556417 0.421581 3.18021
0.442061 -0.303592 2.30566
-0.496051 0.354513 3.71854
-0.190787 0.688883 2.29333
0.161035 0.786553 1.83741
0.102816 0.153316 2.24297
1.05238 0.433272 3.31517
0.145046 -0.439972 2.20083
0.295266 0.794816 1.82383
0.0987018 0.905583 1.31565
-0.498608 0.451938 3.44671
-0.279084 0.73704 2.02064
0.949389 0.612149 2.66051
0.632626 0.450122 3.34935
0.90854 0.543208 2.91974
0.130994 0.0233296 2.28648
0.0151116 0.0640253 2.22174
1.01066 0.438753 3.3001
-0.368697 0.646223 2.47768
0.515513 -0.373994 2.32142
1.01316 0.532598 2.9486
0.175952 -0.575192 2.6177
0.116375 0.120958 2.25792
0.660534 0.679397 2.35802
-1.15856 0.318269 3.79337
0.514147 0.596322 2.77931
0.534989 0.423671 3.51759
0.84957 0.600338 2.69262
0.400611 0.766679 2.01255
0.629468 0.659856 2.44531
-0.518845 0.482428 3.21809
-0.000876537 0.0769901 2.21449
-0.73659 0.516239 3.04925
0.752857 0.441571 3.35717
-1.28525 0.329716 3.71688
0.356319 -0.51794 2.68512
-0.126824 0.59988 2.75239
0.290732 0.82693 1.53917
0.968197 0.61278 2.64612
0.771461 0.325909 3.78398
0.150397 -0.389467 2.19939
0.689086 0.666561 2.42082
-0.214774 0.780631 1.75106
0.652406 0.55867 2.85918
0.672478 0.641692 2.5476
0.647456 0.637155 2.57785
0.00510313 0.285785 2.30969
0.671281 0.564877 2.84733
0.713845 0.728463 2.15916
-1.0052 0.398263 3.44963
-0.572236 0.370056 3.71075
0.106555 0.713209 2.19447
0.881125 0.606877 2.69032
0.164232 -0.0258767 2.29686
-0.719088 0.679335 2.24445
0.0939475 0.446844 3.49526
-0.58318 0.469798 3.29353
-1.10803 0.491248 3.05293
0.343387 0.419679 3.54436
-0.205958 0.782523 1.73386
1.02857 0.531821 2.9441
-0.689644 0.467563 3.24035
1.00375 0.594607 2.72251
0.71457 0.802747 1.84957
0.0450935 0.353216 3.83193
-0.0386619 0.150769 2.17654
0.427207 -0.517239 2.33426
-0.436153 0.721169 2.09972
0.661667 0.446424 3.34396
1.01496 0.608677 2.65917
1.25275 0.482119 3.15011
-0.582218 0.466228 3.31488
0.514396 0.831842 1.61904
-0.196288 0.380854 2.85964
-0.915009 0.571989 2.76463
0.314234 -0.0403126 3.25798
0.0428087 0.220648 2.20878
-0.632278 0.699635 2.15655
0.447768 0.772487 1.94773
0.153865 -0.279993 3.10746
-1.04848 0.694353 2.14609
-0.0230088 -0.302813 2.34369
1.08857 0.428811 3.34128
0.931473 0.672593 2.39721
0.409631 0.428194 3.52375
0.757538 0.408376 3.46034
0.520132 0.411484 3.55815
0.39599 0.70041 2.29387
0.649332 0.658545 2.4707
0.236203 -0.045288 2.36453
-0.697611 0.557692 2.84186
-1.07611 0.613532 2.49295
0.676457 0.551807 3.05613
0.544078 0.720216 2.18397
0.184122 0.324195 3.83931
0.286308 0.702401 2.28485
0.733754 0.685553 2.32533
-0.371676 0.414954 3.55751
0.259611 -0.232915 2.27679
-0.479846 0.382675 3.65698
-0.136612 0.452765 3.44354
0.936653 0.766634 2.04761
1.18082 0.640647 2.56304
0.932442 0.658028 2.45638
0.239434 -0.201096 3.30216
-0.541921 0.692817 2.19323
0.257435 0.0162294 2.38836
0.422348 -0.326059 2.72859
-0.0151731 0.16226 2.17619
0.814277 0.612849 2.64766
0.32629 0.0189004 2.47726
-0.0764706 -0.0193325 2.48025
0.0840589 0.376738 3.75164
0.894857 0.575407 2.79491
0.231321 -0.202244 2.3005
0.897959 0.616522 2.63201
0.964149 0.578111 2.76496
0.282651 0.842978 1.45427
0.629666 0.69599 2.27672
0.789493 0.655816 2.4785
-0.0156112 -0.330688 2.31642
-0.0145486 -0.520267 2.6191
1.07138 0.792092 1.97954
0.498723 0.625938 2.6145
0.506141 0.845489 1.57227
0.593888 0.777643 1.93251
0.776365 0.539219 2.9635
-0.684308 0.710343 2.09547
-0.154283 0.407426 2.87594
0.815146 0.553012 2.89338
1.40484 0.509292 3.05098
0.281645 0.75092 2.06351
-0.752707 0.65977 2.36476
0.395117 0.689033 2.35105
0.989226 0.5635 2.83918
0.378282 -0.553934 2.30764
-0.206712 0.882884 1.37737
-0.20154 0.482868 3.2435
0.451668 -0.554179 2.39381
0.400207 -0.520803 2.31821
-0.112497 0.776763 1.8255
0.983549 0.393596 3.4706
0.148148 -0.658979 2.49413
1.04483 0.547022 2.89259
0.312571 -0.178123 3.14842
-0.1207 0.318617 4.03994
0.33719 -0.319926 2.23101
0.314448 0.271652 4.09924
0.855674 0.61662 2.63865
-0.585668 0.538345 2.95285
1.00048 0.448015 3.26328
-0.281458 0.436853 3.46335
1.02278 0.342577 3.71761
0.964059 0.648354 2.51337
0.297924 0.716644 2.21357
0.911947 0.574275 2.79838
0.865998 0.76733 2.03357
0.799792 0.555626 2.87422
0.0943931 0.0581722 2.2466
0.92676 0.616407 2.64204
-0.659388 0.520081 3.03833
-0.0183478 -0.333009 2.66121
0.5354 0.375526 3.62358
-0.75314 0.779252 1.6318
0.31387 0.807683 1.77248
0.0803889 0.805697 1.6836
0.686842 0.580178 2.80761
1.19308 0.463879 3.19611
1.05457 0.510311 2.99927
0.198696 0.79216 1.79144
0.792643 0.594647 2.71401
-1.05168 0.610135 2.50927
-0.220929 0.989024 1.09641
0.56933 0.764854 1.98169
1.04849 0.391506 3.48489
0.805239 0.581873 2.77452
-0.0725902 0.481016 3.33497
1.3733 0.487356 3.19171
-0.109448 -0.450945 2.55591
-1.07547 0.638827 2.3484
-0.635484 0.459193 3.36515
-0.824338 0.518288 2.92379
0.765 0.739728 2.11356
0.204475 0.802362 1.7789
-0.0161853 0.817712 1.57469
0.212253 -0.366912 2.73783
1.24696 0.457921 3.23383
0.333324 -0.135494 3.21565
0.342293 0.743673 2.11392
0.534112 0.821372 1.69045
0.476765 0.434777 3.51094
-0.0339612 0.819613 1.61739
0.0114941 0.762627 1.95424
-0.0829466 0.724309 2.11403
-0.298145 0.436009 3.4478
0.67266 0.924676 1.72379
0.629428 0.641631 2.55402
0.655857 0.851191 1.53843
-1.01753 0.743202 1.83797
1.07881 0.481354 3.11463
0.781825 0.697845 2.28076
0.132168 0.698123 2.29068
0.387186 0.744431 2.10513
0.943457 0.792477 1.94309
0.803513 0.665699 2.43595
0.933846 0.646918 2.52063
-0.301013 0.6848 2.30579
0.120566 0.396091 3.67426
0.167835 0.357934 3.26137
0.614737 0.393789 2.93714
1.00255 0.675708 2.41679
0.363679 0.694293 2.31432
-0.884297 0.692428 2.13064
-0.311092 0.457392 3.37286
0.52721 0.425232 3.47866
0.727821 0.489145 3.16652
0.268616 -0.503247 2.67916
1.02096 0.442387 3.28067
-0.585264 0.589825 2.73443
-1.12093 0.462936 3.15796
1.1393 0.382776 3.54122
0.667312 0.453007 3.31478
0.633453 0.734809 2.13563
-0.330079 0.718249 2.10964
0.0353568 -0.538143 2.3233
-0.0333626 0.752875 1.94133
-0.365178 0.913063 1.14225
1.01143 0.535891 2.92148
-0.339275 0.278989 4.14731
0.0578704 0.3247 3.90394
0.431514 0.339722 3.84839
-1.31513 0.431553 3.28835
0.17193 0.379455 3.73128
-1.09092 0.28788 4.00849
0.190829 0.783924 1.83382
-0.489284 0.539954 2.96114
-0.455638 0.79686 1.72885
-0.449898 0.599672 2.7225
1.15614 0.474404 3.13513
0.779862 0.762146 2.05934
0.919807 0.669703 2.41049
0.561476 0.581697 2.81581
0.414166 0.721894 2.22509
0.753597 0.435569 3.37587
0.736262 0.511085 3.08429
0.741388 0.566455 2.86201
0.624373 0.414041 3.46805
0.239963 -0.236033 3.25042
0.751963 0.689607 2.319
0.360885 0.0232668 2.94324
0.49043 0.491498 3.22554
-0.557634 0.80376 1.65381
-0.0921571 0.798326 1.70846
0.409567 0.696943 2.32484
0.783225 0.618855 2.63784
0.860458 0.676738 2.37812
-0.148921 0.811594 1.60089
0.926591 0.376521 3.51381
-1.26246 0.552654 2.71236
0.566511 0.645732 2.53872
-0.371956 0.73979 1.9643
0.801784 0.50229 3.09013
0.761614 0.507366 3.08709
0.501242 0.375971 3.62556
1.13406 0.627771 2.62307
0.376132 -0.0618369 2.90272
0.114078 0.712259 2.20212
-0.701392 0.523019 3.03809
0.926884 0.491694 3.11318
0.716737 0.715274 2.22647
0.329152 -0.101635 3.22889
0.721749 0.673641 2.39817
1.00604 0.422271 3.3917
0.755925 0.483693 3.17842
0.820145 0.455285 3.27498
0.247898 0.76253 1.99788
0.98094 0.532239 2.95519
0.808329 0.524059 3.01179
0.0758792 0.698941 2.28974
0.0992791 -0.474526 2.23209
0.558835 0.316847 3.7988
0.697919 0.687184 2.35814
-0.0670244 0.194698 2.17552
0.303508 -0.666253 2.48691
-0.0174724 -0.371244 2.31096
-0.376892 0.757915 1.91662
0.136341 -0.49128 2.70875
-0.488643 0.34606 3.80207
1.20168 0.565084 2.77036
0.830653 0.589671 2.7559
0.205479 -0.487396 2.20148
-0.845553 0.551499 2.82119
0.231007 -0.0618944 2.35493
0.438948 -0.309972 2.30112
0.609421 0.470766 3.30018
0.496547 -0.38334 2.30688
0.817247 0.596168 2.73218
0.371728 0.463456 3.42128
-1.2148 0.431129 3.30155
1.04013 0.598453 2.70096
0.709084 0.489195 3.15972
0.916607 0.698672 2.30761
0.147083 0.820314 1.61935
0.306382 -0.178441 3.23294
0.175512 0.717418 2.20756
-0.431643 0.581698 2.78555
0.00656736 0.620068 2.53597
0.117187 -0.608331 2.57489
0.516925 0.409164 3.56264
0.899969 0.382263 3.51734
-0.672272 0.47119 3.22864
-0.56344 0.694354 2.18014
0.152963 0.498929 2.43781
0.068831 0.00623075 2.26815
0.150793 -0.191867 3.28639
-0.637922 0.314212 3.90715
0.803047 0.629382 2.59862
0.987581 0.540028 2.90996
1.03145 0.443601 3.25999
0.902487 0.379784 3.52952
-0.281427 0.65909 2.45522
-0.84558 0.688703 2.18884
0.765432 0.577197 2.79207
-0.483081 0.445813 3.3687
0.420617 0.419325 2.53843
0.325572 -0.400182 2.22173
-1.01384 0.642848 2.34618
0.306238 0.0238009 2.99201
-0.643698 0.594921 2.67932
0.84301 0.448333 3.29775
0.246243 -0.237722 3.23747
0.943554 0.667503 2.43734
0.41365 0.770311 1.95085
-0.523123 0.651258 2.41753
0.14605 -0.451718 2.20198
1.25039 0.605608 2.68012
-0.281481 0.66973 2.38735
-0.703722 0.48349 3.15407
0.671137 0.707976 2.2428
0.65051 0.76684 1.97961
1.13016 0.346025 3.83831
-0.998388 0.616785 2.48678
-0.427531 0.673016 2.34496
0.804262 0.410204 3.4429
0.466432 0.404516 2.77098
-0.361667 0.38438 3.63048
-0.0543348 0.140596 2.17943
0.182968 0.800824 1.76575
0.86394 0.349255 3.70593
0.523219 0.445268 3.22448
0.846546 0.672244 2.40375
0.786641 0.684495 2.34409
-0.558902 0.734852 1.93392
1.1474 0.501958 3.04276
-0.100257 0.747319 2.00159
0.703959 0.739563 2.08659
-0.174566 0.702239 2.22648
0.554901 0.417134 3.50957
0.17216 -0.501298 2.69939
0.608864 0.449757 3.37858
-0.38615 0.819494 1.60604
0.223566 -0.178423 2.31524
-0.0442727 -0.255731 2.60812
0.223372 0.456053 2.46261
-0.909256 0.731546 1.85262
-0.0354189 0.44303 3.50113
-0.441541 0.69661 2.22211
0.745987 0.603964 2.6832
0.527502 -0.506808 2.36718
0.452978 0.813639 1.63856
0.359364 -0.216847 2.94843
0.381459 -0.375365 2.23582
0.329855 0.263711 2.48851
0.287718 -0.339431 3.00378
0.792518 0.774574 1.9976
-0.538159 0.525641 3.06959
0.647319 0.410703 3.48532
0.714269 0.740152 2.10662
0.370523 -0.606674 2.37203
0.567415 0.76358 1.9882
-1.07047 0.512851 2.95899
0.419118 0.435019 3.51185
1.02448 0.588291 2.73948
-0.542744 0.422068 3.53519
0.126688 -0.588112 2.59607
0.636242 0.77228 1.93873
0.275923 0.813809 1.70628
-0.362059 0.421275 3.55529
0.894872 0.33271 3.8898
-0.363656 0.560998 2.87214
-1.35254 0.449587 3.15038
0.565039 -0.514907 2.4524
-0.744115 0.572625 2.7469
-0.0643185 0.0264559 2.27657
0.563301 0.41377 3.51806
0.173734 0.493105 3.37317
-0.31231 0.653195 2.48699
0.154233 -0.606144 2.58352
0.496543 -0.383349 2.30688
0.111635 0.502628 3.35557
-0.472286 0.468726 3.25903
-0.404357 0.530108 3.08659
0.262904 0.343697 3.76893
-1.21958 0.496675 2.98956
-0.566828 0.677238 2.26627
0.61007 0.659053 2.44472
-0.239447 0.436854 3.49994
0.845935 0.655414 2.49792
0.601037 0.423326 3.46812
0.05127 -0.330105 2.25383
0.522989 0.60202 2.7399
-0.39074 0.641297 2.49247
0.817103 0.381174 3.54353
0.437605 0.756319 2.05446
0.359133 -0.482866 2.25747
0.406881 -0.264015 2.4549
0.605953 0.438706 3.39987
1.02246 0.624134 2.60051
0.0556415 0.758901 1.97987
-0.676167 0.509464 3.08599
0.307084 -0.406203 2.21631
0.964375 0.627784 2.59051
0.847138 0.537382 2.93612
0.851837 0.436094 3.33834
0.454738 0.478558 3.21573
0.808398 0.677394 2.38158
1.053 0.429284 3.3409
-0.0161343 0.788163 1.8141
0.827486 0.570963 2.82823
-0.86377 0.669821 2.25776
0.643595 0.448526 3.36792
0.300401 -0.194096 3.03704
-0.971271 0.705399 2.07085
0.365391 0.817675 1.64749
-0.404577 0.664338 2.3923
0.474472 0.296212 3.98413
0.343721 -0.0354316 2.94602
-0.0975961 0.484692 3.31579
0.824988 0.635644 2.55896
0.766883 0.616745 2.63831
0.960108 0.700377 2.29526
0.0510918 0.191446 2.20556
-0.755035 0.750705 1.89383
0.280961 0.445383 3.48644
0.453655 0.693108 2.31599
1.17951 0.476875 3.14138
-1.00969 0.726254 1.94433
0.711937 0.608317 2.67794
0.82923 0.463927 3.24723
0.750341 0.56527 2.85654
-0.358249 0.43716 3.42844
0.414959 -0.586428 2.42232
0.267973 -0.376691 3.0069
0.211474 0.487615 3.29034
0.26336 -0.383542 2.20127
-0.792086 0.72104 1.9888
1.21589 0.53718 2.86619
-0.0445806 -0.380917 2.39811
-0.6715 0.433029 3.40821
0.592203 0.567451 2.87178
1.13743 0.468558 3.17582
0.348501 -0.294832 2.94784
0.781163 0.474988 3.204
1.15008 0.535814 2.89201
0.620906 0.682002 2.37818
0.421182 0.394164 2.56374
0.119923 -0.491371 2.22782
0.614265 0.327564 3.78851
0.257262 0.840253 1.44236
-0.351212 0.379959 3.64168
0.582007 0.406813 3.54812
0.929691 0.652441 2.47987
-0.675232 0.58129 2.76429
0.66578 0.544953 2.9353
0.626737 0.742607 2.08495
0.112057 -0.323338 2.23827
-0.135426 0.785894 1.73547
0.469783 0.33445 2.92332
-0.285759 0.58284 2.78121
-0.138511 0.711054 2.17918
0.655655 0.522758 3.13108
0.379256 -0.166693 2.92011
0.377831 -0.620179 2.47274
0.6843 0.411046 3.4682
0.657552 0.661939 2.42494
-0.108483 0.736581 2.05049
1.02884 0.569974 2.82111
0.500629 -0.556508 2.51312
-0.083539 0.336625 3.93703
0.838274 0.874441 1.59787
-0.176798 0.510085 2.90976
-0.0136443 0.0958809 2.20202
0.285518 -0.352488 2.99186
0.806577 0.705891 2.24398
0.251796 -0.483315 2.20521
-0.652271 0.25778 4.19739
0.323187 -0.278152 2.25402
0.716112 0.827205 2.15513
0.536794 0.834566 1.61608
0.620423 0.834356 1.6811
-0.526072 0.572946 2.82517
0.40334 -0.601015 2.44529
0.954401 0.651339 2.49607
-1.05902 0.341308 3.71567
0.137483 0.0536754 2.2839
0.452156 -0.421763 2.28188
-0.785562 0.766258 1.66099
-0.644387 0.721855 2.03955
0.389448 0.847758 1.46401
0.613846 0.864393 2.04201
0.143486 -0.267348 2.2625
-0.154381 0.43239 3.56903
-0.542368 0.604069 2.68043
-0.0860161 0.480719 3.33069
0.96347 0.47369 3.17442
1.03217 0.506508 3.01262
1.04675 0.680729 2.41984
-1.29129 0.540032 2.78359
0.9388 0.391311 3.47165
0.814372 0.318077 3.90189
0.0551035 -0.295857 2.92448
1.19947 0.543922 2.86839
0.546191 0.531365 2.90727
0.233827 -0.538284 2.64852
0.826902 0.560595 2.87322
0.656921 0.637459 2.58229
0.864112 0.698798 2.28049
0.711767 0.587041 2.77852
-0.187664 0.506138 3.03371
0.494815 0.871264 1.45327
0.0491235 -0.237378 2.32139
0.734637 0.70657 2.25658
-0.0601595 0.478908 3.35286
0.0499242 0.0109605 2.26222
0.867832 0.488382 3.14118
1.02491 0.495864 3.05653
0.141641 -0.258852 2.27078
0.941487 0.414936 3.40873
0.963305 0.646322 2.52183
-0.787185 0.770836 1.63438
-0.584431 0.48688 3.20913
0.989157 0.66341 2.46131
-0.135572 0.37376 3.75982
0.294844 -0.160383 3.27227
0.77064 0.704145 2.24986
0.622512 0.674365 2.39734
1.07965 0.573895 2.79593
1.23373 0.631454 2.59614
-0.87162 0.280836 4.04788
0.994689 0.391494 3.48258
0.856893 0.431184 3.35646
0.927211 0.646408 2.51857
0.68975 0.6348 2.58378
0.34829 -0.632424 2.39555
1.08272 0.56966 2.80638
0.176294 -0.575078 2.61424
-0.36128 0.310362 3.84821
0.407744 0.334843 3.86693
0.0756191 -0.330668 2.81857
-0.270747 0.755867 1.92219
0.381989 -0.154689 2.9168
0.274505 -0.388243 2.20537
0.261562 0.724994 2.15366
0.121583 -0.587824 2.59521
0.143125 -0.576444 2.60809
0.824549 0.47905 3.18054
0.653714 0.680494 2.3522
0.928673 0.630728 2.58942
1.35559 0.453633 3.28639
0.0216724 0.718246 2.18819
0.290205 0.804302 1.77054
0.666736 0.700695 2.27739
0.462996 0.31794 2.68058
1.12071 0.577726 2.76378
0.964929 0.533201 2.9513
-0.946971 0.401425 3.45275
-0.537331 0.631835 2.49532
-1.12077 0.540425 2.85462
-0.537465 0.480116 3.21869
-0.222506 0.518497 2.61364
0.0316379 0.343649 3.86432
0.798497 0.502078 3.13318
0.987659 0.670014 2.43429
-0.134393 0.689154 2.31482
0.488112 -0.380748 2.30313
0.268613 0.827716 1.54665
0.730607 0.614305 2.64043
0.0981514 0.356279 3.28022
0.367048 0.45551 3.45119
-0.92222 0.558128 2.80779
0.445468 0.389453 3.6069
-0.628051 0.531891 3.00233
1.31162 0.5351 2.94222
-0.837875 0.744804 1.816
0.718719 0.521643 3.02472
-0.264515 0.843096 1.51607
0.365839 0.482469 3.31787
0.697364 0.548417 2.91598
-0.465721 0.450859 3.3808
0.414964 0.707871 2.27882
0.109007 -0.488826 2.23201
-0.228681 0.678722 2.35095
1.14047 0.412886 3.41072
1.0501 0.663789 2.4668
0.146033 -0.352922 2.20766
0.291972 0.445817 3.48346
0.220252 0.754806 2.03707
0.826332 0.501143 3.11069
0.535127 0.677539 2.34545
-0.168066 0.407293 3.60802
0.862903 0.670471 2.40283
0.326569 0.358616 3.72656
0.50881 -0.51068 2.35411
0.356361 -0.624549 2.38865
0.35566 -0.15395 2.94705
-0.24913 0.493641 3.19843
-0.0570701 0.202058 2.17503
-1.50269 0.430276 3.19647
0.0283797 0.515411 3.23922
-0.506782 0.650835 2.42752
0.764659 0.728802 2.18307
0.867669 0.543711 2.91577
0.613028 0.40402 3.51172
1.09038 0.632812 2.57068
1.12117 0.52645 2.94543
1.18868 0.54009 2.87034
-1.38531 0.484519 3.01993
0.577223 0.592706 2.76676
0.644666 0.33891 3.75045
0.790124 0.553026 2.88432
0.864763 0.71255 2.2472
0.452452 -0.501963 2.62224
1.01995 0.577721 2.76729
-1.07041 0.633097 2.38854
0.320452 -0.115465 3.1548
0.829048 0.672603 2.39041
0.0418989 0.695035 2.30667
-0.0775132 0.789254 1.72386
0.365142 0.777337 1.92938
0.136952 0.286912 4.07168
0.273284 0.717543 2.19828
0.610448 0.747436 2.06436
0.264262 -0.200158 3.2889
0.343078 0.831784 1.5237
0.906546 0.506412 3.05028
-0.965764 0.566962 2.7643
0.5633 0.64354 2.59977
0.980635 0.65054 2.50635
0.644497 0.639643 2.55031
-0.0675128 -0.370454 2.62438
0.496542 -0.383359 2.30687
0.0610154 -0.220083 2.33996
0.826442 0.52444 3.01199
0.34546 0.371832 3.75092
0.78413 0.3482 3.68775
0.862688 0.722189 2.21465
0.339977 -0.0122632 2.94781
0.321172 -0.576932 2.589
0.728613 0.764838 2.0338
0.633537 0.381467 3.57966
0.149111 -0.399804 2.19968
0.743279 0.507538 3.11288
1.13175 0.533044 2.92382
0.241312 -0.615894 2.57749
0.260955 -0.326355 2.21345
0.524609 -0.409585 2.32459
0.259292 0.406386 2.44449
0.389647 -0.187924 2.86697
0.559009 -0.0652688 2.71417
0.440857 -0.21383 2.72197
0.00648665 -0.593482 2.54536
0.694484 0.717821 2.18778
-0.220876 0.787012 1.70461
-1.00416 0.591253 2.5995
0.812573 0.679005 2.37379
0.55198 0.417395 3.51489
0.769811 0.397713 3.50529
0.353599 -0.349867 2.22672
-0.318804 0.723218 2.09686
-0.997268 0.569879 2.74648
0.540258 0.842948 1.57485
0.0332733 0.52376 3.26775
0.249335 0.466509 3.42784
-1.05048 0.594041 2.5716
0.857213 0.65147 2.51146
0.566284 0.667878 2.4452
-0.274607 0.6776 2.3494
0.798947 0.539044 2.93288
0.638435 0.429934 3.43953
-0.154395 0.749143 2.006
0.652856 0.236595 4.28951
0.396761 0.730484 2.19571
-0.630403 0.494908 3.13794
0.305673 -0.215526 3.03884
1.0959 0.3595 3.71002
0.673564 0.43705 3.42204
0.802973 0.686091 2.32109
0.303051 -0.181713 3.11268
0.319824 0.788227 1.8764
0.357499 0.764089 1.99034
0.993017 0.513461 2.99952
0.372973 -0.600847 2.34825
0.211154 0.744722 2.07213
0.577202 0.685667 2.33472
0.709583 0.555833 2.89471
0.958388 0.603611 2.68361
-0.0893472 0.0900121 2.23546
0.942736 0.621736 2.61404
0.0723865 -0.233404 2.31899
0.5575 0.793467 1.81749
0.476649 0.837003 1.58726
0.101435 0.697498 2.29808
0.396035 0.765076 2.02388
0.408662 -0.423283 2.25816
-0.580271 0.451357 3.37282
-0.553666 0.439681 3.46355
-0.554095 0.598068 2.71874
0.0632259 0.312268 3.92063
0.825528 0.679984 2.37128
0.252837 -0.499624 2.67427
-0.310044 0.861452 1.47454
-0.306734 0.289837 4.09577
0.464552 0.44356 2.81897
0.10482 0.381322 3.738
0.0983686 -0.394045 2.71512
0.425262 0.759455 2.05285
0.841302 0.606734 2.6696
0.19526 -0.549276 2.65413
1.02691 0.598872 2.70215
0.633092 0.345861 3.73802
1.06768 0.388614 3.50456
0.365636 -0.21794 2.93656
0.334743 -0.238747 3.00619
-0.040261 0.0910358 2.20982
0.843636 0.534295 2.94764
-1.18243 0.40836 3.39791
0.666127 0.747968 2.0694
0.672134 0.653892 2.50586
-1.05244 0.672913 2.21469
0.0793737 -0.513881 2.68115
-0.565279 0.705501 2.12466
0.406666 0.412014 2.53262
0.954287 0.548317 2.89806
0.826906 0.628866 2.59053
0.322887 -0.296629 2.81632
0.269874 -0.272047 3.06082
0.330334 -0.177489 2.97131
0.715329 0.644999 2.53753
1.19222 0.457983 3.21312
0.379943 -0.409532 2.24384
0.584252 0.469285 3.31232
0.479538 0.473822 3.32638
0.71049 0.776494 1.98786
0.55292 0.58499 2.80523
0.667012 0.828613 2.09433
0.799414 0.865635 1.54238
1.13421 0.626668 2.62667
0.860896 0.447115 3.30061
0.32534 0.824214 1.6246
-0.346519 0.597792 2.7211
1.11052 0.430878 3.32128
0.331166 -0.152792 3.18588
-0.768307 0.673777 2.27495
0.534186 0.443561 3.42438
0.967082 0.486014 3.12189
0.276204 -0.607623 2.57392
0.219247 0.340856 3.77886
0.790526 0.471753 3.22189
0.27309 0.76441 1.94075
0.269574 -0.440177 2.21204
0.70768 0.456328 3.31345
0.0252313 0.00393872 2.2692
-0.967526 0.198264 4.78651
0.272682 -0.335188 2.21298
0.187166 -0.582265 2.61156
1.29297 0.490895 3.1016
0.824916 0.660723 2.44265
0.717425 0.637274 2.57349
0.957058 0.537409 2.92415
0.279721 -0.202503 3.25701
1.03313 0.434776 3.31371
0.603612 0.474435 3.26017
0.654504 0.739312 2.10722
1.01897 0.629247 2.58465
0.54397 0.672438 2.37137
1.21 0.563528 2.81123
0.574063 0.592579 2.76926
-1.19948 0.604914 2.48845
-1.0295 0.542411 2.84972
0.714733 0.558681 2.86984
-0.0204269 0.732233 2.06885
0.9997 0.5883 2.73957
1.14262 0.65082 2.50056
0.0294915 -0.41545 2.2603
1.13409 0.580549 2.75135
-0.520251 0.757683 1.85361
1.08968 0.40061 3.46102
0.872405 0.531462 2.97017
-1.0804 0.545484 2.83693
0.0634502 0.175283 2.21061
-0.00858783 -0.518087 2.62441
1.37123 0.565741 2.83857
-0.623295 0.747739 1.87547
0.928494 0.576333 2.79283
0.799093 0.456706 3.2586
-0.445922 0.858872 1.23612
0.570576 0.664037 2.43152
0.85807 0.653266 2.4937
0.127955 -0.55709 2.61831
0.301794 -0.0141406 3.06853
-1.17106 0.395379 3.4777
0.394664 0.0988516 2.89159
0.953191 0.688054 2.36085
0.993445 0.712033 2.22209
1.18547 0.520045 2.96123
0.974236 0.638694 2.54706
1.13666 0.479148 3.11706
-1.23201 0.606138 2.48023
-0.177172 0.44468 3.53538
-0.363707 0.674138 2.35898
1.08009 0.445418 3.27381
0.987009 0.341666 3.65149
0.895534 0.422037 3.38562
0.50503 0.369685 2.85785
0.753911 0.782038 1.97059
0.534925 0.677742 2.34428
0.325058 0.358305 3.73181
1.17973 0.417869 3.39852
0.772743 0.647796 2.50712
0.607283 0.399694 3.53157
0.331603 0.07564 2.48365
0.600628 0.578936 2.80248
-0.188603 0.424834 2.46991
-0.423994 0.689817 2.24629
0.105203 0.112728 2.24599
0.989344 0.425761 3.3458
0.595313 0.771866 1.95082
0.967171 0.674776 2.39891
0.764045 0.509864 3.08317
0.805861 0.731359 2.17976
0.283184 -0.0703835 3.03951
-0.213976 0.728232 2.08124
1.13237 0.474326 3.13866
0.345632 -0.522229 2.67509
0.278215 -0.211413 3.21847
0.967063 0.520871 2.99496
0.596714 0.604421 2.72727
0.429934 0.781343 1.91324
0.125361 0.764922 1.96704
0.132401 -0.302115 2.24484
1.08787 0.629563 2.59656
0.51813 0.678165 2.3457
0.494563 0.46572 3.33782
-0.790938 0.612329 2.58742
0.405955 0.257761 4.17164
0.45729 0.724527 2.20159
0.0528997 0.0441881 2.24001
1.02028 0.451527 3.23216
0.0807791 0.0457349 2.24496
-0.506545 0.633757 2.50327
0.822785 0.702638 2.26586
0.164112 -0.0489536 2.30905
0.0525483 0.803196 1.73048
-0.528221 0.671163 2.31523
-0.391763 0.739716 1.96134
0.821219 0.537233 2.96497
0.597865 0.732762 2.1271
-0.608476 0.403155 3.47825
-0.510843 0.72802 2.01813
0.857956 0.826478 1.73023
0.88169 0.796972 1.87307
0.00590404 0.008012 2.26546
0.706395 0.635214 2.57881
0.212637 0.77602 1.94561
-0.183093 0.36144 2.46944
1.0076 0.395087 3.45782
-0.698822 0.409752 3.45918
0.460972 0.796268 1.737
1.09207 0.629901 2.62139
0.399227 0.768342 1.99446
0.980579 0.435915 3.32078
1.20722 0.450689 3.23899
-0.971692 0.598637 2.56977
-0.806306 0.576943 2.73802
0.483463 0.665608 2.46749
-0.135671 0.109593 2.59086
0.313047 0.383325 3.62723
-0.302635 0.700857 2.21539
0.321813 -0.423138 2.22292
0.281084 -0.684302 2.42355
0.115791 0.394848 3.68913
0.60362 0.496576 3.20744
0.774653 0.515625 3.04981
0.837251 0.759796 2.07682
0.627506 0.617377 2.64839
1.13872 0.500012 3.03697
1.22779 0.56937 2.80895
0.391241 -0.0823029 2.83861
-0.313247 0.66969 2.39305
0.2366 0.784261 1.89373
-0.754663 0.613507 2.59799
-1.10383 0.618612 2.44853
-0.10128 -0.0730556 2.81486
0.769627 0.510136 3.08968
-0.45729 0.649308 2.46258
-0.120788 0.335794 3.17587
-0.297386 0.489871 3.23733
-1.38357 0.563294 2.64781
0.9792 0.571099 2.81148
0.0138358 -0.37697 2.67659
0.430353 0.338208 3.8514
0.685773 0.636107 2.56234
0.0578404 0.417247 3.61243
0.513764 0.663559 2.47705
0.901234 0.551406 2.90226
-0.21417 0.927973 1.17135
-0.204654 0.72201 2.11838
0.279401 0.404381 2.45642
1.07021 0.564307 2.83105
-0.596403 0.772793 1.81538
1.24071 0.542437 2.90175
0.498253 0.559143 2.84437
0.784282 0.753459 2.08847
0.683436 0.59142 2.75759
0.0495226 0.570307 2.46904
0.797432 0.81844 1.74507
0.38106 -0.193989 2.90741
0.785863 0.462701 3.24801
0.3027 0.0243591 2.9945
0.0560635 -0.189877 2.37063
0.167033 0.823141 1.61287
-0.857494 0.357281 3.71678
-1.11073 0.641511 2.33322
-0.579643 0.703621 2.1368
-0.557212 0.604308 2.68655
-0.266892 0.701128 2.21744
0.354943 0.109627 2.5601
0.407848 0.689849 2.34452
0.850761 0.745432 2.10553
1.31304 0.465037 3.25005
-0.625253 0.718823 2.05394
0.855678 0.521515 3.0224
0.298345 0.760161 2.02942
0.986608 0.667715 2.44186
0.650028 0.696648 2.29795
0.698624 0.707419 2.25432
0.12147 -0.495861 2.7074
-0.18095 0.812753 1.63362
0.674242 0.643643 2.53595
0.680777 0.784868 1.92646
-0.431822 0.653448 2.43928
0.610155 0.6003 2.74212
1.0748 0.794943 1.8957
0.256474 -0.3696 2.20157
0.924748 0.547842 2.91411
0.117509 0.413125 3.60773
-0.0348648 0.240826 4.28975
0.811981 0.396134 3.47821
-0.970395 0.388893 3.51121
-0.758142 0.673333 2.28777
0.776641 0.657911 2.4765
0.53138 0.704387 2.25288
-0.877512 0.731796 1.90855
-0.701954 0.476527 3.18474
-0.176437 0.461123 3.39502
-0.332307 0.711108 2.14465
-0.268578 0.625074 2.59164
0.324073 -0.114998 2.97568
0.284855 -0.508693 2.66657
0.997191 0.535626 2.93499
-1.08625 0.635225 2.36357
0.0717178 0.214046 2.2286
0.221698 0.832008 1.4569
1.08036 0.497648 3.03869
0.332859 0.364379 3.74858
0.324112 -0.0783458 3.21172
0.567409 0.690765 2.32577
0.0173993 -0.521111 2.33486
0.469424 -0.346999 2.30155
-1.17991 0.477577 3.11066
0.398761 -0.0622622 2.82264
0.307178 -0.366526 2.2161
0.257196 0.785965 1.88259
-0.12267 0.0948801 2.54898
0.223836 0.784981 1.85521
0.675376 0.559959 3.0776
0.30358 -0.204896 3.12416
0.427718 0.801332 1.72372
1.06199 0.345929 3.71845
0.598294 0.700475 2.29619
0.606687 0.705685 2.25692
0.0929296 -0.491126 2.70592
1.10268 0.500415 3.03164
0.759326 0.719695 2.20237
-0.563879 0.654188 2.38562
0.513767 0.482048 3.2908
1.1398 0.497855 3.04859
-1.16669 0.474343 3.12485
-0.618394 0.362629 3.75546
1.26934 0.45346 3.24466
0.811934 0.447831 3.29529
-0.114879 -0.0264093 2.84389
0.548141 0.769034 1.97664
-0.163669 0.811531 1.62103
0.51534 0.831442 1.61153
0.0819057 0.0190682 2.25841
1.11827 0.635866 2.59146
0.805518 0.410375 3.44236
0.145532 0.730746 2.13921
1.25336 0.548224 2.89011
1.18136 0.414958 3.40981
1.02344 0.605611 2.67976
0.355566 0.749708 2.08591
0.399214 0.467835 2.4873
-0.532362 0.762278 1.84336
0.708502 0.306974 3.82449
-0.04365 -0.521863 2.58773
0.529485 -0.474639 2.3454
-0.759422 0.468021 3.19652
0.159917 0.715709 2.21477
-0.580213 0.363236 3.73145
1.21952 0.649746 2.46959
-0.0375404 -0.211391 2.58484
-0.600983 0.694124 2.16103
-0.613759 0.702303 2.1342
-0.143973 0.690287 2.29673
0.151499 0.826575 1.61978
-0.713868 0.701291 2.15038
0.353078 0.368604 3.13981
0.533467 0.605264 2.7237
-0.89397 0.284139 4.35845
0.597377 0.299051 3.13279
0.769921 0.580959 2.77316
1.1298 0.514595 2.98992
0.117836 -0.508955 2.2355
0.49253 0.794605 1.76549
0.920847 0.617109 2.63482
0.453255 0.322811 3.85163
-1.24804 0.444946 3.25398
0.594437 0.467204 2.92483
0.127927 -0.477922 2.71043
-1.28558 0.616785 2.43509
0.815659 0.735821 2.16545
0.882837 0.415912 3.40765
1.14202 0.63998 2.55312
-0.602938 0.389509 3.6654
0.951062 0.767358 2.04504
0.083925 0.432135 3.54526
-0.349247 0.683043 2.31003
1.05341 0.446476 3.27349
1.09746 0.47108 3.1584
-0.86872 0.55105 2.82372
0.475932 0.776857 1.92137
1.37359 0.518243 2.98778
0.351002 -0.599886 2.31548
-0.397876 0.472136 3.24652
0.586135 0.415959 3.4792
0.354666 0.824005 1.61902
0.123657 0.0848251 2.26502
0.215577 -0.544619 2.65586
0.201572 -0.177785 2.31973
1.12616 0.425874 3.35915
1.01167 0.58649 2.74719
0.996771 0.572913 2.81063
1.04779 0.513525 2.98608
-1.42963 0.41825 3.30383
0.923427 0.579316 2.78095
-0.548621 0.80086 1.64856
0.901164 0.828029 1.72097
0.238234 0.809598 1.70366
0.245066 -0.186361 2.30658
0.903951 0.448158 3.28341
0.494976 0.691563 2.30283
0.633071 0.609932 2.67828
0.757596 0.667354 2.43573
1.1328 0.383959 3.51636
0.0190054 0.3934 3.70535
0.569745 0.853143 1.50814
0.844375 0.786404 1.91047
0.348505 -0.590089 2.55998
0.0934556 0.797425 1.78595
0.44561 -0.486182 2.32077
-0.116914 0.0884522 2.28053
1.17877 0.608295 2.64714
0.410429 0.699765 2.30777
0.542267 -0.426632 2.35927
0.876828 0.376735 3.53645
0.0936917 0.245176 2.34178
0.298635 -0.127462 3.00694
0.972383 0.770565 2.03587
0.230404 -0.116986 3.39492
1.20718 0.481691 3.13721
-0.0546491 0.452434 3.46606
0.8469 0.584128 2.7828
-0.0335891 0.731441 2.07052
0.780559 0.697136 2.28462
-0.0658475 0.721066 2.135
1.02468 0.517504 2.97021
-0.0686104 0.730797 2.0879
0.497404 0.381265 3.62338
0.369933 0.31461 3.05981
1.0282 0.612452 2.64972
-0.955704 0.470775 3.15112
-0.637173 0.460256 3.36165
0.492892 -0.389745 2.30469
-0.569161 0.406376 3.6473
0.104296 0.346753 3.83706
0.156775 -0.605197 2.58593
0.046609 -0.49697 2.67517
-0.374483 0.602811 2.69905
0.868779 0.731456 2.18047
0.786817 0.748093 2.10404
-0.720282 0.576185 2.76882
0.685692 0.533777 3.02162
0.249879 0.793891 1.761
-0.217772 0.948109 1.14248
0.0928012 -0.321372 2.24338
0.758424 0.534914 2.99351
0.930772 0.55991 2.85757
-1.02884 0.358472 3.64979
-0.193098 0.417269 2.47451
0.935211 0.455933 3.2354
0.696951 0.801025 1.87794
1.04027 0.669687 2.4566
0.421974 0.741525 2.12952
0.690948 0.662426 2.4315
0.976103 0.500288 3.0556
-0.740724 0.717751 2.0119
0.954451 0.584409 2.74949
0.116012 -0.531234 2.65588
0.0906164 0.469972 3.42689
-0.986566 0.381746 3.54947
1.08551 0.396504 3.46949
0.939648 0.51049 3.0304
0.267837 0.326263 3.17603
0.391058 0.789088 1.87738
0.678272 0.399223 3.51051
0.881077 0.766774 2.04563
0.758855 0.724793 2.19249
0.215058 0.449422 2.45029
0.557538 0.705413 2.25897
0.0800851 0.0457733 2.24468
0.198334 0.839609 1.4591
-0.399911 0.493331 3.19787
1.16559 0.423146 3.38172
0.75472 0.595024 2.71162
0.865981 0.35428 3.65822
0.56526 0.781074 1.92649
0.812088 0.571934 2.80641
0.53343 0.770194 1.98993
0.657313 0.722137 2.17484
1.15197 0.507089 3.02331
0.844485 0.526373 2.99977
0.780976 0.349977 3.69464
-0.130999 0.876395 1.2762
-0.90454 0.70072 2.09451
-0.101885 0.333774 3.94515
0.76077 0.602652 2.68849
1.09932 0.45553 3.23347
0.234397 0.483102 3.38123
0.253819 0.751221 2.06295
0.642735 0.800917 1.8182
-0.493936 0.808027 1.72246
-0.0107192 0.344151 3.86772
0.0680285 0.370482 3.28414
0.269437 -0.330179 2.21314
0.624349 0.637059 2.57389
-1.10451 0.57914 2.62253
0.411524 0.756037 2.06298
0.68109 0.543484 2.94165
0.00442655 -0.44923 2.29466
0.903323 0.607408 2.67685
0.759109 0.455537 3.28352
1.02587 0.34256 3.673
1.03862 0.55881 2.85166
-0.157693 0.783785 1.72124
1.01067 0.633716 2.57885
0.317327 -0.464993 2.7222
0.693631 0.483154 3.22587
-0.55294 0.676516 2.27462
0.592155 0.68524 2.3317
0.264487 0.753714 2.05182
0.408078 -0.237172 2.80326
0.954712 0.804275 1.88747
-0.128477 0.450561 3.44247
-1.08998 0.662751 2.2443
0.875769 0.689927 2.33788
0.917819 0.605458 2.6745
0.368289 0.68949 2.33131
0.758351 0.499593 3.13332
0.527091 0.458243 3.35141
1.18549 0.40025 3.47352
0.690734 0.303463 3.9738
-0.0861731 0.708727 2.19855
0.451408 0.471869 2.55186
0.424642 -0.270228 2.31816
1.01171 0.749563 2.11283
-0.625662 0.535268 2.98855
1.2542 0.427788 3.36148
0.367635 -0.0889217 2.9268
0.11167 0.287164 4.07238
0.721552 0.732426 2.14119
0.881293 0.469826 3.19838
-0.365066 0.738279 1.97583
0.147432 0.114478 2.31725
1.19458 0.644262 2.48643
-0.221439 0.431791 3.53418
0.360041 -0.449816 2.25424
0.476948 0.494168 3.22936
-0.0491757 0.716597 2.17105
0.64538 0.298604 3.04073
0.471901 0.422436 2.77366
0.814351 0.427995 3.38376
0.466228 0.771239 1.9577
0.391939 0.371148 3.6747
1.0831 0.426844 3.35096
0.572521 0.570745 2.86688
1.12594 0.659655 2.43984
0.895512 0.600901 2.71035
-1.30247 0.545808 2.72808
0.568855 0.675543 2.37065
0.0919673 -0.47918 2.71185
0.782218 0.706335 2.23109
-0.499685 0.453606 3.31105
-0.566658 0.648258 2.40932
0.857353 0.534851 2.95632
0.24765 0.765727 1.98813
0.730984 0.482273 3.20102
-0.750821 0.262283 4.13092
0.830994 0.50015 3.11698
1.23915 0.439467 3.29313
0.183858 0.770201 1.97962
0.860527 0.859548 1.63458
-0.518149 0.523094 3.0769
0.526249 0.660077 2.48691
-0.0976388 0.315801 3.18643
0.994261 0.338712 3.66698
0.613294 0.314285 3.89443
-0.64368 0.544681 2.91825
0.103327 -0.495067 2.70819
1.15963 0.634765 2.59238
0.925416 0.646465 2.51433
-0.902037 0.352366 3.76694
0.641535 0.660484 2.47261
0.694905 0.708937 2.24846
0.163492 0.427333 3.5519
-0.00986201 -0.37847 2.29958
0.536878 0.649728 2.52016
0.230829 -0.29796 3.02084
0.587687 0.648126 2.52266
-0.0409615 0.821144 1.53161
0.240862 -0.248361 3.21948
0.967068 0.607295 2.6705
-0.458536 0.634001 2.51588
0.125771 -0.477368 2.22113
0.648502 0.552947 2.90553
0.893305 0.508473 3.0558
-0.788397 0.648956 2.38543
0.042039 0.324348 3.91296
0.0824579 -0.299052 2.25908
0.103384 0.493324 3.38156
1.17134 0.446297 3.25085
0.804022 0.677458 2.37361
-0.631784 0.793149 1.76993
-0.0280449 0.469891 3.41237
0.387744 0.739249 2.14678
0.486986 0.426452 3.53755
-0.19322 0.768777 1.9037
-0.0466986 0.772675 1.91486
-0.0388079 0.315236 3.21584
-0.658423 0.7009 2.1609
0.798947 0.406315 3.45888
0.449853 -0.488889 2.64298
0.773278 0.67569 2.38476
-0.742541 0.729308 1.96891
0.985524 0.626319 2.59893
-0.665227 0.5764 2.79431
1.05686 0.479826 3.12058
-0.690225 0.679247 2.24749
-0.126506 0.795296 1.70003
0.801978 0.69977 2.27367
-0.668626 0.610821 2.6375
0.862074 0.734267 2.14844
-0.282784 0.742688 1.96054
0.314533 -0.595285 2.28312
0.520206 0.314821 3.14653
0.219369 -0.278405 3.12719
-0.590608 0.366787 3.72901
0.768982 0.508153 3.08022
0.534218 0.869155 1.46406
-1.02107 0.373461 3.59042
0.902659 0.567822 2.83384
0.430588 -0.28653 2.30972
0.391055 -0.265609 2.30182
0.583109 0.742598 2.07971
0.89553 0.414413 3.406
1.223 0.502812 3.04388
0.878827 0.646663 2.51936
0.462122 0.292923 4.00772
1.1191 0.602131 2.66661
0.87982 0.382167 3.51781
-0.69636 0.677763 2.25166
0.59855 0.402146 3.54288
-0.984893 0.60197 2.55994
0.824229 0.659096 2.44676
0.300592 0.778304 1.92156
0.663536 0.848055 1.56314
0.953976 0.382494 3.49118
-0.64004 0.81555 1.4977
0.469472 0.686386 2.3363
0.90017 0.689563 2.34738
-0.0227926 -0.403526 2.65715
-0.369754 0.394432 3.6254
0.126705 0.732762 2.11536
0.667398 0.61762 2.64458
-0.00816192 0.122846 2.18717
-0.356066 0.734684 2.00794
0.192858 -0.319841 2.88427
-0.545435 0.516668 3.09124
0.75134 0.633598 2.57446
0.693974 0.308062 3.83089
0.425289 -0.28578 2.30722
0.690107 0.799966 1.87598
0.32473 -0.608686 2.54768
0.4884 0.437757 3.43807
0.946299 0.654819 2.46822
0.375093 -0.608517 2.38431
0.0380962 0.513928 3.30185
0.629922 0.393454 3.53196
-0.0990424 0.802206 1.68461
0.258713 0.456881 3.45812
0.0842203 -0.255828 3.12886
0.661019 0.710557 2.21356
0.228507 -0.514341 2.21081
0.331267 0.292928 3.97316
-0.00933273 -0.239788 2.4089
0.55512 -0.462547 2.38655
0.260837 0.490404 3.27421
-0.298756 0.77642 1.85757
0.996569 0.700747 2.25751
-0.33705 0.675386 2.35744
0.521019 0.637507 2.57189
0.155907 -0.0341044 2.2993
0.238081 0.464592 3.43547
0.0424111 0.804168 1.68452
0.791456 0.416405 3.41452
1.22645 0.535855 2.91478
1.05921 0.640031 2.53778
0.737382 0.728957 2.15975
0.798553 0.550088 2.89444
-0.699334 0.785967 1.68915
1.04668 0.382723 3.52705
-0.0187688 0.654865 2.43688
0.243746 0.130251 2.43822
-0.0372082 0.108979 2.19371
-0.747126 0.739488 1.94601
-0.340067 0.752625 1.94102
-0.328313 0.706537 2.17608
-0.419584 0.70254 2.19244
1.08239 0.457439 3.21664
0.252861 0.055949 2.38329
0.42764 -0.577333 2.42805
-0.353096 0.592697 2.74391
0.952196 0.526308 2.98554
0.593828 0.424486 2.92859
-0.438824 0.631336 2.52648
0.588374 0.582012 2.79218
-0.191995 0.366307 2.4917
0.638588 0.631776 2.58057
-1.0665 0.563346 2.74478
-0.544408 0.538752 2.96272
-0.0544258 -0.430757 2.44599
1.10746 0.473217 3.14839
-1.09864 0.541226 2.86508
1.29901 0.57289 2.82437
0.985712 0.417551 3.41075
-0.00429154 -0.386016 2.29327
0.498398 0.457852 3.3834
-0.575092 0.589033 2.76178
1.24859 0.438928 3.29333
0.858081 0.628715 2.58111
0.604518 0.655764 2.46676
0.387287 -0.546222 2.31607
0.430227 0.840939 1.52205
0.146308 -0.600288 2.29703
0.980658 0.637708 2.55421
1.33416 0.455866 3.27478
0.772021 0.614509 2.65178
-0.550361 0.458627 3.2951
0.765124 0.596102 2.71108
0.32406 0.35822 3.71798
0.775482 0.659329 2.47181
0.751581 0.46014 3.28752
-0.500604 0.632823 2.50214
0.612772 0.477726 3.2384
0.207797 -0.615212 2.57155
0.0368481 -0.421996 2.25531
0.418005 0.44499 3.44735
1.05804 0.79661 1.96634
-1.14687 0.648913 2.29398
0.359766 0.299589 3.91895
0.788775 0.419431 3.40499
0.465193 0.378635 2.633
-0.523084 0.449754 3.3431
0.681211 0.736769 2.13322
0.779657 0.793304 1.89166
0.405657 -0.599273 2.44592
0.968608 0.323941 3.73635
0.303579 -0.656493 2.39047
0.755305 0.574699 2.80852
0.952002 0.575003 2.78501
0.874758 0.660375 2.44918
0.86191 0.852075 1.48659
-0.933368 0.598797 2.59333
0.200763 0.497897 3.34675
-1.2402 0.527661 2.90611
0.838491 0.378585 3.54055
-0.566965 0.671332 2.31696
-0.699319 0.582211 2.73317
1.04506 0.484318 3.10727
-0.958434 0.663977 2.28225
0.517303 0.677232 2.3531
0.368449 0.801033 1.79178
0.568365 0.385892 3.16565
0.214171 0.88566 1.36957
1.40856 0.534669 2.93569
-0.349447 0.432221 3.5027
0.117539 0.319094 3.27181
-0.192733 0.669176 2.39818
0.330604 -0.136707 3.23691
0.510217 -0.454129 2.3173
0.882135 0.695064 2.34659
-0.134819 0.709214 2.19058
0.520667 -0.552778 2.49428
1.3519 0.494433 3.14906
-1.18023 0.53829 2.84682
0.290537 -0.0390393 3.07352
1.03646 0.453146 3.2331
1.40008 0.405123 3.58258
-0.902339 0.285333 4.05177
0.38103 -0.090779 2.65358
-0.573465 0.669114 2.32916
0.387209 -0.176694 2.63288
1.12389 0.428094 3.33617
0.669047 0.58365 2.78195
1.27439 0.555522 2.88353
1.10678 0.430247 3.30399
0.948303 0.376209 3.50467
0.819167 0.666525 2.41875
0.537923 0.847306 1.54359
0.763747 0.629863 2.57952
-0.693617 0.696715 2.17916
0.826308 0.701466 2.26959
0.0731804 0.361321 3.80748
0.167585 0.257717 4.19387
0.635604 0.684715 2.32664
0.175171 0.722059 2.18873
0.806483 0.584002 2.77317
-0.294298 0.523968 3.04314
0.693434 0.787923 1.92849
0.187821 0.185617 2.42988
0.0990938 0.0397712 2.25457
0.805997 0.446741 3.29643
-0.512803 0.379248 3.66933
0.196759 0.767553 1.9848
0.745526 0.585793 2.76255
0.501687 0.58106 2.81801
0.763282 0.48508 3.1759
0.0716192 -0.289792 3.01893
0.438538 0.447797 3.40143
0.776735 0.738519 2.11811
1.13807 0.647137 2.52991
-0.87141 0.669671 2.25254
0.389449 0.367546 3.68953
0.450865 0.676823 2.458
0.3015 0.351942 3.74062
-0.0177336 0.728006 2.08666
0.255643 -0.531668 2.21829
-0.553942 0.647547 2.42272
-0.546212 0.446441 3.42224
0.264946 0.826466 1.53536
-0.0219617 0.114264 2.19005
1.0595 0.625521 2.59102
-0.012242 0.0926159 2.20412
0.262297 0.347636 3.74349
0.694379 0.468524 3.27637
0.273046 -0.671602 2.48475
0.566238 0.608416 2.71223
0.565531 0.323951 3.79722
-0.665571 0.476957 3.20586
-0.161748 0.74581 2.01451
-0.126472 0.103485 2.28398
0.692439 0.570816 2.82744
0.764062 0.447692 3.31521
1.0097 0.644129 2.53739
0.969381 0.460555 3.21592
0.158686 -0.146351 3.32491
1.13772 0.527651 2.93661
0.417078 -0.591005 2.45967
0.668079 0.553084 2.89397
-0.820978 0.682422 2.21869
0.948071 0.760064 2.07376
0.721052 0.639399 2.5676
0.361752 -0.229169 2.95644
0.720304 0.70982 2.23411
-0.547636 0.454852 3.31233
0.68112 0.662258 2.43274
-1.09297 0.496569 3.02123
-0.497474 0.803468 1.67764
1.01621 0.694211 2.2841
-0.210321 0.743291 2.0059
0.112092 0.0721199 2.25778
1.0357 0.605017 2.69094
0.644507 0.618499 2.63947
0.826229 0.60208 2.6908
0.739674 0.60498 2.67008
-0.243509 0.72622 2.09613
0.989118 0.569652 2.81857
0.856226 0.577804 2.80861
-0.292152 0.913867 1.16474
1.18816 0.422277 3.36317
0.113203 -0.489057 2.71332
1.08423 0.553057 2.8674
0.564237 0.606963 2.71947
-1.12335 0.393317 3.48407
0.374647 -0.220049 2.89257
0.36491 -0.236806 2.95162
-0.196269 0.503517 2.91704
0.858025 0.666378 2.43205
0.31677 0.0597557 2.46396
0.294398 -0.355456 2.21361
0.680902 0.620507 2.63269
-0.203528 0.453671 2.50484
-0.566514 0.794209 1.75657
-0.0186934 0.816009 1.54642
0.00880819 0.62239 2.55337
-0.0302295 0.34492 3.88845
-0.616426 0.679495 2.2598
1.14184 0.569643 2.78607
0.828518 0.560126 2.87046
0.473065 0.363646 3.67872
0.299823 -0.209392 3.06811
0.704665 0.348378 3.70688
0.775508 0.502151 3.1268
-0.0464996 0.193755 2.17408
0.247493 -0.637068 2.52243
0.349548 -0.333639 2.77525
0.79201 0.518379 3.03892
0.906693 0.596282 2.71756
0.38703 -0.151443 2.90267
-1.06748 0.655374 2.28876
-0.315798 0.650048 2.49485
-0.0434479 0.435766 3.55963
0.23651 0.762447 2.01688
0.108205 0.394099 3.70123
-1.41143 0.451071 3.1136
1.27847 0.487768 3.1078
0.401575 -0.229193 2.81919
0.616126 0.848215 1.51249
0.952932 0.476922 3.16636
0.512041 0.872195 1.44776
-0.339788 0.655615 2.45147
0.502096 0.429878 3.50544
0.38629 0.299774 3.89207
0.644423 0.660526 2.47173
0.955297 0.798935 1.92308
-0.845511 0.64714 2.38253
-1.04826 0.451074 3.21236
-0.0642094 -0.294794 2.61339
0.316944 0.489218 3.30853
0.589939 0.311736 3.91207
0.150509 0.754677 2.01675
0.864849 0.616806 2.65846
-0.619913 0.588795 2.77188
-0.295389 0.271047 4.17349
0.978523 0.457247 3.22361
0.419489 0.0903216 2.70468
0.830975 0.654617 2.48391
0.574709 0.668038 2.41592
-1.38205 0.536913 2.75504
0.37086 0.683487 2.36051
0.119922 0.070405 2.2637
1.01464 0.635974 2.54916
0.0490409 0.369919 3.78541
0.603292 0.615164 2.6637
0.759611 0.68011 2.35391
0.76448 0.522714 3.02914
0.367737 0.767344 1.99412
-0.645315 0.407205 3.56694
0.462304 0.383284 3.63416
0.802129 0.54045 2.92695
0.489621 0.857536 1.53392
0.648198 0.621188 2.63781
0.170526 0.710125 2.23521
-0.628549 0.643229 2.4448
-1.2238 0.61601 2.43978
0.771232 0.769465 2.01595
0.0426285 0.181611 2.19918
-0.457509 0.714689 2.13042
-1.34088 0.549033 2.70372
-0.45468 0.690773 2.24016
0.00995835 0.418135 3.60699
-0.89387 0.490542 3.03731
-0.360652 0.637687 2.51784
0.100859 0.11499 2.24066
-0.403569 0.533854 3.06767
0.679355 0.611646 2.67274
0.473915 0.437804 3.50504
-0.466582 0.377038 3.66112
-0.521928 0.709986 2.09335
-0.243077 0.614667 2.59057
0.399396 -0.0847185 2.80329
-1.19577 0.413499 3.37471
0.961183 0.559218 2.86915
-0.0051937 0.107088 2.1953
0.469008 0.320816 3.8335
-0.889749 0.552048 2.81529
1.23884 0.511481 3.01582
0.687541 0.581742 2.80608
0.940256 0.683049 2.36755
0.94821 0.548352 2.89986
0.364642 -0.617405 2.38695
0.602065 0.631742 2.59189
0.777813 0.689812 2.30986
-0.557315 0.481057 3.22078
0.713457 0.607559 2.67804
-0.184865 0.711552 2.17269
0.926694 0.769514 2.0339
0.729266 0.405183 3.47721
-0.293815 0.731472 2.07527
0.0252819 -0.594419 2.55815
0.961012 0.502132 3.04019
1.00771 0.576266 2.79421
0.831368 0.402548 3.46751
-0.488179 0.296346 3.8906
0.108467 -0.0771511 2.31754
-1.23716 0.70474 2.06305
1.0753 0.582023 2.77072
0.331393 0.717553 2.22159
0.83756 0.551603 2.90009
-0.788753 0.356981 3.81779
0.732553 0.810449 1.79492
1.01386 0.577411 2.78253
1.07268 0.492243 3.07946
1.03861 0.664468 2.47103
1.15332 0.555683 2.84704
1.01111 0.413993 3.41705
-0.299101 0.727514 2.08746
0.216826 -0.555454 2.63706
1.02534 0.393809 3.4705
1.17829 0.417672 3.39591
-1.06975 0.55178 2.79623
-0.41897 0.459571 3.37169
0.0522305 0.814525 1.63544
