69.8939 16.1071 654.232
0.501063 153.424 636.539
24.0982 170.918 650.994
49.2749 191.273 678.4
-40.1374 -123.986 624.11
-53.3311 -121.722 624.297
-4.67374 -112.46 629.073
-6.2827 -93.7844 622.374
-3.03313 -91.8507 623.343
-7.01019 -78.8608 623.71
-34.4868 -75.1315 620.557
-9.78946 -69.3487 623.51
8.82751 -37.7437 633.348
62.268 6.40153 652.499
70.5408 13.6307 652.682
60.618 14.0007 650.619
12.8918 141.656 661.054
14.1182 143.377 658.196
-17.5612 148.611 641.304
22.7948 163.211 654.126
-16.6488 -165.748 599.254
-17.7002 -132.339 617.671
-44.9637 -127.67 622.271
6.81783 -122.412 644.457
15.8256 -81.9093 633.151
-32.4626 -61.0046 625.528
31.0424 219.641 653.383
-23.5493 -60.1627 619.962
-22.5832 -57.8557 620.608
50.2137 -43.6368 650.782
-61.8961 -0.0685575 622.674
-102.098 3.55443 618.409
37.955 194.805 653.404
72.8802 -0.658902 654.468
64.15 11.5649 653.947
23.5591 142.241 667.602
-15.7891 -70.7833 621.317
-94.4297 2.85786 615.625
-16.2818 141.724 645.986
10.0381 -77.6562 632.695
-6.102 -104.829 624.792
5.50128 147.486 650.642
41.3091 -32.8441 647.031
-2.52333 -55.7446 631.521
2.93939 153.177 640.121
19.9019 151.595 652.126
0.774944 -61.2121 634.111
-11.1208 -74.7287 620.909
-35.1182 223.766 644.55
-35.7363 -75.9659 619.29
-20.9896 6.08051 1140.53
4.71819 87.0906 1138.81
12.2923 104.052 1109.8
-14.7541 148.51 642.88
-46.6732 -125.324 622.668
38.8559 218.447 659.945
21.422 167.983 651.546
-5.88083 184.541 638.585
33.5435 195.969 648.013
-9.56307 -4.97414 1149.18
-26.9343 40.3796 1134.51
-30.8623 109.746 1103.29
-21.4701 150.3 639.304
-28.6035 -64.8155 623.846
4.01868 151.512 641.267
43.8372 88.6092 674.813
13.1034 8.09707 1144.97
29.0054 142.864 664.518
-0.333781 -75.6952 624.053
-7.50865 150.383 640.532
-39.9411 -123.099 621.846
-1.07623 -14.3877 1158.31
-26.5923 -52.3828 1129.45
-60.6276 -41.7511 1110.84
-37.5319 114.798 1106.02
-46.1662 -3.59035 625.622
34.7104 148.293 667.531
-96.1519 1.71703 611.378
-57.2056 -74.9943 617.038
57.7836 7.04473 651.694
-3.75159 31.7134 1136.05
57.7235 42.4139 652.506
-36.5252 192.112 647.374
-26.1777 135.911 635.182
30.5771 -75.0969 653.643
-17.4779 -98.1084 617.869
-97.3141 35.9661 616.017
27.7306 41.9022 1161.33
-1.95595 -63.9311 630.176
-11.1608 -89.2923 632.246
-22.9348 -153.761 598.361
9.35404 163.794 644.309
-83.7698 10.6826 621.244
10.2958 153.427 643.492
14.268 143.415 658.195
-89.7624 15.3737 616.791
12.1959 -84.3605 630.915
-12.6176 -147.52 606.298
-30.2076 -144.195 611.881
-20.0026 -155.851 597.821
4.41799 -133.159 639.166
-31.6918 -63.4875 625.38
28.0667 156.999 663.411
-15.0884 155.62 628.998
-29.1262 -111.645 621.085
-20.0388 -158.477 598.519
-20.8408 -111.91 622.046
21.6699 167.671 651.383
-15.5456 163.637 627.734
-24.4927 -112.752 622.494
-51.3659 -126.12 622.23
-13.3377 164.365 631.457
-21.849 -61.8445 617.326
-43.6723 -125.123 622.392
-14.4621 -141.108 605.989
-52.7855 -25.9845 1123.53
-5.79302 -59.6139 623.257
-18.3243 -62.3483 621.621
-15.1633 -57.19 622.211
7.36057 140.917 659.887
10.3236 155.89 640.08
-4.69074 159.002 635.61
13.5528 22.3606 1149.72
13.2995 199.572 652.365
-8.17628 -151.797 609.192
-21.0321 -136.858 612.465
-13.2466 -119.991 625.721
-10.6288 -111.579 624.929
-9.90589 -112.633 625.231
4.91469 36.6336 1152.81
-12.3964 -60.0154 621.032
-15.0554 -42.3747 622.03
10.1475 153.639 642.092
-12.5258 -64.1894 621.444
5.46304 -89.2719 626.627
23.939 197.449 678.327
-84.9073 -10.1383 614.84
21.7855 141.082 662.596
-7.94103 152.71 635.954
-7.48877 114.431 636.395
-29.9967 -154.987 603.329
-256.253 -35.5474 1085.58
-12.9975 161.487 632.402
-1.16938 147.759 644.049
35.3684 -53.8124 650.764
-20.9699 -166.902 597.27
27.755 168.747 659.216
-92.7322 17.5088 615.798
23.0984 168.889 658.834
3.77601 155.4 639.92
-60.8804 -40.7551 627.62
-87.5586 -16.0977 617.323
55.6676 51.0568 655.186
-39.5725 -128.269 624.704
-7.37199 150.762 633.911
-2.26436 -157.609 611.848
-11.6598 -125.662 635.885
36.0501 151.652 663.117
60.2841 54.2923 657.345
25.3483 145.461 665.743
-93.9204 18.5816 612.116
12.0189 147.324 656.315
75.4054 3.62909 657.095
15.727 222.878 654.773
-60.3085 -59.6558 621.11
2.70167 -142.224 628.674
-7.66765 -132.347 634.614
-20.9361 -110.002 620.872
52.162 198.284 680.342
58.976 -4.9634 649.471
47.5152 -29.8219 648.45
-26.4809 121.657 638.451
-38.2804 184.962 647.561
-63.0543 -38.3349 1109.91
56.3452 -35.1154 648.465
0.932809 157.157 636.48
-87.9615 15.2718 619.523
7.29354 -85.4745 630.71
-1.82583 -46.5336 627.261
-35.6859 -62.6481 626.12
-9.4529 160.039 635.61
51.842 198.622 682.376
-5.32878 -67.2642 627.267
-11.4731 -66.4426 623.561
-4.20432 -117.031 630.322
-31.1046 181.775 640.482
-87.7096 8.10453 618.375
20.6879 165.911 651.936
20.9573 143.485 664.432
17.7794 141.776 663.587
-31.3806 196.775 637.9
-8.84613 154.807 632.403
45.5345 86.6097 676.494
-41.5535 -32.0987 1130.53
51.3528 -16.1177 640.959
-7.89792 -122.051 631.928
-9.47163 -155.307 602.06
-1.07539 157.772 632.644
4.64454 -131.471 641.917
-38.6438 -131.116 626.888
-21.9096 -62.2726 619.956
-30.1592 -131.902 630.361
-8.61115 -63.3988 624.566
-19.1559 -125.337 629.596
-18.7911 -150.513 604.177
-94.034 14.988 613.506
48.5646 -37.0692 648.839
-48.7551 -130.862 619.647
-21.8259 -164.644 597.439
-5.73172 -67.5913 627.61
-23.7357 -90.0238 615.629
51.4121 61.0287 662.01
-46.0316 110.521 662.483
-16.5261 149.79 641.599
-45.8218 -119.442 622.977
-15.6924 -160.569 600.435
-51.0109 -120.406 625.674
68.1821 -0.923753 654.652
-14.1498 154.221 634.418
-32.1447 -37.9897 623.075
3.00945 146.902 646.093
33.7524 196.685 649.562
-85.9812 57.2983 634.977
-43.7076 -125.079 622.67
27.896 157.184 634.81
-19.7278 -101.668 617.841
-10.8557 -143.969 611.573
-20.8573 -105.747 618.907
-10.5698 -57.28 623.893
26.5931 173.542 653.12
-67.8718 -47.8716 623.751
-2.05887 152.061 623.868
21.0573 -66.2772 646.842
7.74418 154.961 644.421
-10.8226 -173.716 600.052
17.533 151.79 652.806
-38.6773 -132.871 623.774
-68.8678 -42.3995 623.056
-29.5879 -75.9734 615.492
4.90721 -132.843 641.508
-86.8955 18.5092 621.298
27.1742 140.762 665.111
-94.5428 6.78545 616.362
-13.7555 39.5973 1133.1
-3.07565 -72.1368 626.372
-32.722 65.5797 627.497
5.5484 156.34 640.576
-0.600609 151.253 640.2
-7.20032 146.015 646.123
36.891 148.651 665.59
1.30019 144.259 650.68
10.133 139.948 662.28
-10.1051 -173.797 598.978
14.9132 156.508 647.126
-35.6552 -115.889 620.049
3.67803 -61.8612 633.175
-6.09025 -169.553 603.758
9.09142 144.68 658.274
-83.1163 -2.57459 619.159
-77.2872 -4.01492 621.245
7.79271 142.194 660.639
-4.09813 144.962 643.109
-12.17 -127.719 636.45
-85.0519 16.4083 618.559
-22.8746 -112.514 621.4
-17.652 -111.652 622.524
-2.80031 -73.0061 627.006
-8.23639 -69.4596 625.568
1.3032 -64.1315 636.064
-67.0615 -42.6166 622.761
-13.6026 -136.904 612.444
-3.55013 -77.072 625.187
-7.13584 -68.8605 626.398
-5.90887 -60.0175 625.032
-49.9539 163.654 651.075
49.5763 209.395 683.207
-43.9987 -86.2507 613.216
-19.2105 224.741 639.026
12.7978 -81.039 632.199
-6.97928 144.57 646.517
-27.1594 -62.4463 623.31
24.0559 167.661 657.054
-15.4162 -155.939 599.558
-39.9873 -129.834 626.261
-42.7708 -75.4494 610.652
-9.22939 -64.9297 627.018
2.02717 -61.5899 635.417
-99.4871 -0.859813 613.136
15.192 140.98 662.369
12.8725 146.637 657.164
-11.8001 -172.494 597.519
-21.6744 -166.075 596.607
-8.89522 -164.408 600.897
-12.2606 -112.684 625.493
5.64941 -98.1119 626.211
4.90058 -90.1711 627.199
-15.0541 -66.7675 623.343
-9.28577 -58.4512 623.438
-5.18287 -58.8142 627.083
12.4608 -35.3703 634.093
-74.7129 -10.6934 618.573
34.5282 -1.66503 642.164
27.0628 17.4013 1169.76
4.7776 -112.987 631.454
-8.35627 -60.5082 624.407
-4.08005 -52.2496 628.855
-28.2897 -46.3347 622.823
-44.9893 -63.6127 1112.71
-31.0772 39.2965 1129.73
-34.3564 95.283 1114.21
-41.3146 98.0571 1110.69
10.7377 97.2684 1103.99
1.32882 144.145 653.979
-7.1806 147.508 643.522
29.4233 161.102 666.507
-26.2867 -155.768 603.244
28.102 23.3746 1156.02
24.2125 114.924 1163.99
-30.7351 -171.952 601.516
-7.34437 -61.4823 625.922
-26.5653 -1.67386 621.986
6.42859 32.6947 1142.27
31.4648 217.594 648.897
33.0938 222.606 659.104
14.0071 -22.3668 635.067
-14.5544 134.206 642.742
19.1309 230.097 657.693
-84.8336 59.0044 631.535
-21.3109 201.85 627.968
24.8858 105.677 1187.76
14.2137 54.258 1159.32
10.233 150.609 644.626
52.5863 62.0429 1159.88
11.7174 92.9627 1116.61
-7.53191 93.7709 1111.92
-26.998 92.7428 1121.73
10.0974 -11.8955 1148.94
15.6429 -14.4533 1185.99
5.44435 -89.1446 629.055
-30.6316 -124.694 628.453
12.3997 149.969 649.047
-37.8083 129.654 1108.94
15.1124 108.708 1111.16
5.72935 45.6593 1144.81
45.8295 31.5984 1178.85
1.63505 3.42922 1152.48
-14.2024 221.208 635.956
16.4487 39.4788 1160.75
35.2257 22.4295 1163.82
-90.1433 21.4304 620.138
-60.319 -57.0816 1105.06
-74.3783 -40.0762 623.681
-8.33719 -111.774 626.243
1.53939 163.487 634.823
37.2132 151.145 667.827
-43.194 166.088 649.235
11.9651 -59.3055 633.662
25.9039 -3.0655 639.01
75.7305 -1.87751 652.037
-17.7994 -58.6063 620.355
-13.0761 225.156 639.607
2.83749 219.991 638.186
-55.0489 -92.1155 617.831
2.69855 -26.1472 626.686
-8.63079 151.731 638.386
12.782 -124.018 644.337
11.7412 -85.2186 630.29
-17.1352 -130.924 632.396
-42.772 140.183 668.845
-79.2765 -63.0957 640.497
-26.0504 197.89 637.756
22.7399 -1.3975 642.232
42.7103 -40.6979 643.977
7.50155 -85.0177 630.797
-20.244 153.461 637.823
1.35521 146.227 647.552
-50.5153 145.628 673.573
41.2475 49.1275 662.797
-42.0051 -132.491 620.757
-29.5038 161.743 645.581
7.05261 159.025 643.664
-97.8655 52.7509 630.048
46.6697 65.7549 664.61
44.1093 35.4851 1150.99
18.7947 28.4503 1147.59
20.9932 7.63772 1150.87
-79.527 9.43363 622.912
-8.60914 -169.094 601.789
48.8668 69.4858 666.508
56.143 -30.2983 652.284
4.89087 -105.222 632.035
2.72449 -122.147 639.888
5.39196 164.565 643.725
21.9613 134.295 696.378
6.02892 7.08578 1146.1
-38.266 -33.6127 1134.39
25.5208 -28.5161 654.258
-10.7326 -111.71 625.201
5.83544 -119.35 649.092
-24.2165 -122.936 627.353
-18.7467 230.848 652.01
60.2338 14.8528 653.41
68.5398 8.81061 654.323
-96.3366 15.8692 612.21
34.6434 -3.29704 644.495
-84.5623 8.01777 618.582
-90.477 7.59165 614.178
-40.8568 -58.6652 1125.15
-31.0183 -60.601 1139.48
-73.2681 -44.9893 623.277
-23.9941 -64.698 620.46
-20.5144 -152.819 602.159
22.4353 169.762 652.121
22.8511 163.715 655.432
21.8235 145.451 664.332
-11.9602 145.592 643.463
42.2443 -8.90401 645.677
-69.0437 -47.54 1107.22
-23.3051 -53.7087 1134.15
-64.7821 -49.0779 1106.6
-43.3109 -59.1869 1117.11
-38.5164 -61.2399 1127.7
-52.9245 -58.49 1095.12
-34.5578 -62.479 1133.04
63.3553 14.3803 652.799
-61.2305 -43.2517 626.802
-87.6372 -16.0032 618.424
-22.1992 -166.102 596.727
-67.0452 -40.3102 625.989
47.5153 -29.4759 646.004
-12.9721 -173.899 597.974
-19.967 -126.541 628.503
-20.1509 -172.685 596.306
-17.6865 -172.23 596.677
-12.2332 -127.897 636.686
-22.93 -112.439 621.619
-0.941613 -75.3591 626.479
-2.89907 -59.8225 627.106
-5.21606 -57.1265 626.897
-19.537 147.191 639.844
-6.76796 -156.582 609.826
-7.03857 -113.416 628.298
18.5592 149.142 663.563
-90.8138 30.0086 625.391
-80.7305 -62.0635 599.309
-4.96812 164.096 633.156
-24.2514 -164.517 597.037
15.2694 140.381 661.109
-28.821 -69.2101 619.786
31.6395 0.242448 638.741
66.6326 23.7678 656.002
-10.4692 161.985 631.84
-9.46387 -117.54 629.318
5.00362 147.451 651.795
-22.3037 -148.022 606.948
-25.2495 -49.6761 622.281
74.8521 18.0996 658.013
127.139 77.3118 1122.02
-6.55366 -151.087 611.257
43.8507 9.73542 654.595
-25.398 -120.34 625.159
32.5865 219.852 649.811
-20.329 -83.4794 615.696
-56.8709 -0.235591 622.798
16.5983 132.572 654.051
-14.2103 167.619 631.275
-21.8848 -50.7863 622.382
-27.2912 107.603 648.05
5.7825 150.532 642.468
50.0878 -23.5784 648.724
-26.652 -51.2199 622.916
-6.88883 -148.973 614.221
15.0143 -109.47 642.539
-73.1626 -8.72951 624.018
-49.2799 153.002 660.908
14.3027 147.251 657.69
-23.9499 -49.47 1136.85
-1.69494 -62.336 630.099
-3.16678 199.776 636.014
-66.4814 -77.5104 628.06
16.2027 -9.85164 637.132
-76.7547 -12.8539 618.447
-13.7705 -62.1978 620.614
-12.5701 -77.2995 619.879
15.4365 154.598 648.515
-45.6929 -40.5592 1115.7
52.9088 -29.9472 646.116
-12.5575 -34.7601 620.342
31.1099 147.125 675.21
-43.3819 168.087 651.555
20.7086 170.699 650.991
60.5177 8.46208 650.91
-22.888 -108.442 619.643
6.71467 153.785 640.836
-6.79542 180.425 638.56
-21.2841 -111.989 621.748
-31.1071 183.235 642.93
-15.7541 -111.249 623.519
13.2191 155.069 650.679
-20.8018 -124.861 628.752
-17.6974 -172.5 594.598
-33.9973 -152.415 606.202
-28.6425 -75.3511 616.126
6.67058 152.203 642.29
-85.5442 8.07022 620.984
-31.2616 -107.836 618.552
-46.0901 164.368 651.347
-63.3187 -0.952008 620.661
-34.4641 -59.3403 625.339
-13.0904 -170.74 597.804
30.8118 194.992 648.391
-21.0318 -106.811 619.173
-19.5617 -57.6144 621.126
-24.4902 -126.206 627.956
-84.9425 14.3732 621.313
62.0127 -29.2143 651.55
-77.0926 -39.3068 623.507
-11.0284 -165.563 599.991
-6.24486 -156.172 607.461
-24.0603 -62.6555 622.182
24.523 168.263 658.307
-69.8941 -44.7015 623.941
-33.0345 -41.0739 620.942
-0.404774 -129.513 637.122
37.2547 -73.0679 655.446
23.6305 156.746 660.931
-25.0031 -50.9006 622.874
48.3146 74.712 665.017
54.5768 -36.9601 649.385
59.3077 -8.47818 647.085
-23.5122 -127.025 627.732
-9.87627 -150.446 607.55
-73.0583 -39.0379 623.503
-37.8678 -60.114 627.017
-0.864734 -75.0309 626.023
53.5488 -30.649 647.241
-6.71356 -129.178 635.56
56.0264 44.9146 650.783
-27.8043 -102.964 617.15
-63.4247 -41.9416 626.556
-12.9953 -170.807 601.776
25.6746 153.276 659.927
-7.5741 -153.298 604.546
-21.3127 156.04 631.653
18.7534 -30.5555 646.233
6.55964 -122.825 647.713
-28.5561 -155.085 604.911
64.8818 34.9396 655.018
-260.451 87.5136 1092.69
-38.0443 122.148 652.447
-7.31071 206.913 632.525
-23.9251 -64.8849 620.291
-11.7044 -73.5141 620.346
-72.5537 -12.5145 618.046
-245.071 -46.5678 1089.11
4.21401 -120.074 638.387
10.7623 148.489 654.201
23.8508 -89.5098 647.415
-23.1706 207.41 635.943
-15.7014 -63.8427 620.358
59.0094 44.4073 656.096
43.6808 -3.26451 650.648
-18.4349 -57.9169 617.86
2.97931 -83.9249 627.988
-2.55095 -128.626 633.111
-71.2643 -61.2725 633.675
51.3493 -38.7208 649.909
37.8842 -60.2708 652.667
29.0043 159.018 665.164
-8.24655 -110.942 625.2
-35.1685 150.215 651.074
5.11877 -117.558 638.898
1.71624 -127.878 639.107
-90.6238 19.4579 616.146
-69.273 -34.375 628.439
-14.3893 -164.418 600.112
-5.94167 152.088 632.237
-20.6688 -66.2732 619.845
-17.1012 -136.323 612.334
16.4801 144.667 659.952
56.6369 -30.7436 647.96
5.77387 132.581 656.652
0.0314549 200.422 639.917
24.7262 195.3 657.868
-27.2328 -62.1474 622.234
-13.9096 -63.214 621.068
-14.3855 -139.036 611.959
29.172 147.493 666.325
-22.6702 -166.638 597.387
45.2295 86.9463 672.613
-35.439 184.549 641.742
-33.411 92.8412 1118.33
23.1816 -59.8875 645.596
-18.0712 -151.364 603.458
74.8765 10.6044 655.915
55.8857 -18.1291 642.461
-43.95 161.789 649.55
-13.9593 -53.4191 623.819
-95.5309 19.4092 615.861
43.6936 -5.2125 651.611
34.2273 193.945 654.104
-22.4059 -170.561 595.575
-14.5451 94.1563 1101.56
45.0562 179.175 682.427
-21.0642 -123.142 628.958
13.2471 124.928 1111.79
-56.0027 -0.167303 617.615
-24.433 -122.688 624.452
9.19675 161.99 639.115
-41.6297 -146.902 615.174
-47.4829 198.012 648.217
-71.6955 -37.2507 624.971
-6.42902 206.263 654.042
32.7947 -69.2279 651.751
40.4355 204.655 666.938
66.9401 12.2097 651.427
16.5749 -18.747 634.25
-26.1283 -90.5954 616.257
-40.5738 164.378 650.897
72.0822 22.3304 658.837
-20.5985 -171.339 596.434
-77.5789 -33.89 621.375
54.191 41.6766 652.282
-27.1693 -113.927 621.807
-21.2854 -150.71 604.646
-6.20715 -150.188 611.528
-27.2637 -62.9731 624.557
4.72004 139.001 660.357
52.9989 58.7485 665.011
-66.9023 -34.4619 626.335
-3.19174 -125.56 634
-38.5071 -128.268 626.335
-4.68668 135.936 651.816
-19.8866 -126.527 627.935
30.2243 194.503 644.384
-12.4323 -69.8699 622.413
58.3942 42.4631 653.42
45.9531 -38.1719 648.013
70.6981 26.88 656.059
-35.2508 -127.822 627.411
19.0006 -10.3671 638.218
35.7933 140.46 674.026
-40.199 -131.131 623.593
-9.10171 203.486 644.838
64.2884 -9.21418 648.075
-102.49 8.53162 616.074
-22.3728 -84.8599 615.71
-43.9137 164.255 651.035
-63.8296 -35.7501 627.359
70.6799 27.6125 657.581
5.16963 165 645.776
18.1147 116.92 1114.34
7.74179 145.56 656.877
73.0861 24.4559 657.745
-24.5401 -61.616 618.99
-36.0838 183.654 644.832
10.1857 146.236 657.556
53.594 -34.1464 650.829
-8.15116 -159.457 605.537
-21.6102 63.0124 629.388
-89.5872 7.60996 617.275
37.7611 -1.8711 645.173
20.9704 164.396 653.82
-23.2853 -153.455 603.532
-12.6655 -172.53 598.076
16.13 -9.07816 638.725
-23.4435 -149.535 604.83
-33.2392 -126.986 627.483
70.3073 -4.74991 651.681
-23.2329 130.16 635.699
-28.066 219.832 637.171
-10.7435 154.745 630.661
-47.5313 -105.893 619.451
58.1778 11.133 647.346
29.8938 152.634 658.962
-27.5066 -157.484 602.076
35.0481 -47.8625 649.123
41.9657 -48.6306 649.667
14.335 -8.25558 636.942
21.9442 -11.1075 635.434
-14.9724 90.0692 1117.8
14.6015 146.973 656.612
39.8482 144.377 682.591
-46.2944 -111.247 620.695
-11.2068 -140.634 615.491
-22.888 -170.611 597.211
-13.4703 -152.237 602.483
-8.03853 164.599 633.72
148.916 102.722 948.768
-16.6815 157.407 627.158
15.2434 -18.2558 635.731
29.2072 136.941 685.452
10.1186 151.099 645.423
24.0299 145.978 665.453
46.9312 62.7254 658.594
-68.9296 -66.4673 626.068
-2.43687 149.967 640.314
24.2451 148.598 657.992
-21.3175 -140.915 609.188
35.1851 217.249 655.155
-62.9497 -52.1074 1097.7
-6.53877 154.545 631.91
66.6168 16.384 653.25
6.82458 155.714 646.09
0.327879 93.5016 1116.6
