120.58 -57.756 782.04
101.185 -61.0831 788.839
83.079 39.3304 815.057
166.326 -113.8 748.007
72.3173 -89.1074 795.81
245.311 -184.016 705.333
65.19 -67.3185 802.569
178.057 -36.0294 420
101.405 -136.085 772.681
38.3673 126.378 838.02
99.5994 -68.8278 787.977
74.4742 -95.5971 796.3
176.031 -167.825 739.251
133.136 -64.3312 776.88
293.643 -201.767 689.691
140.384 -195.697 744.151
10.8104 -197.62 789.157
53.6921 -63.5489 807.224
50.243 -122.517 793.161
68.7694 -186.053 770.877
208.848 -178.529 723.648
80.2545 -199.59 766.772
53.3608 -179.621 777.901
-65.6292 -81.288 831.612
113.482 -130.885 769.354
4.5086 -185.61 793.274
95.8455 -20.7212 451.121
38.0619 164.795 837.701
192.329 -14.7797 430.525
91.4365 -183.11 764.045
43.9915 -179.602 780.984
56.4729 -174.959 778.889
110.293 -33.2094 392.96
1.78091 85.5902 849.681
294.589 -168.514 698.946
52.6917 -170.969 781.187
28.4188 -2.40971 828.916
107.054 2.18745 401.377
201.708 -157.001 730.053
37.1981 27.6776 826.608
303.706 -151.552 695.683
68.9348 -148.644 780.88
82.7956 92.1804 820.975
176.55 -187.861 733.049
74.8823 -144.585 779.636
233.726 -204.3 705.082
188.514 -140.671 736.466
-17.1616 114.047 849.473
8.9556 -18.8507 828.046
59.3124 -157.981 780.622
79.5804 115.864 506.323
79.7377 -116.092 786.07
294.175 -169.152 695.696
81.2624 -115.21 784.793
109.927 -9.55995 397.62
63.6979 -127.783 788.215
39.9267 -6.78108 823.299
77.6948 99.3149 458.431
210.89 39.0357 448.871
28.5941 -102.037 807.237
286.402 -206.946 691.344
316.838 -113.379 702.692
42.295 -99.7631 801.915
256.492 -187.371 708.42
67.8589 28.9909 476.058
428.709 -106.331 669.735
134.358 -54.5745 773.641
180.699 -96.6336 745.918
178.253 -35.5716 415.587
309.055 -134.904 703.043
196.498 -3.4677 436.413
72.1183 -192.717 767.054
85.8172 -88.7681 790.456
20.5765 -19.3246 826.051
261.886 -172.7 704.534
49.3883 -87.7704 802.634
108.791 9.89556 455.282
99.6576 -164.404 766.5
68.68 -92.0006 796.344
104.746 -139.98 769.576
198.836 -140.003 732.446
96.8622 34.6744 800.688
192.606 -101.363 740.887
218.063 -192.404 714.697
221.756 -159.901 720.158
62.5691 -80.5721 800.11
223.143 -93.1058 730.196
194.895 -121.009 736.99
116.332 8.5583 405.281
48.0468 -68.1493 807.844
18.9671 -101.528 805.672
69.8808 -89.712 795.813
116.74 -66.271 378.732
190.145 -91.4375 743.69
89.6234 -39.1652 798.071
64.1982 -137.812 784.735
26.7093 -29.8807 821.025
114.047 22.81 402.078
73.8424 -50.6678 803.402
61.3619 -27.6494 813.533
15.2387 -5.19679 828.609
106.911 14.5019 457.944
207.546 -185.386 723.824
15.3238 0.601094 829.103
63.1802 -195.63 765.697
86.3419 -160.802 771.626
28.1811 51.1178 834.436
230.551 -191.768 712.896
189.774 -110.232 738.635
152.136 -118.071 754.226
274.272 -174.986 702.868
309.767 -186.557 688.758
208.61 -142.193 728.994
195.616 -183.844 726.65
243.563 -142.5 714.575
77.323 -50.8487 801.082
210.934 -183.435 721.227
201.644 -178.029 726.633
27.7593 -197.843 782.763
134.768 -79.6829 764.17
81.5353 -177.288 770.343
280.646 -184.472 698.363
167.905 -108.873 747.983
269.756 -207.174 696.888
83.4839 -77.9541 792.593
93.4841 6.9491 464.729
167.828 -131.948 745.239
290.353 -160.361 699.528
121.152 -104.475 771.927
186.874 -142.757 736.685
116.407 29.9803 800.315
37.5597 -30.4646 820.266
106.255 -0.752594 457.422
63.1283 -143.134 785.559
57.5894 -32.0159 810.998
26.2375 -156.269 793.109
222.176 -94.7411 727.96
62.0766 -179.19 776.781
56.4681 -84.7655 801.262
52.7103 -93.3432 800.339
200.835 -114.6 733.19
196.601 -178.382 727.58
189.777 -183.467 729.356
365.741 -143.484 686.779
32.0119 -160.215 788.911
286.071 -155.262 701.956
323.014 -147.101 692.467
136.938 164.173 809.761
71.6364 -173.236 774.38
171.372 -148.474 742.3
166.858 -197.179 731.659
147.702 -120.843 756.748
180.259 -146.978 738.224
150.202 24.1796 395.472
106.339 -153.417 764.955
18.666 -57.1563 819.533
17.036 -169.514 792.336
57.9924 -133.41 787.603
87.9078 -11.3458 804.593
289.323 -127.051 707.697
99.3401 -34.1442 432.955
19.8089 -98.7424 806.486
-24.9118 136.739 850.332
47.2985 -97.2612 804.658
459.085 -84.855 665.782
222.027 95.6544 460.859
90.4572 2.53785 464.856
166.469 -145.699 745.418
175.149 -183.864 732.334
44.4555 -129.56 792.752
123.651 -128.45 766.786
399.335 -203.873 651.914
303.608 -123.456 703.252
79.5039 -165.976 773.903
66.5525 -146.064 782.074
181.51 -142.875 739.696
101.013 -90.2926 785.92
272.045 -165.521 706.602
173.86 -202.362 729.946
-32.2765 -38.7306 833.556
36.7824 -195.475 779.628
50.2828 -110.456 797.279
50.3934 -67.506 807.787
127.083 -106.457 767.985
221.174 -148.78 724.46
455.125 -110.643 662.326
-11.9786 -33.6128 828.617
195.001 -133.326 735.379
29.3731 -23.0657 823.243
198.669 -140.851 732.517
317.946 -95.5444 706.05
213.428 -167.716 723.126
119.772 -174.182 757.199
311.437 -134.098 698.988
220.91 -158.963 722.702
62.7077 -93.836 796.251
316.907 -90.2195 705.811
120.94 -162.148 761.615
59.8342 -116.88 792.295
83.7521 -91.5186 791.428
60.4375 -176.611 776.198
126.595 -78.0078 766.881
209.184 3.63787 429.432
407.436 -196.582 656.36
140.206 -86.8436 765.38
289.895 -153.27 702.862
63.8154 -87.5537 797.953
402.98 -179.421 663.286
119.378 -136.077 764.796
103.385 57.8408 474.374
213.305 11.22 432.63
75.2192 -81.2245 794.468
19.2495 -198.834 786.531
98.5832 69.1576 809.978
73.0558 -74.6822 796.639
433.421 -196.813 649.085
77.7149 -75.5526 800.55
234.021 -193.507 714.069
82.61 -79.7795 792.084
77.5725 -7.39323 464.999
107.825 -181.933 754.901
123.968 -50.766 379.101
94.743 -11.3398 459.021
80.6518 18.2674 470.86
75.7904 -177.88 773.011
223.414 77.4451 454.415
98.9199 62.5086 804.53
14.4969 -140.132 800.201
116.032 -90.7115 772.408
237.025 -200.789 709.094
439.408 -160.476 640.617
300.594 -189.93 690.871
81.2962 -11.6134 459.551
12.591 -66.3782 817.555
131.394 -191.829 748.739
310.867 -90.2344 709.85
108.049 6.91958 401.905
396.083 -182.475 664.309
108.908 -12.4356 444.641
311.873 -180.533 688.898
114.103 26.2309 398.035
144.333 18.3641 394.955
47.518 -188.583 777.408
162.954 -166.084 744.18
191.273 -95.7523 742.215
154.518 -164.842 746.305
88.8658 -96.4799 786.754
33.9858 -132.397 797.014
21.6808 -165.243 791.662
-9.64187 -19.3631 833.22
118.847 -165.086 759.758
139.552 120.465 799.757
99.4872 -161.684 767.563
-53.3253 -28.7312 838.603
126.226 131.197 809.377
210.796 -186.304 720.567
19.625 -193.433 787.301
300.955 -146.19 700.084
119.422 -143.233 764.465
132.789 -128.158 756.955
152.683 -136.175 753.216
41.0755 -146.098 793.244
181.226 -99.5478 745.504
104.081 112.039 815.853
85.453 73.229 817.626
74.4152 -130.411 783.471
58.4351 -144.88 785.379
72.9049 -193.737 769.598
444.471 -115.748 663.16
283.878 -139.929 706.848
290.075 -139.545 706.102
100.388 -21.8038 447.808
20.2504 1.45401 829.961
322.331 -135.521 694.61
189.963 -98.8531 740.412
116.475 26.7386 797.023
76.8114 62.0476 486.352
170.075 -163.013 740.194
124.394 -187.682 751.098
88.7797 23.5593 472.742
197.91 -99.0366 740.074
79.1179 76.4911 492.435
173.301 -196.176 732.562
48.8614 -122.587 793.809
38.2514 -133.038 795.627
57.9265 -93.7048 798.056
431.06 -207.09 644.841
189.664 -87.8412 743.697
118.37 104.235 806.961
68.1584 130.045 830.435
93.9152 -14.7371 801.468
210.239 -173.513 724.941
41.053 -65.5943 812.989
60.1007 -98.3115 798.262
321.851 -116.882 699.44
395.586 -149.636 667.841
107.971 -16.5598 397.927
142.663 -44.8176 379.599
180.018 -144.39 740.39
71.9277 -119.735 785.439
455.967 -78.4328 668.243
25.3847 -133.979 798.815
297.909 -116.058 706.566
61.3211 -14.1249 461.415
70.8253 -68.666 802.476
-60.8047 21.3092 844.718
58.6238 -144.489 785.98
3.25911 -192.902 792.211
321.61 -151.542 690.985
303.57 -99.8803 707.325
307.439 -97.4842 707.355
92.527 -96.7037 784.667
213.043 53.1684 454.426
109.386 -3.68156 398.919
104.146 -194.129 756.51
90.877 -142.461 775.994
56.6313 -99.8106 797.969
86.4383 -34.7475 449.193
158.011 -91.3166 756.133
103.287 -96.5664 780.35
212.2 55.0301 454.688
166.483 -96.0337 751.405
72.9906 -189.889 769.472
190.878 -115.703 739.563
60.3631 -88.2598 798.327
311.715 -79.048 710.184
68.3503 2.61104 467.417
36.712 25.1674 826.173
12.9292 21.9303 833.143
448.086 -125.024 659.985
95.5841 1.98318 462.372
178.97 -167.862 737.209
144.402 -161.473 749.985
107.064 85.7744 801.109
114.528 128.852 812.65
446.612 -181.43 645.404
94.4059 24.4283 471.225
123.764 -37.2398 374.435
100.679 20.9107 468.16
82.0468 -103.432 786.813
115.051 -143.003 764.971
227.995 -189.891 714.845
27.0424 126.025 840.237
107.028 -31.9043 433.197
81.3935 -22.174 805.178
-58.6467 -118.807 821.643
61.3598 38.1857 825.731
81.4163 -70.6281 795.129
106.52 -11.82 398.615
85.8501 7.58427 466.153
259.613 -169.747 709.637
168.939 -97.9403 751.137
67.0793 -85.5894 794.839
69.9039 -163.087 778.113
124.937 -173.25 755.069
36.081 -181.38 784.714
33.703 -25.6482 824.407
195.12 -15.1552 425.72
293.82 -183.755 694.01
114.225 38.5167 806.24
166.477 -169.563 739.062
120.953 -91.8605 770.366
202.913 -113.421 733.306
35.4246 100.846 836.042
63.9361 -149.256 782.482
82.3658 -122.261 783.535
254.397 -149.521 710.389
162.336 -168.422 742.708
213.847 -189.014 721.888
87.3026 140.844 823.948
200.409 -12.8804 424.493
106.41 12.2917 459.621
80.0475 -162.832 773.057
55.2217 -61.5687 807.237
32.3515 -177.865 784.018
163.088 -149.082 743.354
188.764 -23.0301 421.943
183.894 -201.986 728.893
109.871 -6.36845 398.055
106.723 -39.7894 794.284
235.392 -112.57 725.451
318.915 -209.342 680.589
328.314 -208.233 677.759
73.6299 -185.301 770.066
91.6601 -158.251 770.093
236.92 -196.126 711.034
346.87 -200.593 676.012
121.31 -14.6089 787.313
191.514 -136.421 736.224
113.741 90.29 812.595
-7.83668 -67.6734 822.5
67.3177 -165.026 777.182
110.155 -130.766 772.925
136.766 -188.919 748.326
352.422 -190.76 674.09
82.2955 -105.527 786.788
373.598 -186.258 668.517
131.84 -194.609 747.505
238.881 -188.118 710.88
117.968 -23.3571 789.641
135.463 -110.917 763.77
179.713 -174.805 734.01
129.054 -177.312 752.704
39.3293 -193.094 779.598
191.132 -203.041 724.656
132.199 -186.582 749.236
300.926 -177.504 692.984
46.3844 -178.949 780.917
103.185 -13.9985 802.392
49.9358 -14.6014 820.063
177.965 -135.262 741.162
194.86 -169.797 730.006
96.3241 39.8296 475.495
276.458 -164.595 703.62
189.084 -84.4525 745.375
124.846 -169.453 757.342
58.9156 -68.5805 806.067
181.119 -208.68 729.12
62.5828 -154.92 781.349
124.948 -146.441 760.819
322.883 -206.869 679.721
53.1203 -148.789 786.909
180.089 -208.429 731.732
313.454 -143.3 695.039
15.4994 -144.545 799.508
80.4355 7.01737 469.864
121.467 -61.3132 783.841
327.566 -131.135 696.354
179.096 -149.339 738.332
283.669 -210.262 697.545
189.694 -123.493 739.247
20.591 -65.1659 811.615
319.702 -159.136 695.211
39.3808 -1.23523 822.396
224.586 -104.637 727.682
77.8552 -194.964 766.589
318.838 -116.703 699.858
312.294 -113.833 703.172
296.275 -200.342 686.972
107.615 8.97572 458.367
416.486 -105.91 676.369
95.4389 -160.854 771.253
47.3247 -88.235 802.975
41.7575 -181.323 782.931
236.692 -195.673 710.219
182.95 -103.389 743.912
76.5268 -53.0872 801.453
138.755 -104.582 764.36
128.68 34.2321 795.673
304.081 -96.9264 709.677
81.5686 -183.421 767.659
202.193 2.2632 436.104
78.8849 22.0693 813.207
110.15 65.1155 808.149
434.395 -185.377 646.323
111.331 -27.329 794.53
203.265 16.4251 443.059
208.769 -192.409 721.777
80.765 -102.087 790.654
194.06 -195.863 724.668
132.732 -95.1327 767.729
11.9847 59.5089 839.356
220.611 -151.544 724.075
129.955 -175.064 751.832
94.8084 -27.6853 801.307
106.603 -146.012 768.133
79.4877 4.78601 811.458
81.6683 -9.56053 463.095
166.3 -153.351 742.313
22.6583 -10.037 825.747
11.8095 -170.536 793.83
-2.21892 -4.64844 834.551
77.0005 -101.276 791.42
105.253 39.3605 805.345
84.0602 -48.7611 798.363
59.8718 -61.7285 807.82
85.6973 170.372 834.767
28.4579 135.935 841.8
295.878 -141.459 703.756
90.2817 -169.236 767.616
98.9024 34.1323 472.026
70.9472 7.02454 815.123
50.3605 -192.863 777.067
57.5095 -112.435 793.45
81.7745 -54.8143 797.56
134.963 -160.554 754.291
301.865 -179.688 690.834
29.7869 -92.4886 807.283
187.511 -86.51 745.905
30.9038 -199.073 782.433
110.362 -194.115 755.963
-9.25513 -47.2696 826.714
139.691 21.6388 396.955
443.02 -103.254 666.234
39.7366 -112.795 800.666
102.452 30.0545 469.448
204.192 0.378949 434.214
270.603 -161.388 707.082
90.8456 -46.736 794.978
103.166 34.413 469.652
21.9689 -39.012 820.81
321.265 -198.882 685.178
130.735 -95.9283 771.517
280.198 -171.589 701.366
58.1749 -199.49 770.671
243.561 -195.728 711.212
119.725 -88.3224 776.08
140.237 -11.1159 388.795
112.33 -106.84 773.448
453.676 -119.608 657.467
64.5478 -181.694 773.572
178.296 -87.0677 748.157
232.101 -160.907 718.526
205.215 -88.1117 735.854
196.276 -198.754 724.423
233.547 -182.159 716.538
80.9358 -160.882 774.522
105.996 -98.9152 778.716
403.848 -202.379 663.665
157.87 -83.6203 760.111
95.4075 -194.642 760.727
104.535 22.8557 463.657
426.5 -152.924 656.453
30.2018 -150.702 792.447
15.5839 -60.1115 817.282
102.389 19.9493 464.062
120.806 -194.809 751.631
48.9832 -12.7473 822.845
28.4805 -180.484 784.838
91.7574 -200.462 760.373
52.7719 -134.013 788.454
112.63 -170.176 759.575
68.7155 -132.211 784.081
190.297 -208.178 726.376
115.784 -30.3774 787.895
179.651 -99.064 746.114
205.647 -142.521 730.402
25.3595 -116.971 802.047
98.1187 18.1256 468.372
222.932 106.389 463.738
123.706 -42.2245 785.754
108.354 7.21901 803.419
95.5119 -177.989 763.693
9.77046 52.508 840.336
116.752 -110.219 767.253
121.749 156.134 811.485
91.724 -186.577 763.226
23.9011 17.9207 829.513
90.9647 -172.339 765.395
185.722 -107.577 741.387
105.029 13.9431 459.286
116.166 -86.6725 772.021
143.576 -142.64 753.942
74.7522 27.8302 820.045
207.148 -118.407 730.347
220.059 -148.62 721.827
91.9889 164.783 821.599
204.896 -185.252 724.37
28.4088 1.49067 827.67
126.92 36.065 795.277
173.468 -170.78 737.207
12.8002 74.1818 839.2
122.002 -103.055 765.677
70.5885 -166.857 775.895
89.3004 -164.822 768.902
128.042 -93.8004 770.875
36.3141 -114.476 802.067
106.95 -198.87 755.808
163.085 -164.329 742.284
114.556 152.944 815.11
108.512 -126.395 772.593
70.5897 -100.833 793.291
229.335 -197.314 712.044
103.527 27.9244 466.945
194.073 -109.003 740.595
71.7856 -97.9491 798.713
69.2997 -107.524 794.403
20.0354 -69.5644 815.305
196.413 -90.0235 740.792
203.887 -138.143 730.757
99.6301 9.60147 463.066
107.378 -188.187 756.965
38.1379 -0.114833 825.722
80.5301 -38.1096 448.16
235.169 -146.598 719.812
133.212 -184.977 749.363
433.299 -170 649.205
111.87 26.643 803.367
392.022 -183.567 658.634
209.064 -162.701 726.814
312.61 -181.086 685.649
188.541 -160.723 733.871
125.084 -123.712 765.421
178.467 -32.7137 418.118
116.065 -49.3582 380.863
69.419 -37.742 811.119
308.362 -118.139 703.549
104.232 -17.6919 803.697
240.277 -129.266 714.2
82.0991 -33.4361 450.758
250.838 -195.303 703.36
112.444 46.4102 801.738
130.477 -107.423 766.725
315.528 -180.911 685.17
201.998 -159.827 729.457
119.274 -66.1023 782.271
299.348 -105.603 709.167
66.743 166.081 835.077
107.85 -24.8672 396.838
55.1623 -191.12 774.265
40.4572 5.82072 824.244
73.7721 -24.4471 455.949
85.0597 -152.244 775.751
260.897 -178.971 703.276
37.3849 -44.1306 815.597
102.288 -45.7361 795.684
261.48 -195.932 701.879
74.1971 100.909 824.454
265.374 -170.101 703.334
107.689 -10.6916 448.294
157.288 -90.3191 759.645
15.4256 98.5889 838.968
78.923 -40.8856 804.401
98.9431 45.4202 810.28
238.316 -162.996 714.398
203.955 -166.825 726.709
198.362 -92.7119 738.879
198.884 -27.3039 411.987
104.426 -4.08605 797.471
68.4687 -22.5951 457.831
104.006 6.61661 402.929
413.036 -183.011 653.305
436.303 -162.544 649.042
164.938 -157.819 741.635
67.6629 -161.219 778.049
108.459 -47.863 389.132
121.89 51.0865 800.621
329.563 -159.746 686.466
440.359 -89.9445 671.038
120.391 -81.3273 770.102
317.055 -175.958 688.396
45.266 -65.2278 810.379
403.819 -109.053 683.303
170.419 -153.903 742.772
207.891 3.6908 432.157
213.671 -152.5 728.02
-61.486 -49.5907 830.48
171.33 -101.079 749.43
73.8143 -90.8727 793.022
105.397 -137.815 767.87
102.737 23.2185 463.562
417.36 -103.138 680.385
105.308 -24.8746 438.746
320.3 -132.119 697.205
242.6 -101.411 717.309
29.9194 -153.771 791.955
51.6754 -125.316 793.511
-52.7212 -17.2301 837.436
154.224 -135.824 750.905
140.079 -142.697 754.35
37.54 -117.564 796.921
21.0572 -117.088 803.552
276.586 -190.633 696.187
201.212 12.7823 443.13
133.029 -103.844 765.261
109.275 -1.73169 449.798
75.7638 -96.4054 791.581
77.9992 35.006 813.848
66.8572 -192.071 770.461
94.957 -15.3685 455.444
74.3977 -20.661 807.866
43.1468 -34.3858 817.307
155.654 -96.0896 756.608
117.013 -118.122 772.129
99.6194 -16.0119 452.58
216.244 -141.518 722.719
80.6625 115.111 503.996
93.1415 -168.901 766.797
120.5 -186.078 753.416
78.7924 -8.33694 464.805
63.8916 -58.1931 806.074
105.454 -53.299 789.41
206.091 -164.771 728.19
213.452 -143.413 727.645
9.72491 -161.326 795.969
116.436 -156.974 761.541
2.879 33.518 837.869
95.3312 3.79932 463.563
47.1927 -172.023 781.58
67.8949 -188.678 770.815
43.2363 -163.682 784.8
83.0968 -32.2288 449.558
188.554 -12.7232 433.901
118.985 -82.264 775.029
118.985 -122.38 769.077
400.605 -153.962 668.515
67.13 -148.835 780.533
156.839 -181.29 741.651
37.782 -184.293 781.773
49.4187 -100.304 798.17
88.2878 11.5966 468.598
64.7007 -115.519 791.703
99.1808 5.09159 459.731
21.6896 -125.734 806.489
22.9172 -175.924 791.057
-4.50689 -32.7501 829.3
215.918 -105.391 730.079
239.439 -169.837 713.311
31.741 -155.291 790.381
187.032 -130.666 736.121
95.6231 29.894 810.325
29.3848 -100.039 805.003
218.996 -176.636 715.798
125.743 -157.306 757.454
188.632 -18.9881 427.698
53.2733 -89.4529 798.76
225.139 -171.344 718.433
35.4572 -149.378 790.752
102.444 4.03978 458.205
19.3014 -101.895 808.818
133.036 -132.215 763.665
119.208 -192.56 752.59
37.2068 -142.576 792.816
211.015 -176.79 724.139
420.892 -159.347 652.418
135.62 -194.305 748.811
192.356 -101.458 740.439
127.725 -57.2158 376.068
88.4115 -89.0534 792.615
87.5243 -40.1088 443.915
69.4805 -72.8887 802.295
292.837 -139.212 705.072
100.595 15.7725 415.356
-51.9318 -35.9563 836.414
-60.393 -75.357 828.679
181.353 -120.563 741.927
23.6231 -66.3626 810.785
315.123 -105.784 705.722
92.695 62.993 484.477
88.7104 96.4915 820.34
36.2119 5.79938 827.496
122.284 -138.109 765.955
411.016 -178.246 635.445
151.309 -164.403 745.83
186.353 -133.846 737.803
17.7705 -191.89 786.285
104.133 -4.74701 453.174
310.605 -96.6834 707.68
169.507 -169.169 738.537
176.094 -149.172 739.607
-7.13747 -17.2032 832.443
274.195 -150.899 709.351
187.728 -14.0449 431.861
47.0737 -164.66 784.254
239.42 -174.117 714.719
102.502 -5.66767 804.568
40.8065 -124.295 796.233
10.6823 5.50539 833.124
0.558413 -152.073 801.498
138.815 -182.725 748.011
62.9446 -25.5784 811.827
94.5082 120.4 820.152
276.461 -149.065 706.736
14.5634 4.66478 829.176
20.9909 -45.7908 820.236
46.0658 -166.617 782.732
179.141 -202.841 728.88
0.217138 123.783 844.453
200.242 -105.137 736.626
71.0736 -86.5132 794.543
17.0147 -185.232 788.396
296.985 -164.178 698.099
223.362 60.9546 448.254
199.066 -176.576 727.049
154.24 -176.857 743.324
218.335 -171.894 720.502
425.256 -175.692 655.189
430.165 -150.246 655.316
180.637 -143.69 737.086
233.904 -200.84 709.695
32.4077 -167.53 787.791
131.874 98.0201 804.36
284.647 -194.614 695.352
89.4381 12.6793 808.569
122.088 24.8943 394.622
263.358 -193.965 704.138
212.316 -192.321 720.031
36.785 -161.534 789.197
81.0506 -72.8497 794.938
171.772 -111.909 748.503
81.2832 -7.32052 463.109
87.8435 -12.5404 457.727
50.5097 27.2649 824.895
128.76 23.9381 392.461
320.084 -139.838 695.471
31.9455 -190.256 783.088
354.496 -173.027 678.322
110.165 -99.6619 775.919
90.24 -83.2356 791.147
27.3873 -13.962 822.605
119.587 56.3213 802.044
220.211 78.9655 457.49
255.911 -195.025 703.293
92.484 -131.011 780.711
84.6324 -5.2313 462.999
150.599 -192.314 740.92
63.3847 -94.9263 799.416
117.405 50.9176 805.254
168.519 -86.9036 749.066
96.3915 -139.243 773.721
102.043 -188.624 761.686
7.45192 -152.611 797.379
195.58 -190.627 725.535
227.214 -167.423 719.962
86.0123 98.5972 821.164
10.7824 -4.81592 828.663
115.237 -26.9259 796.152
88.5621 -197.467 761.167
133.136 -157.734 755.584
137.169 -94.2926 764.985
34.7191 -94.1961 804.887
124.463 -32.1909 375.533
43.7983 14.3959 824.047
253.564 -163.955 712.534
341.19 -173.396 686.541
185.289 -120.379 740.869
3.7295 42.5313 841.065
123.218 -7.55541 798.77
53.2648 -144.64 785.355
5.3678 -155.818 799.181
280.524 -159.834 701.748
100.762 68.0571 811.525
78.8263 -72.4583 799.988
181.048 -30.6009 418.417
317.403 -100.187 703.921
79.0666 -62.6988 794.288
82.7885 113.592 500.876
45.9401 -76.191 807.163
330.524 -150.055 689.831
95.9277 -23.2467 801.19
39.8546 -95.4571 803.005
95.0707 -192.458 758.002
114.607 -179.327 756.822
70.3376 -33.5325 452.996
-17.5014 -58.7245 828.87
95.7152 -53.4829 793.167
87.1751 -50.6393 792.726
101.532 9.44917 461.036
107.161 -104.181 773.49
218.596 -185.81 716.786
102.202 -140.731 773.987
52.6947 164.691 836.998
205.757 2.1143 431.222
417.493 -152.43 668.615
193.102 -96.2205 742.229
139.193 -187.601 749.014
96.6101 0.892714 461.152
249.037 -177.113 712.373
195.481 -9.10077 431.952
101.311 117.936 816.784
68.7681 -60.1604 800.604
140.63 -85.1423 771.102
91.0232 -35.2095 444.863
193.779 2.7052 441.185
214.367 20.5255 438.387
49.164 -26.5345 815.978
188.123 -190.075 728.804
-16.2601 -42.7789 830.399
29.6931 3.86856 828.213
102.803 -128.316 771.311
21.7986 -154.228 793.538
147.261 -146.075 750.343
140.694 -160.648 752.188
89.8364 112.096 499.345
110.529 8.88139 402.815
140.676 123.359 799.928
175.012 -125.996 743.983
69.608 -194.172 768.747
399.888 -103.985 685.02
21.8342 -25.6707 824.172
107.851 -80.3356 776.125
94.8189 -22.0898 450.003
457.624 -152.12 656.105
64.9607 -175.117 773.625
122.993 -92.1235 776.263
47.0844 -158.763 784.065
72.1769 48.6483 483.029
129.866 23.1925 394.135
213.407 -177.024 721.98
75.1036 -0.576977 468.224
218.504 -140.069 726.767
51.94 -139.156 790.311
117.816 -166.353 758.82
59.4956 -107.52 795.227
232.141 -178.58 715.548
43.7285 -81.811 804.614
226.09 -179.909 718.091
227.364 48.2222 436.387
43.5886 -67.1808 810.359
71.5896 -114.758 794.503
146.468 -94.5637 759.089
109.721 71.8035 808.729
280.971 -168.154 704.028
371.405 -155.923 679.859
98.9549 -135.136 774.787
141.181 17.3979 397.425
26.5679 1.59366 826.813
61.8993 -174.05 775.678
33.6125 -5.292 823.771
65.4815 57.9504 823.04
116.922 -186.131 756.024
96.42 65.7368 811.453
19.3322 -163.876 792.954
101.105 110 812.216
-19.382 151.241 850.603
73.4284 164.868 824.875
31.0554 -112.544 802.041
417.119 -126.455 667.881
58.8786 97.8218 828.839
46.3226 -77.6318 805.769
302.475 -184.272 696.791
220.815 4.03351 420.458
205.585 -169.502 727.651
43.5436 -172.389 782.086
122.952 -54.2935 786.46
87.4583 -175.632 768.408
245.896 -166.567 714.76
41.0539 -67.6475 809.033
117.055 -67.4529 784.413
129.254 -198.919 748.855
115.946 126.955 810.078
91.2203 -73.0113 788.636
113.142 -72.9223 781.157
109.888 -76.657 778.372
63.1962 -78.929 799.764
67.002 -79.4436 797.911
134.444 -78.1494 766.703
120.479 -78.8027 774.239
-25.1281 -81.6307 823.049
136.834 -81.566 766.877
45.7135 -84.3415 805.024
129.129 -84.9355 772.065
78.2705 -85.4523 793.515
129.03 -86.8616 769.156
176.466 -86.5511 749.137
188.331 -88.527 744.473
96.2952 -89.3229 784.366
186.428 -88.5346 744.187
175.146 -97.3787 747.605
159.331 -88.9871 755.748
81.448 -99.833 785.848
142.189 -89.3174 763.773
55.946 -91.9412 797.654
180.486 -91.3268 744.934
28.3678 -93.6535 809.085
298.164 -93.0307 714.161
32.4225 -94.9024 806.179
112.58 -94.1074 777.353
163.558 -93.0647 752.437
164.382 -94.8784 752.071
128.084 -96.0459 770.078
186.814 -104.809 743.51
59.6427 -97.7665 796.032
119.597 -99.4587 772.48
121.167 -100.391 772.365
170.869 -101.18 747.729
100.005 -102.435 780.702
51.5819 -102.714 797.978
142.037 -102.259 760.268
28.5245 -103.649 804.221
76.2526 -103.787 787.706
70.7404 -103.983 790.881
180.984 -102.979 744.12
118.953 -104.459 771.847
186.168 -104.216 741.928
24.9755 -105.979 804.742
92.8852 -106.073 781.09
190.304 -107.584 742.021
103.108 -110.495 776.468
119.726 -111.004 767.19
118.273 -111.172 768.693
179.032 -113.017 744.487
50.9121 -120.571 793.641
289.626 -161.868 692.535
160.137 -120.478 750.778
179.97 -123.511 742.824
166.787 -125.44 747.342
267.744 -186.051 709.043
112.393 -125.854 768.857
149.212 -128.257 755.128
180.56 -133.227 741.467
172.723 -137.129 744.208
26.9891 -191.924 784.751
178.308 -140.024 741.749
183.591 -141.295 739.242
240.58 -202.067 706.424
165.735 -141.399 744.623
209.977 -202.064 716.135
162.893 -141.264 745.506
441.316 -142.77 642.343
211.885 -146.728 728.413
260.074 -169.174 707.812
131.055 -147.286 756.206
114.112 -148.613 763.704
134.552 -148.999 756.035
153.264 -151.585 746.591
263.81 -208.364 700.398
57.3501 -150.91 783.23
152.274 -155.228 746.417
9.80152 -154.565 798.06
174.353 -157.684 740.696
177.634 -158.743 738.097
155.594 22.5651 398.832
39.9158 -157.312 786.001
150.697 22.3305 397.449
138.173 -163.855 750.637
136.936 -164.574 751.82
17.9813 5.43091 830.105
101.932 -166.469 763.535
94.4671 -167.506 766.683
47.6419 -167.102 781.953
41.8828 -167.205 782.44
106.48 5.96277 402.149
213.126 -170.803 723.597
116.444 -170.187 758.015
61.1917 -170.953 778.173
94.1228 -177.23 764.616
94.5208 -179.216 763.942
67.872 -179.214 772.65
47.4766 -181.59 779.123
50.1076 -95.9946 800.978
123.334 -183.167 750.966
153.174 -184.573 741.586
1.66599 -183.942 794.522
211.606 -188.286 722.219
82.1218 -187.86 767.096
144.907 -189.501 744.303
244.628 -135.492 714.65
130.054 -190.962 750.169
80.052 -190.057 766.763
29.9201 -191.152 782.369
135.875 -199.542 745.755
82.8721 101.876 500.184
345.309 -173.338 673.773
73.0295 85.3346 497.797
13.2267 66.5385 838.863
14.5536 57.8275 837.454
85.6099 53.5014 812.487
104.707 20.6671 464.509
96.4039 17.1769 469.046
-3.61649 14.1534 838.266
85.6459 11.4494 468.905
-8.37786 2.04958 834.596
108.168 7.41896 401.973
205.519 -0.565997 431.395
106.827 -6.67971 398.772
29.6025 -26.6822 822.823
81.882 -11.6669 461.279
91.2784 -22.546 454.57
13.8931 -95.1063 811.099
22.7129 -59.5915 819.457
86.3511 -59.2533 793.937
42.9705 -60.8244 811.419
22.6222 -61.0467 817.689
21.1574 -61.2164 815.867
48.5082 -65.6339 809.49
118.074 -80.704 774.253
169.089 -94.8728 750.971
188.018 -102.417 742.166
181.879 -108.057 744.319
180.603 -111.376 742.77
118.823 -113.478 769.593
121.371 -117.745 767.077
144.313 -124.885 756.387
184.672 -135.158 739.472
182.074 -140.906 739.393
53.0148 -141.487 789.259
120.786 -144.163 761.95
180.84 -148.792 737.753
178.377 -153.371 739.148
42.6504 -156.122 787.641
68.4318 -164.821 775.633
65.5669 -164.945 775.756
197.534 -167.966 730.966
145.119 -168.154 747.792
81.9056 155.471 825.289
60.5131 12.916 478.367
120.227 -19.9051 396.142
42.621 155.39 833.27
27.2049 116.693 838.141
38.6346 85.6784 835.246
72.6282 63.8571 830.916
158.075 -106.336 754.871
147.215 -184.719 744.571
68.2566 73.9881 827.639
102.126 20.4167 407.06
30.7736 -18.6399 824.473
133.437 -20.1949 391.232
108.994 -34.7947 392.362
113.345 -49.0405 382.787
32.6797 -106.678 805.435
317.463 -209.426 674.312
131.542 -50.0008 378.089
15.843 -120.996 803.862
164.591 -173.645 740.971
82.9765 89.7435 820.277
113.721 16.0746 403.922
28.9145 -3.9956 826.744
99.6669 -32.5486 439.072
119.698 -34.1357 374.601
39.2383 -109.632 801.17
452.778 -111.938 657.257
150.962 -115.422 754.53
76.7249 -141.081 778.356
88.7744 -142.634 779.847
115.099 -160.849 760.383
149.736 -164.648 747.075
144.12 -168.655 750.528
290.177 -185.877 688.831
15.7965 122.688 840.793
122.361 109.895 806.377
105.716 89.8908 807.733
133.811 35.7272 397.341
74.7771 31.3762 476.465
92.5751 42.7326 811.778
248.182 -109.632 715.037
67.2181 7.88262 470.454
19.5939 -3.95454 828.817
72.9773 1.743 468.482
137.747 -12.6193 394
109.848 -28.6146 394.854
76.7248 -33.0449 450.918
43.3779 -71.9389 807.72
157.195 -98.1825 754.772
200.142 -98.0782 736.581
433.191 -160.108 642.792
151.151 -124.438 755.363
123.716 -141.596 762.723
146.816 -147.666 752.276
9.16548 -147.473 799.455
199.336 -153.372 730.975
52.5256 -156.631 782.022
60.9556 -161.345 780.238
303.964 -165.481 694.868
54.137 -163.176 782.562
76.8218 -175.198 774.019
154.58 -184.914 740.786
88.1202 -184.324 765.161
54.6997 -184.713 777.35
114.175 -186.01 755.377
65.77 -184.678 771.972
128.311 -188.055 751.017
51.8884 -197.843 775.129
61.304 126.218 831.421
133.202 117.821 803.111
120.833 116.856 807.894
105.724 45.1154 416.967
105.884 40.5422 416.806
122.055 60.6436 803.873
76.5977 34.1097 477.657
76.3616 23.7394 474.762
105.137 32.5879 805.069
32.1526 29.5039 830.715
105.477 21.2394 462.256
107.79 16.2081 403.825
110.261 15.9519 404.13
69.4235 12.334 471.613
108.28 13.045 403.522
82.1792 8.66389 469.184
11.4953 -0.0950907 830.732
83.5951 2.20004 467.314
87.7783 2.01224 465.116
92.8166 -3.34796 801.53
94.2756 -11.4076 801.616
88.283 -20.4168 804.755
59.8415 -16.5672 461.563
182.081 -162.294 734.786
254.796 -99.006 714.233
238.02 -170.706 715.614
245.87 -114.563 716.035
245.37 -117.62 710.653
255.129 -119.581 711.95
219.608 -119.818 726.175
236.63 -129.246 719.553
263.598 -111.697 710.705
228.745 -137.151 721.352
54.5474 -141.358 788.634
254.054 -144.665 712.517
240.172 -145.663 717.609
260.13 -119.151 711.314
85.0076 -147.415 775.507
437.03 -153.818 654.271
257.701 -151.858 708.184
112.443 84.7437 416.476
429.814 -158.33 646.679
112.002 -10.2732 400.784
241.749 -172.549 714.043
144.988 -53.1624 383.149
21.912 -150.803 796.089
443.239 -189.853 631.735
173.185 -191.994 733.316
113.887 16.2105 404.34
101.672 -9.99285 410.959
111.445 105.378 812.187
118.443 97.1284 811.368
104.753 94.5173 815.374
124.589 76.3288 801.782
120.293 63.3172 806.877
81.6473 41.2546 478.945
77.1787 -7.79952 809.734
102.296 13.8425 461.852
122.49 -179.95 754.54
121.536 -37.9169 376.627
113.229 11.8291 801.09
105.727 6.54661 803.804
244.363 -120.92 715.537
85.1411 -7.49038 811.08
95.0744 -0.709872 460.185
438.899 -136.868 653.767
234.728 -143.239 719.186
125.804 59.1404 804.408
44.1816 41.2132 828.067
45.7311 38.5636 829.773
429.962 -156.469 654.232
97.625 -163.163 769.439
15.587 -166.591 793.937
78.0081 27.9617 817.154
108.127 18.076 458.518
48.2239 -168.669 782.115
217.224 -170.391 722.74
12.3763 16.2468 832.754
260.675 -172.628 706.646
256.516 -178.087 705.154
189.803 -180.688 730.043
427.929 -197.573 645.09
225.372 98.5441 461.799
-44.4829 107.477 856.05
101.526 44.5512 470.095
200.837 -17.4657 417.361
271.827 -151.85 702.387
145.492 19.982 393.713
104.725 16.9332 403.941
115.902 23.2452 800.756
105.962 14.6706 403.15
211.468 16.0646 445.265
38.5959 11.2312 825.981
123.419 -68.6462 781.76
94.7654 6.85432 463.727
214.034 7.8061 433.936
26.9576 -4.61239 826.184
87.9243 0.153653 456.331
43.3205 -79.412 806.132
96.8882 -80.9182 791.338
54.6388 -84.265 803.873
251.584 -133.38 710.404
40.7731 -88.1474 804.543
159.276 -3.05274 398.62
171.941 -89.9385 750.398
119.434 -94.2639 773.896
196.427 -8.92218 432.879
26.0105 -99.2335 804.649
89.7117 -13.7633 454.139
247.923 -106.515 713.432
102.741 -41.7785 793.076
247.988 -131.985 711.259
-27.2046 -94.4865 823.257
281.645 -153.506 699.393
232.155 -154.151 716.1
279.037 -190.417 695.843
128.012 -158.701 757.661
110.043 -162.267 763.45
254.285 -172.614 709.164
382.946 -123.288 686.947
269.81 -181.199 702.062
181.712 -191.213 731.457
172.85 -158.711 742.89
-8.14581 -162.282 797.87
228.06 -164.851 720.792
255.405 -96.2396 715.455
137.905 -99.3263 768.681
22.8855 -119.313 802.273
126.994 -122.581 765.935
130.772 22.8962 394.151
129.823 -173.757 754.434
32.482 -173.224 785.71
197.65 -179.435 727.202
154.94 -82.7579 764.308
109.27 -130.197 769.767
116.504 -64.666 377.978
119.137 -66.9485 377.549
150.704 -172.905 742.155
48.4419 -179.935 780.329
-0.16222 -41.167 826.752
5.42166 77.8295 843.68
-8.51176 83.8462 844.057
41.3544 130.922 840.057
-20.0227 -125.028 811.872
106.228 17.245 460.601
-9.34827 -97.1034 815.332
2.75844 -71.2373 820.13
78.3099 -31.2275 444.191
-67.7088 -62.7893 836.363
135.722 -23.6859 389.654
103.293 -47.3177 789.732
78.6296 -38.7444 803.431
80.2055 -36.1205 802.602
199.84 -3.44627 437.702
208.713 0.476964 435.992
108.705 0.484638 400.701
125.045 -3.83579 795.271
197.006 4.59305 443.82
106.744 7.14164 401.697
224.487 12.4194 425.248
195.774 12.325 442.922
199.23 13.128 446.431
226.181 14.911 426.044
209.482 14.9686 446.498
201.264 15.9466 445.237
96.2632 16.55 465.409
147.966 18.1691 392.86
198.559 22.2179 447.718
112.087 19.3484 405.306
121.023 52.8543 804.448
100.816 32.473 415.281
210.603 43.0904 455.199
228.132 43.468 437.871
68.9263 49.9583 481.207
102.093 102.865 814.963
132.371 -205.612 744.99
112.638 -201.753 754.358
266.078 -187.515 704.562
221.842 -132.955 723.343
235.486 -132.334 720.358
239.849 -127.771 717.75
274.472 -196.418 698.15
93.593 -174.819 765.068
173.162 -163.007 739.162
265.022 -159.221 706.734
186.855 -23.0292 425.722
111.535 -18.3033 397.527
44.4687 -151.003 787.52
242.026 -150.054 716.604
97.7886 -16.2512 459.419
47.941 -146.42 788.012
115.646 -23.8398 793.532
174.405 -31.6504 417.195
435.091 -175.646 636.544
431.543 -142.491 647.732
295.299 -209.597 682.256
241.357 -107.592 718.678
261.833 -121.812 709.383
432.948 -155.367 646.134
104.761 -114.543 775.021
185.979 -138.252 738.433
244.869 -137.376 714.125
319.489 -197.589 677.649
268.711 -201.113 691.513
304.281 -208.276 679.519
227.483 -186.824 704.89
260.365 -108.147 708.802
277.897 -173.07 697.433
100.068 19.3196 413.987
120.916 -61.9987 375.476
222.75 59.8931 451.315
106.285 31.7245 408.097
108.238 12.6168 804.082
87.3614 -5.7619 462.295
113.662 -52.1202 387.845
92.7753 116.311 499.845
80.1249 106.876 823.616
215.163 56.6485 456.01
85.8525 -8.07758 457.752
96.4324 -20.5924 451.556
104.18 -33.7707 433.99
86.5707 -36.9456 445.266
99.226 -0.957536 455.151
106.268 -16.3754 397.688
404.119 -98.562 685.991
191.384 -3.38549 438.806
365.884 -141.1 684.827
100.522 14.2821 408.877
186.273 -15.8324 433.577
130.573 -7.42493 396.338
64.2155 -30.4909 459.024
10.0222 -155.649 798.646
6.19765 27.4364 836.825
94.4359 -9.1044 460.049
-14.3332 20.941 837.798
87.2677 131.834 506.789
-6.35383 108.003 845.147
4.77508 97.4777 843.075
-14.6761 51.2949 843.941
79.3302 29.9846 811.148
-15.3314 26.4169 840.111
14.0725 5.91486 830.85
130.804 94.7136 797.478
96.6041 35.2092 472.985
115.355 21.5859 399.982
125.474 -70.231 782.437
122.686 -75.313 775.282
122.443 -29.9534 375.725
213.564 -95.5011 732.758
446.654 -106.686 657.128
261.514 -111.056 712.986
78.588 -120.339 785.434
439.779 -152.17 650.5
254.068 -124.434 711.351
270.156 -125.845 710.615
79.4475 132.988 506.542
420.594 -157.794 645.878
101.227 27.4141 465.693
205.033 27.7842 450.307
205.917 22.8779 448.185
189.279 -10.7982 433.103
129.938 -55.5813 779.869
109.898 -31.4526 394.748
119.162 -34.1687 381.67
56.2494 -82.2223 804.978
216.25 -97.6267 730.625
110.418 -48.1634 387.399
135.659 -56.0865 378.397
188.709 -126.589 739.05
55.9833 -16.5058 818.209
124.312 -176.7 755.404
101.07 -180.518 759.347
336.002 -186.834 673.389
429.573 -189.084 648.485
190.124 -33.6905 412.595
152.26 -77.9438 759.938
146.304 -87.5049 764.666
151.718 35.5321 399.89
154.412 22.7035 398.477
22.0016 19.954 830.536
41.1455 11.5889 826.811
210.66 13.0267 436.992
110.707 5.57705 401.234
87.1445 0.964451 469.348
46.8896 -128.006 793.036
274.144 -135.144 703.853
81.5088 -8.06025 467.517
96.5035 -72.4795 787.46
94.0854 -72.0076 785.564
102.475 -71.3329 784.778
77.2047 -64.6279 796.104
19.2891 -65.216 815.198
20.9606 -64.1265 816.215
-20.9541 -62.8698 826.022
84.8833 -59.9192 795.227
99.1849 -58.2794 790.754
87.2583 -57.868 792.841
103.613 -28.687 437.201
101.06 -26.8647 438.307
102.199 -27.9477 440.37
87.7395 -52.8041 794.771
103.921 -25.2303 439.16
65.8742 -51.021 805.35
91.3675 -49.3546 794.993
96.4623 -46.7319 792.028
103.218 -42.3137 789.006
19.0566 -37.9335 821.308
24.3964 -37.9312 821.261
-3.70814 -35.4894 829.464
-10.0124 -32.361 830.027
10.8217 -31.1229 824.353
217.909 3.21976 422.603
102.256 -10.8242 453.553
98.9823 -22.1496 793.907
75.4587 -22.5331 805.593
25.2601 -18.5789 824.865
200.832 -3.26388 432.162
23.4517 -18.0343 825.335
200.328 -1.37314 434.701
-1.69175 -13.4354 832.019
70.5676 -2.79855 467.731
91.9521 -5.04528 802.063
104.525 2.62978 456.166
13.8489 -4.50735 831.779
-17.9723 -4.34793 837.025
-22.2847 -0.949765 838.415
142.412 8.85374 389.831
24.6901 5.74349 829.886
26.0753 6.32062 827.295
87.7574 9.86393 468.684
79.7085 9.94678 471.67
99.951 10.7325 463.025
-1.27927 8.63027 834.002
102.309 33.4685 469.205
98.7466 10.8828 464.045
26.2303 11.9135 829.192
-12.2862 15.2094 839.238
106.224 14.5746 403.592
106.678 15.6378 460.53
74.8132 65.2797 818.42
18.0608 16.909 832.362
7.4221 19.7864 836.527
70.0908 18.0605 473.692
101.585 20.5626 408.478
-12.489 28.01 843.289
98.9956 33.951 802.266
-0.202174 30.6108 837.753
24.2719 34.4248 833.976
99.7895 27.0825 469.85
11.2603 38.9824 836.975
91.6733 44.5144 810.396
-7.4638 42.7249 841.786
47.2633 46.4836 828.196
-7.3839 48.7391 843.272
91.9945 65.203 812.484
24.9872 63.5633 837.473
93.2064 67.4959 811.248
27.7858 65.9779 835.197
-1.95571 76.8324 843.021
31.1884 82.5055 835.373
99.0807 56.9138 480.326
-23.822 83.8774 847.367
103.385 101.823 813.587
-5.74871 96.2233 844.965
106.923 111.692 814.529
94.2161 112.763 820.135
95.8566 114.842 816.827
-3.26423 109.917 845.979
39.2943 115.302 837.686
83.4737 135.857 822.667
83.6881 101.664 499.615
81.4947 163.582 830.719
82.4381 119.916 505.434
71.7936 -198.601 766.569
118.89 -197.66 751.806
133.358 -196.912 746.331
25.2596 -192.798 784.82
4.25242 -191.207 791.102
28.3356 -191.469 783.069
142.932 -193.167 742.719
24.0704 -188.773 787.252
148.373 -189.298 742.04
168.741 -188.413 735.372
186.344 -188.198 729.085
3.31047 -183.812 793.575
373.37 -153.543 681.122
172.936 -187.313 734.402
-23.9201 -179.161 802.656
112.915 -181.041 757.952
186.084 -126.179 740.238
87.7558 -178.136 766.2
16.9632 -175.166 790.663
-8.46105 -173.883 798.329
210.74 -123.458 730.24
181.831 -176.014 732.639
177.973 -174.843 734.853
208.038 -174.332 723.504
229.614 -175.013 717.336
-20.5111 -167.038 804.945
129.755 -55.3055 379.533
44.1735 -166.961 783.405
119.515 -117.412 772.261
189.498 -167.361 732.371
173.424 -165.853 738.548
64.7387 -163.335 777.123
147.167 -164.34 747.668
160.696 -162.698 743.245
141.222 -162.275 749.317
-25.1244 -160.118 808.098
180.585 -162.931 736.699
54.9141 -161.265 783.062
150.099 -161.876 747.288
24.9225 -160.33 792.228
168.646 -160.698 738.709
113.083 -160.005 761.431
214.001 -160.808 724.147
-8.89238 -156.925 802.753
23.2897 -155.657 792.923
161.306 -156.844 743.089
228.222 -100.088 725.32
176.94 -155.442 739.368
2.85242 -153.39 799.979
87.7178 -154.338 773.165
-12.037 -150.717 805.835
132.188 -149.292 756.13
39.4239 -147.133 789.783
33.8 -183.303 784.138
215.229 -147.848 726.235
186.265 -145.359 736.362
135.78 -145.22 756.947
-20.1706 -141.871 809.111
46.9479 -142.856 788.686
60.1228 -142.957 785.055
130.301 -142.539 758.504
54.249 -139.777 788.205
133.765 -139.074 757.333
147.856 -137.017 752.545
198.861 -136.909 733.809
-15.8851 -88.0288 823.339
62.4219 -135.453 785.799
140.404 -80.8129 770.719
80.0401 -132.829 780.979
179.835 -130.829 740.798
68.6869 -128.219 784.665
49.2414 -127.74 792.602
119.725 -127.143 767.509
71.0878 -125.978 785.567
73.9669 -125.655 784.921
53.6343 -124.389 790.674
122.507 -122.926 765.994
39.8524 -122.233 796.902
30.071 -121.687 799.02
117.533 -121.15 765.984
98.0856 -120.921 775.075
125.573 -114.146 766.377
0.425987 -114.569 809.883
81.8674 -26.4237 450.77
71.8656 -112.755 788.679
183.191 -111.507 742.793
48.5318 -111.978 795.328
-64.3474 -50.9277 835.021
169.805 -109.964 748.257
115.857 -109.02 769.766
193.814 -105.802 738.289
101.496 -13.2613 407.41
64.0226 -104.956 793.489
50.9684 -104.807 798.152
-12.0182 -103.732 815.23
193.235 -13.2508 435.367
36.8937 -104.143 802.019
57.9379 -102.453 796.164
167.445 -100.648 749.535
137.177 -100.226 762.538
7.37497 -100.722 811.469
170.037 -95.6795 747.445
87.2843 -96.7325 785.451
-20.0649 -96.7454 819.448
114.145 -92.7806 775.291
153.117 -91.286 758.947
25.6747 -92.4586 810.84
35.4394 -89.3276 806.804
14.9101 -86.2013 813.183
88.3523 -85.109 787.763
21.58 -85.0966 811.259
135.676 -82.9009 765.656
59.9748 -84.747 800.989
61.3363 -83.6844 799.32
192.472 -81.2623 743.5
139.458 -1.26589 398.257
41.724 -83.5253 806.377
-24.109 -82.9226 821.746
8.45505 -82.341 814.162
7.32089 -81.1801 817.16
94.9618 -74.1992 787.632
-18.0166 -2.1699 841.007
101.314 -73.3942 786.209
102.937 5.6447 403.209
107.457 -33.0444 394.095
-10.5186 -72.2238 821.781
74.5047 -70.6141 795.957
106.073 7.45109 402.289
77.144 -69.9562 797.283
105.131 -69.1821 782.464
108.762 7.99394 454.102
102.868 -34.9526 435.757
64.5066 -69.2766 804.436
71.6622 -66.9241 799.793
115.998 -65.1385 778.763
35.5812 -64.2634 813.903
89.2822 19.9683 469.917
73.8938 -63.308 800.391
104.502 -31.169 434.371
99.9765 -31.1701 439.28
188.789 -30.1027 415.649
-8.7218 -56.1007 825.617
-10.2596 -54.8057 826.615
42.1246 -53.4588 814.123
21.2716 -50.6889 818.612
102.586 -23.9738 443.815
193.058 -22.8983 417.885
89.1758 -46.1177 793.912
70.7471 -38.8 807.46
27.3309 -37.5242 821.133
72.1465 -35.9972 806.154
67.4014 -35.2934 808.2
-10.5296 -35.0925 830.503
105.674 -15.0035 448.521
-6.00403 -34.2775 828.732
94.6054 -30.3167 797.46
91.3846 -12.7582 458.361
108.198 -9.30591 397.961
104.246 -10.7956 454.086
79.9465 74.8988 490.121
98.3011 -24.7122 797.559
-15.7079 -24.1267 832.767
68.1664 -18.2827 808.637
158.102 -87.7876 756.977
107.584 -3.95497 399.014
27.7229 -14.1713 825.373
23.8479 -13.0319 826.659
-24.3153 -13.7203 833.313
105.498 -1.68319 455.641
-13.0292 -12.1299 834.19
85.7123 -0.527506 466.345
202.34 3.42344 437.375
-2.85803 -7.9057 833.9
5.30821 -7.84729 833.105
203.821 4.85347 437.079
97.8934 -2.88815 797.255
197.512 -190.807 724.425
19.4298 -2.15302 828.324
21.5299 -2.47618 828.939
92.88 -0.230817 803.165
32.6584 0.489469 827.184
27.0985 2.98013 828.021
92.497 6.77597 465.516
20.8262 4.09355 829.517
42.1368 5.62155 821.553
95.7323 10.5769 802.497
-21.0617 6.81037 838.213
87.1413 12.6805 806.604
28.4394 14.661 829.309
41.0909 15.1732 822.373
79.4894 -32.5511 450.093
68.8191 17.4068 473.193
16.0987 22.396 833.985
49.1538 -160.213 782.96
71.1436 17.4835 472.996
11.8014 23.329 834.615
-12.9915 23.4443 839.695
100.419 30.3994 803.293
89.4531 30.5158 810.301
4.71879 34.5457 836.328
96.5616 38.9677 805.243
5.30637 46.9364 839.681
86.5598 37.7321 478.59
-23.9585 52.5086 844.017
-1.21363 56.1297 840.855
86.3939 39.6813 479.4
1.85382 72.0034 840.955
50.2727 76.0574 829.748
3.13799 74.073 840.926
56.5738 80.6133 827.964
105.782 49.7995 418.268
22.0595 82.1251 836.831
-10.9968 80.7983 846.24
-18.4268 81.0613 842.665
205.191 -135.446 732.569
78.7329 88.9392 824.854
-28.4154 91.7954 848.15
40.1041 97.1479 836.225
92.7199 102.727 817.433
-4.7747 98.9874 845.546
102.269 105.843 813.104
105.45 107.541 814.716
-1.39019 110.39 843.677
67.1618 118.281 825.991
-12.9709 114.731 847.549
79.592 78.0506 494.178
9.87678 123.565 842.193
-25.5954 130.243 847.75
44.8275 157.363 838.414
50.8702 160.124 839.717
81.5123 119.186 505.944
189.028 -203.717 726.293
42.3552 -198.168 778.257
23.1242 -196.536 783.593
111.88 -196.04 754.366
75.2752 -195.101 768.215
24.2671 -190.439 784.962
34.1545 -189.696 779.716
127.66 -191.686 749.333
-14.5724 -187.071 799.997
225.962 -91.1628 726.919
225.476 -191.295 715.194
-20.1064 -181.64 804.232
3.14012 -179.512 793.658
179.937 -180.508 734.726
66.7581 -80.908 798.8
58.0841 -175.821 777.284
203.224 -176.245 724.634
30.5158 8.75558 828.336
171.193 -175.305 737.335
82.9641 -171.763 771.091
45.5281 -169.785 782.497
-12.6832 -167.614 801.719
103.578 -167.681 763.91
105.859 -167.343 763.359
30.8048 -165.463 787.48
27.5971 -164.658 788.77
25.6405 -164.343 790.693
229.579 -166.838 719.851
103.337 -164.813 764.771
23.825 -162.552 791.338
40.7487 -162.803 785.687
96.936 -162.05 766.643
130.765 -157.227 756.787
-1.32826 -154.448 801.49
169.03 -155.218 741.679
-24.2053 -151.996 809.397
80.0415 -151.686 776.668
205.844 -16.5964 419.401
16.0416 -149.494 797.038
-8.85714 -148.527 803.222
173.982 -149.453 741.432
110.673 -146.967 767.087
102.188 -10.7943 402.149
64.1006 -145.758 782.64
171.787 -144.972 740.456
6.203 -142.451 801.323
84.2269 -9.88039 461.814
68.1081 -142.661 782.05
194.974 -143.794 734.874
109.283 -17.9352 798.181
68.4362 -139.892 784.652
78.3787 -17.3423 810.891
164.838 -139.641 745.81
196.739 -140.248 733.735
39.9672 -138.754 793.238
98.9532 -5.77613 457.007
174.381 -138.974 742.043
73.0536 -132.5 780.825
132.029 -131.772 761.602
81.7595 -130.702 780.315
103.046 0.297655 455.853
173.147 -130.187 744.521
30.8307 -128.808 797.603
194.275 4.16367 444.409
26.2281 -127.57 799.227
323.809 -201.29 681.236
89.3482 142.407 822.602
197.183 -196.654 724.599
112.224 -188.367 755.761
195.794 -95.5156 739.498
103.757 -37.2448 399.384
322.207 -198.828 681.455
437.947 -193.934 649.967
352.317 -190.449 674.199
252.348 -180.128 707.39
291.591 -180.188 693.945
128.152 -33.9816 376.256
191.435 -176.731 729.116
53.2724 82.9304 831.095
400.364 -181.933 662.28
96.308 -25.156 800.353
151.057 -175.075 742.122
129.309 -60.007 782.407
38.9447 -24.1306 819.637
135.691 -197.352 744.908
279.262 -158.672 704.052
185.374 -165.514 731.426
142.361 -189.858 744.185
91.897 -189.655 761.551
412.883 -161.615 661.496
31.6194 -116.263 799.98
128.934 -46.1717 781.364
145.371 -155.628 751.873
41.712 -142.71 791.667
76.3932 -180.608 774.169
230.201 -93.6079 725.991
-40.1504 -36.9768 833.834
124.365 -136.829 762.298
197.575 -187.397 727.666
186.517 -181.335 728.529
42.0806 -78.3416 807.427
85.2922 -175.241 768.875
77.4298 -28.4962 452.698
16.4121 -23.876 824.473
104.799 41.7662 809.662
229.031 -104.217 722.848
148.207 -104.236 760.313
204.243 -193.689 721.114
56.9422 -100.316 798.556
171.073 -202.107 731.204
172.535 -132.835 744.596
153.527 -80.0478 760.048
75.8226 -2.46492 460.58
74.6147 -75.5652 804.036
40.7843 -174.548 782.366
-1.82148 74.7769 842.11
63.6617 -64.1227 803.832
4.45782 -37.4824 826.853
348.466 -207.422 675.647
99.0954 -32.3526 794.275
226.41 -103.488 726.557
123.307 -186.46 752.719
-1.54059 -25.0618 831.312
447.264 -94.5075 665.288
178.377 -171.069 734.817
133.565 -137.051 760.566
242.703 -131.408 715.668
105.682 14.2052 804.859
229.565 -98.1217 724.036
114.26 24.7873 803.947
129.752 -98.0456 768.676
92.5735 111.246 819.736
116.886 77.9439 803.619
93.0326 112.333 500.83
35.0355 76.323 834.007
-28.0866 116.067 849.491
66.3105 88.4809 836.219
49.6809 -163.281 783.204
128.621 97.2224 803.631
107.141 103.063 810.928
77.9447 -163.215 773.109
1.15315 -190.174 793.321
260.35 -157.689 708.266
99.5989 29.6848 466.467
221.381 -192.342 717.53
2.34057 121.052 846.161
149.049 -185.376 742.597
84.565 -163.959 773.275
-25.7096 70.1576 852.666
-10.2383 -168.946 800.536
68.6022 -168.713 776.294
327.085 -187.849 683.127
37.5134 111.499 835.698
36.8471 -148.807 789.717
83.0916 22.0699 814.54
19.2972 -180.508 790.04
45.0128 44.8942 827.571
279.272 -172.673 699.825
182.97 -168.553 733.96
330.363 -182.361 681.515
245.577 -180.259 707.934
98.5101 25.4176 468.881
154.038 -172.452 742.631
84.2231 105.898 821.409
320.254 -168.612 688.646
3.60533 92.4402 841.219
354.358 -169.189 681.389
218.102 -162.585 719.418
64.4988 -188.803 772.879
411.197 -165.432 661.617
312.322 -154.534 693.266
152.345 -150.886 750.233
141.283 -147.886 751.587
135.172 -161.115 753.259
188.728 -137.227 737.674
226.145 -127.91 723.34
87.1566 108.266 821.614
64.8359 -109.326 791.851
405.562 -151.924 670.825
77.2144 -125.007 786.836
109.899 -121.792 770.977
426.283 -100.647 673.258
286.978 -147.101 705.907
97.5672 -96.696 785.152
431.674 -204.267 650.117
75.0415 -91.0212 797.142
17.2173 -141.344 799.698
78.2167 -89.8433 796.644
107.064 -140.007 767.126
66.0706 -118.704 790.13
108.38 5.48165 451.48
76.9885 -63.2487 805.741
217.58 -125.218 726.982
70.8246 5.97426 468.78
118.595 33.6374 798.662
77.3895 70.6023 820.23
315.033 -90.3495 707.558
223.173 -190.937 716.664
66.2109 124.443 829.09
211.054 13.4386 436.153
10.3939 148.312 841.649
140.253 161.661 807.921
54.8147 -176.501 780.199
