-0.712992 1.69153 -0.13086
-0.687046 1.67923 -0.126098
-0.608999 1.66914 -0.111773
-0.816429 1.64686 -0.149844
-0.816429 1.63348 -0.149844
-0.816429 1.62009 -0.149844
-0.687046 1.61206 -0.126098
-0.687046 1.59862 -0.126098
-0.608999 1.58837 -0.111773
-0.687046 1.57176 -0.126098
-0.661066 1.55936 -0.12133
-0.63505 1.54695 -0.116555
-0.63505 1.5335 -0.116555
-0.63505 1.52005 -0.116555
-0.687046 1.50459 -0.126098
-0.63505 1.49315 -0.116555
-0.63505 1.4797 -0.116555
-0.63505 1.46624 -0.116555
-0.63505 1.45279 -0.116555
-0.712992 1.43646 -0.13086
-0.712992 1.42303 -0.13086
-0.712992 1.40961 -0.13086
-0.712992 1.39618 -0.13086
-0.687046 1.38368 -0.126098
-0.712992 1.36933 -0.13086
-0.712992 1.35591 -0.13086
-0.712992 1.34249 -0.13086
-0.63505 1.33173 -0.116555
-0.63505 1.31827 -0.116555
-0.712992 1.30221 -0.13086
-0.63505 1.29137 -0.116555
-0.63505 1.27792 -0.116555
-0.687046 1.26278 -0.126098
-0.661066 1.25018 -0.12133
-0.63505 1.23756 -0.116555
-0.63505 1.22411 -0.116555
-0.63505 1.21066 -0.116555
-0.608999 1.19801 -0.111773
-0.63505 1.18376 -0.116555
-0.582913 1.17187 -0.106986
-0.738904 1.15377 -0.135616
-0.661066 1.14264 -0.12133
-0.628598 4.92335 -0.147438
-0.628598 4.9099 -0.147438
-0.576991 4.90301 -0.135333
-0.680066 4.87647 -0.15951
-0.680066 4.86304 -0.15951
-0.680066 4.84961 -0.15951
-0.680066 4.83617 -0.15951
-0.680066 4.82274 -0.15951
-0.75701 4.7997 -0.177557
-0.680066 4.79587 -0.15951
-0.680066 4.78244 -0.15951
-0.680066 4.769 -0.15951
-0.705749 4.7524 -0.165533
-0.628598 4.74848 -0.147438
-0.731397 4.7224 -0.171549
-0.705749 4.71212 -0.165533
-0.680066 4.70184 -0.15951
-0.680066 4.6884 -0.15951
-0.705749 4.67185 -0.165533
-0.705749 4.65842 -0.165533
-0.731397 4.6419 -0.171549
-0.731397 4.62849 -0.171549
-0.75701 4.612 -0.177557
-0.731397 4.60166 -0.171549
-0.731397 4.58824 -0.171549
-0.731397 4.57482 -0.171549
-0.731397 4.56141 -0.171549
-0.731397 4.54799 -0.171549
-0.731397 4.53458 -0.171549
-0.705749 4.52418 -0.165533
-0.75701 4.50474 -0.177557
-0.731397 4.49433 -0.171549
-0.731397 4.48091 -0.171549
-0.75701 4.46452 -0.177557
-0.75701 4.45111 -0.177557
-0.75701 4.43771 -0.177557
-0.75701 4.4243 -0.177557
-0.75701 4.41089 -0.177557
-0.808134 4.39164 -0.189548
-0.731397 4.387 -0.171549
-0.731397 4.37358 -0.171549
-0.705749 4.36308 -0.165533
-0.705749 4.34965 -0.165533
-0.705749 4.33623 -0.165533
-0.705749 4.3228 -0.165533
-0.705749 4.30938 -0.165533
-0.705749 4.29595 -0.165533
-0.680066 4.28539 -0.15951
-0.680066 4.27195 -0.15951
-0.654349 4.26136 -0.153478
-0.680066 4.24509 -0.15951
-0.654349 4.23448 -0.153478
-0.654349 4.22104 -0.153478
-0.680066 4.20478 -0.15951
-0.705749 4.18855 -0.165533
-0.731397 4.17235 -0.171549
-0.705749 4.1617 -0.165533
-0.680066 4.15105 -0.15951
-0.705749 4.13485 -0.165533
-0.808134 4.11047 -0.189548
-0.705749 4.10801 -0.165533
-0.705749 4.09458 -0.165533
-0.731397 4.07843 -0.171549
-0.75701 4.06231 -0.177557
-0.731397 4.0516 -0.171549
-0.75701 4.0355 -0.177557
-0.75701 4.02209 -0.177557
-0.75701 4.00868 -0.177557
-0.75701 3.99528 -0.177557
-0.75701 3.98187 -0.177557
-0.731397 3.97111 -0.171549
-0.731397 3.95769 -0.171549
-0.75701 3.94165 -0.177557
-0.782589 3.92563 -0.183556
-0.808134 3.90963 -0.189548
-0.808134 3.89624 -0.189548
-0.782589 3.88543 -0.183556
-0.75701 3.87461 -0.177557
-0.731397 3.86378 -0.171549
-0.705749 3.85293 -0.165533
-0.705749 3.83951 -0.165533
-0.705749 3.82608 -0.165533
-0.705749 3.81266 -0.165533
-0.705749 3.79923 -0.165533
-0.731397 3.78328 -0.171549
-0.731397 3.76987 -0.171549
-0.705749 3.75896 -0.165533
-0.833645 3.73309 -0.195532
-0.884565 3.71478 -0.207475
-0.884565 3.70141 -0.207475
-0.884565 3.68805 -0.207475
-0.884565 3.67469 -0.207475
-0.884565 3.66133 -0.207475
-0.859122 3.65038 -0.201507
-0.859122 3.63701 -0.201507
-0.884565 3.62124 -0.207475
-0.884565 3.60788 -0.207475
-0.884565 3.59451 -0.207475
-0.884565 3.58115 -0.207475
-0.884565 3.56779 -0.207475
-0.884565 3.55443 -0.207475
-0.808134 3.54812 -0.189548
-0.808134 3.53473 -0.189548
-0.884565 3.51434 -0.207475
-0.782589 3.51029 -0.183556
-0.782589 3.49689 -0.183556
-0.808134 3.48118 -0.189548
-0.808134 3.46779 -0.189548
-0.808134 3.4544 -0.189548
-0.808134 3.44101 -0.189548
-0.75701 3.43218 -0.177557
-0.75701 3.41878 -0.177557
-0.75701 3.40537 -0.177557
-0.75701 3.39196 -0.177557
-0.75701 3.37856 -0.177557
-0.75701 3.36515 -0.177557
-0.75701 3.35174 -0.177557
-0.75701 3.33834 -0.177557
-0.859122 3.3161 -0.201507
-0.859122 3.30273 -0.201507
-0.859122 3.28936 -0.201507
-0.884565 3.27381 -0.207475
-0.884565 3.26045 -0.207475
-0.884565 3.24709 -0.207475
-0.75701 3.24449 -0.177557
-0.75701 3.23108 -0.177557
-0.75701 3.21767 -0.177557
-0.75701 3.20427 -0.177557
-0.75701 3.19086 -0.177557
-0.75701 3.17745 -0.177557
-0.75701 3.16404 -0.177557
-0.75701 3.15064 -0.177557
-0.75701 3.13723 -0.177557
-0.75701 3.12382 -0.177557
-0.75701 3.11042 -0.177557
-0.75701 3.09701 -0.177557
-0.75701 3.0836 -0.177557
-0.75701 3.0702 -0.177557
-0.75701 3.05679 -0.177557
-0.75701 3.04338 -0.177557
-0.75701 3.02998 -0.177557
-0.75701 3.01657 -0.177557
-0.75701 3.00316 -0.177557
-0.75701 2.98975 -0.177557
-0.859122 2.96844 -0.201507
-0.859122 2.95507 -0.201507
-0.75701 2.94953 -0.177557
-0.75701 2.93613 -0.177557
-0.75701 2.92272 -0.177557
-0.75701 2.90931 -0.177557
-0.859122 2.88822 -0.201507
-0.859122 2.87484 -0.201507
-0.859122 2.86147 -0.201507
-0.859122 2.8481 -0.201507
-0.859122 2.83473 -0.201507
-0.859122 2.82136 -0.201507
-0.859122 2.80799 -0.201507
-0.75701 2.80206 -0.177557
-0.75701 2.78865 -0.177557
-0.731397 2.77709 -0.171549
-0.731397 2.76368 -0.171549
-0.75701 2.74843 -0.177557
-0.75701 2.73502 -0.177557
-0.75701 2.72161 -0.177557
-0.75701 2.70821 -0.177557
-0.75701 2.6948 -0.177557
-0.782589 2.67961 -0.183556
-0.859122 2.6609 -0.201507
-0.859122 2.64753 -0.201507
-0.859122 2.63416 -0.201507
-0.859122 2.62079 -0.201507
-0.859122 2.60742 -0.201507
-0.859122 2.59405 -0.201507
-0.859122 2.58067 -0.201507
-0.859122 2.5673 -0.201507
-0.75701 2.56073 -0.177557
-0.75701 2.54732 -0.177557
-0.75701 2.53392 -0.177557
-0.75701 2.52051 -0.177557
-0.75701 2.5071 -0.177557
-0.75701 2.4937 -0.177557
-0.859122 2.4737 -0.201507
-0.75701 2.46688 -0.177557
-0.884565 2.44534 -0.207475
-0.884565 2.43198 -0.207475
-0.884565 2.41861 -0.207475
-0.884565 2.40525 -0.207475
-0.884565 2.39189 -0.207475
-0.884565 2.37853 -0.207475
-0.884565 2.36516 -0.207475
-0.75701 2.35963 -0.177557
-0.75701 2.34622 -0.177557
-0.75701 2.33281 -0.177557
-0.75701 2.31941 -0.177557
-0.75701 2.306 -0.177557
-0.75701 2.29259 -0.177557
-0.75701 2.27918 -0.177557
-0.75701 2.26578 -0.177557
-0.75701 2.25237 -0.177557
-0.75701 2.23896 -0.177557
-0.75701 2.22556 -0.177557
-0.75701 2.21215 -0.177557
-0.75701 2.19874 -0.177557
-0.75701 2.18534 -0.177557
-0.75701 2.17193 -0.177557
-0.75701 2.15852 -0.177557
-0.75701 2.14512 -0.177557
-0.75701 2.13171 -0.177557
-0.75701 2.1183 -0.177557
-0.75701 2.10489 -0.177557
-0.75701 2.09149 -0.177557
-0.75701 2.07808 -0.177557
-0.75701 2.06467 -0.177557
-0.75701 2.05127 -0.177557
-0.75701 2.03786 -0.177557
-0.75701 2.02445 -0.177557
-0.75701 2.01105 -0.177557
-0.75701 1.99764 -0.177557
-0.75701 1.98423 -0.177557
-0.75701 1.97082 -0.177557
-0.75701 1.95742 -0.177557
-0.75701 1.94401 -0.177557
-0.680066 1.93447 -0.15951
-0.680066 1.92104 -0.15951
-0.680066 1.9076 -0.15951
-0.680066 1.89417 -0.15951
-0.680066 1.88073 -0.15951
-0.680066 1.8673 -0.15951
-0.654349 1.85511 -0.153478
-0.680066 1.84043 -0.15951
-0.705749 1.82578 -0.165533
-0.680066 1.81357 -0.15951
-0.705749 1.79893 -0.165533
-0.680066 1.7867 -0.15951
-0.680066 1.77326 -0.15951
-0.705749 1.75866 -0.165533
-0.705749 1.74523 -0.165533
-0.705749 1.73181 -0.165533
-0.731397 1.71724 -0.171549
-0.731397 1.70382 -0.171549
-0.731397 1.6904 -0.171549
-0.731397 1.67699 -0.171549
-0.731397 1.66357 -0.171549
-0.705749 1.65126 -0.165533
-0.705749 1.63783 -0.165533
-0.705749 1.62441 -0.165533
-0.705749 1.61098 -0.165533
-0.680066 1.59862 -0.15951
-0.680066 1.58519 -0.15951
-0.680066 1.57176 -0.15951
-0.680066 1.55832 -0.15951
-0.680066 1.54489 -0.15951
-0.680066 1.53145 -0.15951
-0.680066 1.51802 -0.15951
-0.680066 1.50459 -0.15951
-0.654349 1.49215 -0.153478
-0.628598 1.4797 -0.147438
-0.628598 1.46624 -0.147438
-0.628598 1.45279 -0.147438
-0.628598 1.43934 -0.147438
-0.680066 1.42398 -0.15951
-0.680066 1.41055 -0.15951
-0.680066 1.39712 -0.15951
-0.680066 1.38368 -0.15951
-0.731397 1.36842 -0.171549
-0.705749 1.35591 -0.165533
-0.680066 1.34338 -0.15951
-0.654349 1.33084 -0.153478
-0.654349 1.31739 -0.153478
-0.680066 1.30308 -0.15951
-0.654349 1.29051 -0.153478
-0.680066 1.27621 -0.15951
-0.654349 1.26362 -0.153478
-0.654349 1.25018 -0.153478
-0.654349 1.23674 -0.153478
-0.654349 1.22329 -0.153478
-0.75701 1.20663 -0.177557
-0.75701 1.19322 -0.177557
-0.628598 1.18376 -0.147438
-0.833645 1.16408 -0.195532
-0.833645 1.1507 -0.195532
-0.595185 4.92665 -0.170668
-0.595185 4.91319 -0.170668
-0.595185 4.89973 -0.170668
-0.722143 4.86997 -0.207073
-0.646071 4.86629 -0.185259
-0.620645 4.85609 -0.177969
-0.620645 4.84264 -0.177969
-0.671462 4.82274 -0.19254
-0.69682 4.8061 -0.199811
-0.69682 4.79267 -0.199811
-0.69682 4.77925 -0.199811
-0.671462 4.769 -0.19254
-0.671462 4.75557 -0.19254
-0.671462 4.74214 -0.19254
-0.69682 4.72555 -0.199811
-0.69682 4.71212 -0.199811
-0.69682 4.6987 -0.199811
-0.671462 4.6884 -0.19254
-0.671462 4.67497 -0.19254
-0.671462 4.66153 -0.19254
-0.671462 4.6481 -0.19254
-0.671462 4.63467 -0.19254
-0.69682 4.61815 -0.199811
-0.671462 4.6078 -0.19254
-0.671462 4.59436 -0.19254
-0.671462 4.58093 -0.19254
-0.69682 4.56445 -0.199811
-0.69682 4.55102 -0.199811
-0.69682 4.5376 -0.199811
-0.69682 4.52418 -0.199811
-0.722143 4.50774 -0.207073
-0.722143 4.49433 -0.207073
-0.823098 4.469 -0.236021
-0.823098 4.45562 -0.236021
-0.823098 4.44224 -0.236021
-0.823098 4.42886 -0.236021
-0.848253 4.41255 -0.243234
-0.848253 4.39918 -0.243234
-0.823098 4.38872 -0.236021
-0.823098 4.37534 -0.236021
-0.79791 4.36486 -0.228799
-0.79791 4.35147 -0.228799
-0.823098 4.3352 -0.236021
-0.823098 4.32182 -0.236021
-0.747433 4.31704 -0.214325
-0.747433 4.30364 -0.214325
-0.722143 4.29309 -0.207073
-0.722143 4.27967 -0.207073
-0.747433 4.26342 -0.214325
-0.747433 4.25001 -0.214325
-0.747433 4.2366 -0.214325
-0.79791 4.21758 -0.228799
-0.823098 4.2014 -0.236021
-0.823098 4.18802 -0.236021
-0.79791 4.17741 -0.228799
-0.823098 4.16126 -0.236021
-0.79791 4.15063 -0.228799
-0.772688 4.14 -0.221567
-0.747433 4.12935 -0.214325
-0.747433 4.11594 -0.214325
-0.747433 4.10253 -0.214325
-0.747433 4.08913 -0.214325
-0.772688 4.07301 -0.221567
-0.823098 4.05422 -0.236021
-0.823098 4.04084 -0.236021
-0.823098 4.02746 -0.236021
-0.848253 4.01141 -0.243234
-0.848253 3.99804 -0.243234
-0.848253 3.98467 -0.243234
-0.823098 3.97393 -0.236021
-0.823098 3.96055 -0.236021
-0.823098 3.94717 -0.236021
-0.848253 3.93118 -0.243234
-0.848253 3.91781 -0.243234
-0.823098 3.90703 -0.236021
-0.823098 3.89365 -0.236021
-0.823098 3.88027 -0.236021
-0.848253 3.86433 -0.243234
-0.823098 3.85351 -0.236021
-0.823098 3.84013 -0.236021
-0.823098 3.82675 -0.236021
-0.823098 3.81337 -0.236021
-0.79791 3.80252 -0.228799
-0.79791 3.78913 -0.228799
-0.772688 3.77825 -0.221567
-0.823098 3.75985 -0.236021
-0.79791 3.74896 -0.228799
-0.823098 3.73309 -0.236021
-0.823098 3.71971 -0.236021
-0.823098 3.70633 -0.236021
-0.823098 3.69295 -0.236021
-0.823098 3.67957 -0.236021
-0.823098 3.66619 -0.236021
-0.823098 3.65281 -0.236021
-0.79791 3.64185 -0.228799
-0.823098 3.62605 -0.236021
-0.823098 3.61267 -0.236021
-0.747433 3.60647 -0.214325
-0.747433 3.59307 -0.214325
-0.671462 3.58683 -0.19254
-0.873373 3.55443 -0.250438
-0.873373 3.54106 -0.250438
-0.823098 3.53239 -0.236021
-0.823098 3.51901 -0.236021
-0.823098 3.50563 -0.236021
-0.873373 3.48761 -0.250438
-0.948535 3.46736 -0.27199
-0.823098 3.46548 -0.236021
-0.823098 3.4521 -0.236021
-0.823098 3.43872 -0.236021
-0.823098 3.42534 -0.236021
-0.823098 3.41196 -0.236021
-0.823098 3.39858 -0.236021
-0.823098 3.3852 -0.236021
-0.898461 3.36512 -0.257631
-0.898461 3.35177 -0.257631
-0.823098 3.34506 -0.236021
-0.823098 3.33168 -0.236021
-0.923514 3.30952 -0.264816
-0.823098 3.30492 -0.236021
-0.848253 3.28936 -0.243234
-0.848253 3.27599 -0.243234
-0.848253 3.26261 -0.243234
-0.848253 3.24924 -0.243234
-0.848253 3.23587 -0.243234
-0.848253 3.2225 -0.243234
-0.873373 3.207 -0.250438
-0.873373 3.19364 -0.250438
-0.948535 3.17397 -0.27199
-0.948535 3.16063 -0.27199
-0.823098 3.15774 -0.236021
-0.823098 3.14436 -0.236021
-0.823098 3.13098 -0.236021
-0.873373 3.11346 -0.250438
-0.848253 3.10216 -0.243234
-0.848253 3.08879 -0.243234
-0.79791 3.0795 -0.228799
-0.823098 3.06408 -0.236021
-0.848253 3.04867 -0.243234
-0.848253 3.0353 -0.243234
-0.848253 3.02193 -0.243234
-0.848253 3.00856 -0.243234
-0.823098 2.99718 -0.236021
-0.823098 2.9838 -0.236021
-0.79791 2.97239 -0.228799
-0.823098 2.95704 -0.236021
-0.823098 2.94366 -0.236021
-0.823098 2.93027 -0.236021
-0.823098 2.91689 -0.236021
-0.772688 2.90738 -0.221567
-0.823098 2.89013 -0.236021
-0.823098 2.87675 -0.236021
-0.79791 2.86528 -0.228799
-0.79791 2.85189 -0.228799
-0.823098 2.83661 -0.236021
-0.823098 2.82323 -0.236021
-0.823098 2.80985 -0.236021
-0.823098 2.79647 -0.236021
-0.823098 2.78309 -0.236021
-0.79791 2.77155 -0.228799
-0.79791 2.75816 -0.228799
-0.823098 2.74295 -0.236021
-0.823098 2.72957 -0.236021
-0.823098 2.71619 -0.236021
-0.823098 2.70281 -0.236021
-0.823098 2.68943 -0.236021
-0.823098 2.67605 -0.236021
-0.823098 2.66267 -0.236021
-0.823098 2.64929 -0.236021
-0.79791 2.63766 -0.228799
-0.79791 2.62427 -0.228799
-0.823098 2.60915 -0.236021
-0.823098 2.59577 -0.236021
-0.79791 2.5841 -0.228799
-0.69682 2.57757 -0.199811
-0.69682 2.56415 -0.199811
-0.722143 2.54902 -0.207073
-0.722143 2.53561 -0.207073
-0.823098 2.51549 -0.236021
-0.823098 2.50211 -0.236021
-0.823098 2.48873 -0.236021
-0.671462 2.48526 -0.19254
-0.671462 2.47182 -0.19254
-0.646071 2.46003 -0.185259
-0.646071 2.44659 -0.185259
-0.646071 2.43315 -0.185259
-0.646071 2.4197 -0.185259
-0.671462 2.40465 -0.19254
-0.69682 2.38962 -0.199811
-0.722143 2.37461 -0.207073
-0.671462 2.36435 -0.19254
-0.671462 2.35092 -0.19254
-0.671462 2.33748 -0.19254
-0.671462 2.32405 -0.19254
-0.69682 2.30907 -0.199811
-0.69682 2.29565 -0.199811
-0.69682 2.28222 -0.199811
-0.69682 2.2688 -0.199811
-0.69682 2.25538 -0.199811
-0.69682 2.24195 -0.199811
-0.69682 2.22853 -0.199811
-0.69682 2.2151 -0.199811
-0.69682 2.20168 -0.199811
-0.69682 2.18825 -0.199811
-0.69682 2.17483 -0.199811
-0.69682 2.1614 -0.199811
-0.722143 2.14654 -0.207073
-0.722143 2.13313 -0.207073
-0.722143 2.11971 -0.207073
-0.69682 2.1077 -0.199811
-0.69682 2.09428 -0.199811
-0.671462 2.08224 -0.19254
-0.671462 2.06881 -0.19254
-0.69682 2.054 -0.199811
-0.69682 2.04058 -0.199811
-0.671462 2.02851 -0.19254
-0.671462 2.01507 -0.19254
-0.671462 2.00164 -0.19254
-0.671462 1.9882 -0.19254
-0.671462 1.97477 -0.19254
-0.671462 1.96134 -0.19254
-0.671462 1.9479 -0.19254
-0.69682 1.93318 -0.199811
-0.69682 1.91975 -0.199811
-0.722143 1.90506 -0.207073
-0.722143 1.89164 -0.207073
-0.722143 1.87823 -0.207073
-0.722143 1.86481 -0.207073
-0.722143 1.85139 -0.207073
-0.722143 1.83798 -0.207073
-0.747433 1.82335 -0.214325
-0.747433 1.80994 -0.214325
-0.747433 1.79653 -0.214325
-0.722143 1.78432 -0.207073
-0.620645 1.77564 -0.177969
-0.620645 1.76218 -0.177969
-0.671462 1.7464 -0.19254
-0.671462 1.73296 -0.19254
-0.722143 1.71724 -0.207073
-0.722143 1.70382 -0.207073
-0.722143 1.6904 -0.207073
-0.722143 1.67699 -0.207073
-0.722143 1.66357 -0.207073
-0.722143 1.65016 -0.207073
-0.69682 1.63783 -0.199811
-0.69682 1.62441 -0.199811
-0.69682 1.61098 -0.199811
-0.69682 1.59756 -0.199811
-0.69682 1.58413 -0.199811
-0.69682 1.57071 -0.199811
-0.69682 1.55728 -0.199811
-0.69682 1.54386 -0.199811
-0.646071 1.53248 -0.185259
-0.646071 1.51904 -0.185259
-0.646071 1.50559 -0.185259
-0.671462 1.49115 -0.19254
-0.671462 1.47772 -0.19254
-0.69682 1.46331 -0.199811
-0.69682 1.44988 -0.199811
-0.69682 1.43646 -0.199811
-0.722143 1.42209 -0.207073
-0.69682 1.40961 -0.199811
-0.747433 1.39432 -0.214325
-0.747433 1.38092 -0.214325
-0.671462 1.37025 -0.19254
-0.671462 1.35682 -0.19254
-0.671462 1.34338 -0.19254
-0.671462 1.32995 -0.19254
-0.671462 1.31651 -0.19254
-0.671462 1.30308 -0.19254
-0.69682 1.28879 -0.199811
-0.69682 1.27536 -0.199811
-0.69682 1.26194 -0.199811
-0.620645 1.25102 -0.177969
-0.620645 1.23756 -0.177969
-0.620645 1.22411 -0.177969
-0.747433 1.20663 -0.214325
-0.747433 1.19322 -0.214325
-0.69682 1.18139 -0.199811
-0.69682 1.16796 -0.199811
-0.722143 1.15377 -0.207073
-0.747433 1.13959 -0.214325
-0.747433 1.12619 -0.214325
-0.61121 4.92335 -0.208074
-0.711166 4.8968 -0.242102
-0.736071 4.88014 -0.250581
-0.785781 4.86026 -0.267503
-0.785781 4.84687 -0.267503
-0.785781 4.83348 -0.267503
-0.785781 4.82009 -0.267503
-0.785781 4.8067 -0.267503
-0.736071 4.7997 -0.250581
-0.736071 4.78629 -0.250581
-0.736071 4.77288 -0.250581
-0.736071 4.75947 -0.250581
-0.736071 4.74607 -0.250581
-0.736071 4.73266 -0.250581
-0.711166 4.7224 -0.242102
-0.711166 4.70898 -0.242102
-0.711166 4.69557 -0.242102
-0.711166 4.68215 -0.242102
-0.711166 4.66873 -0.242102
-0.711166 4.65532 -0.242102
-0.711166 4.6419 -0.242102
-0.711166 4.62849 -0.242102
-0.711166 4.61507 -0.242102
-0.711166 4.60166 -0.242102
-0.711166 4.58824 -0.242102
-0.711166 4.57482 -0.242102
-0.711166 4.56141 -0.242102
-0.711166 4.54799 -0.242102
-0.711166 4.53458 -0.242102
-0.711166 4.52116 -0.242102
-0.736071 4.50474 -0.250581
-0.736071 4.49133 -0.250581
-0.736071 4.47793 -0.250581
-0.736071 4.46452 -0.250581
-0.736071 4.45111 -0.250581
-0.736071 4.43771 -0.250581
-0.736071 4.4243 -0.250581
-0.810586 4.4021 -0.275948
-0.686227 4.40335 -0.233612
-0.711166 4.387 -0.242102
-0.711166 4.37358 -0.242102
-0.810586 4.34858 -0.275948
-0.810586 4.3352 -0.275948
-0.785781 4.32469 -0.267503
-0.785781 4.3113 -0.267503
-0.760942 4.30077 -0.259048
-0.760942 4.28738 -0.259048
-0.760942 4.27398 -0.259048
-0.736071 4.26342 -0.250581
-0.760942 4.24718 -0.259048
-0.760942 4.23378 -0.259048
-0.760942 4.22039 -0.259048
-0.860097 4.19583 -0.292803
-0.860097 4.18246 -0.292803
-0.810586 4.17464 -0.275948
-0.810586 4.16126 -0.275948
-0.810586 4.14788 -0.275948
-0.810586 4.1345 -0.275948
-0.810586 4.12112 -0.275948
-0.810586 4.10774 -0.275948
-0.760942 4.0998 -0.259048
-0.760942 4.0864 -0.259048
-0.760942 4.07301 -0.259048
-0.760942 4.05961 -0.259048
-0.810586 4.04084 -0.275948
-0.736071 4.0355 -0.250581
-0.736071 4.02209 -0.250581
-0.736071 4.00868 -0.250581
-0.711166 3.99794 -0.242102
-0.711166 3.98452 -0.242102
-0.736071 3.96846 -0.250581
-0.736071 3.95506 -0.250581
-0.736071 3.94165 -0.250581
-0.736071 3.92824 -0.250581
-0.810586 3.90703 -0.275948
-0.810586 3.89365 -0.275948
-0.760942 3.88543 -0.259048
-0.736071 3.87461 -0.250581
-0.736071 3.86121 -0.250581
-0.736071 3.8478 -0.250581
-0.711166 3.83695 -0.242102
-0.711166 3.82353 -0.242102
-0.860097 3.79495 -0.292803
-0.810586 3.78661 -0.275948
-0.810586 3.77323 -0.275948
-0.810586 3.75985 -0.275948
-0.810586 3.74647 -0.275948
-0.810586 3.73309 -0.275948
-0.810586 3.71971 -0.275948
-0.810586 3.70633 -0.275948
-0.810586 3.69295 -0.275948
-0.810586 3.67957 -0.275948
-0.810586 3.66619 -0.275948
-0.860097 3.64796 -0.292803
-0.835358 3.63701 -0.284381
-0.835358 3.62364 -0.284381
-0.835358 3.61027 -0.284381
-0.835358 3.5969 -0.284381
-0.835358 3.58353 -0.284381
-0.810586 3.57253 -0.275948
-0.810586 3.55915 -0.275948
-0.810586 3.54577 -0.275948
-0.860097 3.5277 -0.292803
-0.835358 3.51667 -0.284381
-0.810586 3.50563 -0.275948
-0.810586 3.49225 -0.275948
-0.810586 3.47886 -0.275948
-0.810586 3.46548 -0.275948
-0.810586 3.4521 -0.275948
-0.810586 3.43872 -0.275948
-0.810586 3.42534 -0.275948
-0.810586 3.41196 -0.275948
-0.810586 3.39858 -0.275948
-0.835358 3.38296 -0.284381
-0.835358 3.36959 -0.284381
-0.835358 3.35621 -0.284381
-0.860097 3.34063 -0.292803
-0.860097 3.32726 -0.292803
-0.860097 3.3139 -0.292803
-0.860097 3.30054 -0.292803
-0.810586 3.29154 -0.275948
-0.810586 3.27816 -0.275948
-0.810586 3.26478 -0.275948
-0.884803 3.24494 -0.301214
-0.810586 3.23802 -0.275948
-0.810586 3.22464 -0.275948
-0.884803 3.20488 -0.301214
-0.884803 3.19152 -0.301214
-0.884803 3.17817 -0.301214
-0.884803 3.16482 -0.301214
-0.810586 3.15774 -0.275948
-0.810586 3.14436 -0.275948
-0.810586 3.13098 -0.275948
-0.835358 3.11553 -0.284381
-0.810586 3.10422 -0.275948
-0.810586 3.09084 -0.275948
-0.810586 3.07746 -0.275948
-0.810586 3.06408 -0.275948
-0.860097 3.04665 -0.292803
-0.860097 3.03329 -0.292803
-0.860097 3.01993 -0.292803
-0.860097 3.00656 -0.292803
-0.909476 2.98924 -0.309613
-0.909476 2.97589 -0.309613
-0.909476 2.96255 -0.309613
-0.909476 2.9492 -0.309613
-0.909476 2.93586 -0.309613
-0.909476 2.92252 -0.309613
-0.810586 2.91689 -0.275948
-0.810586 2.90351 -0.275948
-0.810586 2.89013 -0.275948
-0.810586 2.87675 -0.275948
-0.810586 2.86337 -0.275948
-0.810586 2.84999 -0.275948
-0.810586 2.83661 -0.275948
-0.810586 2.82323 -0.275948
-0.810586 2.80985 -0.275948
-0.810586 2.79647 -0.275948
-0.810586 2.78309 -0.275948
-0.810586 2.76971 -0.275948
-0.835358 2.7545 -0.284381
-0.835358 2.74113 -0.284381
-0.810586 2.72957 -0.275948
-0.810586 2.71619 -0.275948
-0.810586 2.70281 -0.275948
-0.810586 2.68943 -0.275948
-0.810586 2.67605 -0.275948
-0.810586 2.66267 -0.275948
-0.785781 2.65105 -0.267503
-0.810586 2.63591 -0.275948
-0.785781 2.62427 -0.267503
-0.810586 2.60915 -0.275948
-0.810586 2.59577 -0.275948
-0.810586 2.58239 -0.275948
-0.785781 2.57072 -0.267503
-0.835358 2.55393 -0.284381
-0.810586 2.54225 -0.275948
-0.736071 2.53392 -0.250581
-0.810586 2.51549 -0.275948
-0.810586 2.50211 -0.275948
-0.785781 2.49038 -0.267503
-0.785781 2.47699 -0.267503
-0.760942 2.46524 -0.259048
-0.810586 2.44859 -0.275948
-0.810586 2.43521 -0.275948
-0.736071 2.42666 -0.250581
-0.835358 2.40685 -0.284381
-0.736071 2.39985 -0.250581
-0.736071 2.38644 -0.250581
-0.686227 2.3762 -0.233612
-0.736071 2.35963 -0.250581
-0.736071 2.34622 -0.250581
-0.760942 2.33126 -0.259048
-0.760942 2.31786 -0.259048
-0.760942 2.30446 -0.259048
-0.760942 2.29107 -0.259048
-0.760942 2.27767 -0.259048
-0.785781 2.26277 -0.267503
-0.686227 2.25538 -0.233612
-0.686227 2.24195 -0.233612
-0.686227 2.22853 -0.233612
-0.686227 2.2151 -0.233612
-0.686227 2.20168 -0.233612
-0.686227 2.18825 -0.233612
-0.661255 2.17628 -0.225111
-0.661255 2.16284 -0.225111
-0.661255 2.14941 -0.225111
-0.661255 2.13598 -0.225111
-0.686227 2.12113 -0.233612
-0.686227 2.1077 -0.233612
-0.686227 2.09428 -0.233612
-0.785781 2.07532 -0.267503
-0.785781 2.06193 -0.267503
-0.810586 2.04718 -0.275948
-0.835358 2.03245 -0.284381
-0.835358 2.01908 -0.284381
-0.835358 2.00571 -0.284381
-0.686227 2.0003 -0.233612
-0.835358 1.97896 -0.284381
-0.835358 1.96559 -0.284381
-0.835358 1.95222 -0.284381
-0.785781 1.94143 -0.267503
-0.785781 1.92804 -0.267503
-0.785781 1.91465 -0.267503
-0.785781 1.90126 -0.267503
-0.785781 1.88787 -0.267503
-0.736071 1.87698 -0.250581
-0.736071 1.86357 -0.250581
-0.711166 1.85139 -0.242102
-0.686227 1.8392 -0.233612
-0.835358 1.81851 -0.284381
-0.835358 1.80514 -0.284381
-0.661255 1.80013 -0.225111
-0.661255 1.7867 -0.225111
-0.63625 1.77445 -0.216599
-0.63625 1.76101 -0.216599
-0.63625 1.74756 -0.216599
-0.661255 1.73296 -0.225111
-0.63625 1.72068 -0.216599
-0.63625 1.70723 -0.216599
-0.661255 1.69266 -0.225111
-0.785781 1.67364 -0.267503
-0.785781 1.66025 -0.267503
-0.686227 1.65126 -0.233612
-0.686227 1.63783 -0.233612
-0.686227 1.62441 -0.233612
-0.661255 1.61206 -0.225111
-0.661255 1.59862 -0.225111
-0.661255 1.58519 -0.225111
-0.661255 1.57176 -0.225111
-0.661255 1.55832 -0.225111
-0.661255 1.54489 -0.225111
-0.661255 1.53145 -0.225111
-0.53589 1.52311 -0.182433
-0.586138 1.50761 -0.199539
-0.586138 1.49415 -0.199539
-0.586138 1.48069 -0.199539
-0.586138 1.46723 -0.199539
-0.61121 1.45279 -0.208074
-0.61121 1.43934 -0.208074
-0.61121 1.42589 -0.208074
-0.61121 1.41244 -0.208074
-0.686227 1.39618 -0.233612
-0.61121 1.38553 -0.208074
-0.63625 1.37116 -0.216599
-0.63625 1.35772 -0.216599
-0.63625 1.34428 -0.216599
-0.785781 1.32553 -0.267503
-0.711166 1.31476 -0.242102
-0.561031 1.30657 -0.190992
-0.510716 1.29484 -0.173863
-0.510716 1.28135 -0.173863
-0.510716 1.26786 -0.173863
-0.53589 1.25353 -0.182433
-0.53589 1.24005 -0.182433
-0.53589 1.22657 -0.182433
-0.61121 1.21066 -0.208074
-0.61121 1.19721 -0.208074
-0.722951 4.92036 -0.286238
-0.69849 4.91022 -0.276554
-0.69849 4.8968 -0.276554
-0.722951 4.88014 -0.286238
-0.796138 4.85703 -0.315215
-0.796138 4.84365 -0.315215
-0.796138 4.83027 -0.315215
-0.844767 4.8105 -0.334469
-0.673996 4.81952 -0.266856
-0.673996 4.8061 -0.266856
-0.796138 4.77675 -0.315215
-0.796138 4.76337 -0.315215
-0.771775 4.75315 -0.305569
-0.771775 4.73976 -0.305569
-0.771775 4.72637 -0.305569
-0.673996 4.72555 -0.266856
-0.673996 4.71212 -0.266856
-0.69849 4.69557 -0.276554
-0.69849 4.68215 -0.276554
-0.722951 4.66563 -0.286238
-0.796138 4.64295 -0.315215
-0.796138 4.62957 -0.315215
-0.820469 4.61312 -0.324849
-0.820469 4.59975 -0.324849
-0.844767 4.58334 -0.334469
-0.844767 4.56998 -0.334469
-0.796138 4.56267 -0.315215
-0.796138 4.54928 -0.315215
-0.796138 4.5359 -0.315215
-0.820469 4.51952 -0.324849
-0.844767 4.50316 -0.334469
-0.869032 4.48683 -0.344076
-0.869032 4.47347 -0.344076
-0.820469 4.46604 -0.324849
-0.796138 4.45562 -0.315215
-0.796138 4.44224 -0.315215
-0.796138 4.42886 -0.315215
-0.796138 4.41548 -0.315215
-0.796138 4.4021 -0.315215
-0.796138 4.38872 -0.315215
-0.796138 4.37534 -0.315215
-0.771775 4.36486 -0.305569
-0.771775 4.35147 -0.305569
-0.771775 4.33808 -0.305569
-0.796138 4.32182 -0.315215
-0.796138 4.30844 -0.315215
-0.796138 4.29506 -0.315215
-0.796138 4.28168 -0.315215
-0.796138 4.2683 -0.315215
-0.771775 4.25775 -0.305569
-0.796138 4.24154 -0.315215
-0.796138 4.22816 -0.315215
-0.796138 4.21478 -0.315215
-0.796138 4.2014 -0.315215
-0.820469 4.18524 -0.324849
-0.796138 4.17464 -0.315215
-0.796138 4.16126 -0.315215
-0.820469 4.14513 -0.324849
-0.820469 4.13175 -0.324849
-0.917466 4.10749 -0.363253
-0.917466 4.09415 -0.363253
-0.893265 4.08351 -0.353671
-0.796138 4.08098 -0.315215
-0.796138 4.0676 -0.315215
-0.893265 4.04348 -0.353671
-0.844767 4.03548 -0.334469
-0.844767 4.02211 -0.334469
-0.844767 4.00875 -0.334469
-0.820469 3.99804 -0.324849
-0.820469 3.98467 -0.324849
-0.820469 3.9713 -0.324849
-0.820469 3.95793 -0.324849
-0.820469 3.94455 -0.324849
-0.796138 3.93379 -0.315215
-0.796138 3.92041 -0.315215
-0.796138 3.90703 -0.315215
-0.796138 3.89365 -0.315215
-0.796138 3.88027 -0.315215
-0.796138 3.86689 -0.315215
-0.820469 3.85096 -0.324849
-0.820469 3.83758 -0.324849
-0.820469 3.82421 -0.324849
-0.869032 3.80579 -0.344076
-0.869032 3.79244 -0.344076
-0.869032 3.77908 -0.344076
-0.820469 3.77073 -0.324849
-0.820469 3.75736 -0.324849
-0.796138 3.74647 -0.315215
-0.796138 3.73309 -0.315215
-0.844767 3.71478 -0.334469
-0.844767 3.70141 -0.334469
-0.844767 3.68805 -0.334469
-0.820469 3.67713 -0.324849
-0.820469 3.66376 -0.324849
-0.796138 3.65281 -0.315215
-0.844767 3.6346 -0.334469
-0.844767 3.62124 -0.334469
-0.869032 3.60549 -0.344076
-0.869032 3.59213 -0.344076
-0.869032 3.57878 -0.344076
-0.796138 3.57253 -0.315215
-0.796138 3.55915 -0.315215
-0.796138 3.54577 -0.315215
-0.796138 3.53239 -0.315215
-0.820469 3.51667 -0.324849
-0.820469 3.5033 -0.324849
-0.820469 3.48993 -0.324849
-0.820469 3.47656 -0.324849
-0.796138 3.46548 -0.315215
-0.796138 3.4521 -0.315215
-0.796138 3.43872 -0.315215
-0.820469 3.42307 -0.324849
-0.796138 3.41196 -0.315215
-0.820469 3.39633 -0.324849
-0.820469 3.38296 -0.324849
-0.844767 3.36735 -0.334469
-0.820469 3.35621 -0.324849
-0.820469 3.34284 -0.324849
-0.844767 3.32726 -0.334469
-0.820469 3.3161 -0.324849
-0.796138 3.30492 -0.315215
-0.796138 3.29154 -0.315215
-0.796138 3.27816 -0.315215
-0.796138 3.26478 -0.315215
-0.796138 3.2514 -0.315215
-0.796138 3.23802 -0.315215
-0.796138 3.22464 -0.315215
-0.820469 3.20913 -0.324849
-0.820469 3.19576 -0.324849
-0.820469 3.18239 -0.324849
-0.820469 3.16902 -0.324849
-0.820469 3.15564 -0.324849
-0.844767 3.14019 -0.334469
-0.820469 3.1289 -0.324849
-0.820469 3.11553 -0.324849
-0.844767 3.1001 -0.334469
-0.844767 3.08674 -0.334469
-0.820469 3.07542 -0.324849
-0.820469 3.06204 -0.324849
-0.820469 3.04867 -0.324849
-0.796138 3.03732 -0.315215
-0.820469 3.02193 -0.324849
-0.844767 3.00656 -0.334469
-0.989875 2.98135 -0.391922
-0.796138 2.9838 -0.315215
-0.796138 2.97042 -0.315215
-0.796138 2.95704 -0.315215
-0.796138 2.94366 -0.315215
-0.893265 2.92252 -0.353671
-0.869032 2.9111 -0.344076
-0.820469 2.90159 -0.324849
-0.796138 2.89013 -0.315215
-0.796138 2.87675 -0.315215
-0.796138 2.86337 -0.315215
-0.796138 2.84999 -0.315215
-0.796138 2.83661 -0.315215
-0.820469 2.82136 -0.324849
-0.820469 2.80799 -0.324849
-0.820469 2.79462 -0.324849
-0.820469 2.78125 -0.324849
-0.820469 2.76787 -0.324849
-0.796138 2.75633 -0.315215
-0.796138 2.74295 -0.315215
-0.796138 2.72957 -0.315215
-0.820469 2.71439 -0.324849
-0.820469 2.70102 -0.324849
-0.820469 2.68765 -0.324849
-0.820469 2.67427 -0.324849
-0.844767 2.65914 -0.334469
-0.844767 2.64578 -0.334469
-0.844767 2.63241 -0.334469
-0.844767 2.61905 -0.334469
-0.917466 2.60052 -0.363253
-0.893265 2.58889 -0.353671
-0.820469 2.58067 -0.324849
-0.796138 2.56901 -0.315215
-0.796138 2.55563 -0.315215
-0.796138 2.54225 -0.315215
-0.796138 2.52887 -0.315215
-0.796138 2.51549 -0.315215
-0.796138 2.50211 -0.315215
-0.820469 2.48708 -0.324849
-0.844767 2.47206 -0.334469
-0.796138 2.46197 -0.315215
-0.820469 2.44696 -0.324849
-0.820469 2.43359 -0.324849
-0.796138 2.42183 -0.315215
-0.820469 2.40685 -0.324849
-0.917466 2.38714 -0.363253
-0.844767 2.37853 -0.334469
-0.844767 2.36516 -0.334469
-0.796138 2.35492 -0.315215
-0.796138 2.34154 -0.315215
-0.796138 2.32816 -0.315215
-0.796138 2.31478 -0.315215
-0.820469 2.29988 -0.324849
-0.820469 2.2865 -0.324849
-0.844767 2.27163 -0.334469
-0.820469 2.25976 -0.324849
-0.869032 2.24341 -0.344076
-0.869032 2.23006 -0.344076
-0.869032 2.21671 -0.344076
-0.869032 2.20335 -0.344076
-0.796138 2.19436 -0.315215
-0.722951 2.18534 -0.286238
-0.722951 2.17193 -0.286238
-0.747379 2.15709 -0.29591
-0.820469 2.13942 -0.324849
-0.796138 2.12746 -0.315215
-0.796138 2.11408 -0.315215
-0.796138 2.1007 -0.315215
-0.747379 2.0901 -0.29591
-0.796138 2.07394 -0.315215
-0.796138 2.06056 -0.315215
-0.722951 2.05127 -0.286238
-0.69849 2.03922 -0.276554
-0.771775 2.02176 -0.305569
-0.771775 2.00837 -0.305569
-0.820469 1.99233 -0.324849
-0.820469 1.97896 -0.324849
-0.820469 1.96559 -0.324849
-0.771775 1.95481 -0.305569
-0.796138 1.94014 -0.315215
-0.771775 1.92804 -0.305569
-0.771775 1.91465 -0.305569
-0.747379 1.90252 -0.29591
-0.771775 1.88787 -0.305569
-0.796138 1.87323 -0.315215
-0.796138 1.85985 -0.315215
-0.796138 1.84647 -0.315215
-0.771775 1.83431 -0.305569
-0.600316 1.82944 -0.237684
-0.624909 1.81478 -0.247421
-0.649469 1.80013 -0.257145
-0.649469 1.7867 -0.257145
-0.722951 1.76972 -0.286238
-0.796138 1.75281 -0.315215
-0.796138 1.73943 -0.315215
-0.649469 1.73296 -0.257145
-0.69849 1.71724 -0.276554
-0.69849 1.70382 -0.276554
-0.69849 1.6904 -0.276554
-0.69849 1.67699 -0.276554
-0.69849 1.66357 -0.276554
-0.722951 1.64906 -0.286238
-0.722951 1.63565 -0.286238
-0.722951 1.62224 -0.286238
-0.722951 1.60884 -0.286238
-0.624909 1.59969 -0.247421
-0.624909 1.58625 -0.247421
-0.722951 1.56862 -0.286238
-0.722951 1.55521 -0.286238
-0.722951 1.5418 -0.286238
-0.722951 1.52839 -0.286238
-0.844767 1.50996 -0.334469
-0.820469 1.49759 -0.324849
-0.69849 1.48917 -0.276554
-0.673996 1.47673 -0.266856
-0.69849 1.46233 -0.276554
-0.673996 1.44988 -0.266856
-0.624909 1.43838 -0.247421
-0.624909 1.42494 -0.247421
-0.649469 1.41055 -0.257145
-0.673996 1.39618 -0.266856
-0.673996 1.38276 -0.266856
-0.673996 1.36933 -0.266856
-0.673996 1.35591 -0.266856
-0.673996 1.34249 -0.266856
-0.69849 1.32817 -0.276554
-0.69849 1.31476 -0.276554
-0.673996 1.30221 -0.266856
-0.722951 1.28707 -0.286238
-0.722951 1.27366 -0.286238
-0.747379 1.25942 -0.29591
-0.747379 1.24602 -0.29591
-0.624909 1.23674 -0.247421
-0.600316 1.22411 -0.237684
-0.600316 1.21066 -0.237684
-0.649469 1.19561 -0.257145
-0.77979 4.91055 -0.35373
-0.755927 4.90043 -0.342906
-0.755927 4.88704 -0.342906
-0.755927 4.87365 -0.342906
-0.77979 4.85703 -0.35373
-0.77979 4.84365 -0.35373
-0.660155 4.84637 -0.299462
-0.684146 4.82973 -0.310344
-0.684146 4.81631 -0.310344
-0.755927 4.79331 -0.342906
-0.77979 4.77675 -0.35373
-0.77979 4.76337 -0.35373
-0.77979 4.74999 -0.35373
-0.77979 4.73661 -0.35373
-0.77979 4.72323 -0.35373
-0.80362 4.70672 -0.364541
-0.80362 4.69335 -0.364541
-0.80362 4.67998 -0.364541
-0.851187 4.66043 -0.386118
-0.851187 4.64707 -0.386118
-0.851187 4.63372 -0.386118
-0.851187 4.62037 -0.386118
-0.851187 4.60701 -0.386118
-0.80362 4.59975 -0.364541
-0.80362 4.58638 -0.364541
-0.80362 4.57301 -0.364541
-0.80362 4.55964 -0.364541
-0.80362 4.54627 -0.364541
-0.80362 4.5329 -0.364541
-0.80362 4.51952 -0.364541
-0.851187 4.50018 -0.386118
-0.80362 4.49278 -0.364541
-0.80362 4.47941 -0.364541
-0.827419 4.46308 -0.375336
-0.80362 4.45267 -0.364541
-0.80362 4.4393 -0.364541
-0.80362 4.42592 -0.364541
-0.898626 4.40088 -0.407637
-0.922298 4.38464 -0.418375
-0.945939 4.36843 -0.429099
-0.945939 4.35511 -0.429099
-0.922298 4.34466 -0.418375
-0.922298 4.33134 -0.418375
-0.898626 4.32086 -0.407637
-0.874922 4.31038 -0.396885
-0.874922 4.29703 -0.396885
-0.874922 4.28369 -0.396885
-0.851187 4.27317 -0.386118
-0.851187 4.25982 -0.386118
-0.80362 4.2521 -0.364541
-0.77979 4.24154 -0.35373
-0.77979 4.22816 -0.35373
-0.77979 4.21478 -0.35373
-0.827419 4.19583 -0.375336
-0.851187 4.17969 -0.386118
-0.80362 4.17187 -0.364541
-0.80362 4.1585 -0.364541
-0.77979 4.14788 -0.35373
-0.77979 4.1345 -0.35373
-0.77979 4.12112 -0.35373
-0.77979 4.10774 -0.35373
-0.77979 4.09436 -0.35373
-0.77979 4.08098 -0.35373
-0.80362 4.0649 -0.364541
-0.80362 4.05153 -0.364541
-0.80362 4.03815 -0.364541
-0.80362 4.02478 -0.364541
-0.80362 4.01141 -0.364541
-0.80362 3.99804 -0.364541
-0.827419 3.98203 -0.375336
-0.827419 3.96866 -0.375336
-0.874922 3.95007 -0.396885
-0.851187 3.93933 -0.386118
-0.851187 3.92597 -0.386118
-0.827419 3.91521 -0.375336
-0.827419 3.90185 -0.375336
-0.80362 3.89107 -0.364541
-0.80362 3.8777 -0.364541
-0.80362 3.86433 -0.364541
-0.77979 3.85351 -0.35373
-0.80362 3.83758 -0.364541
-0.80362 3.82421 -0.364541
-0.77979 3.81337 -0.35373
-0.77979 3.79999 -0.35373
-0.77979 3.78661 -0.35373
-0.80362 3.77073 -0.364541
-0.827419 3.75486 -0.375336
-0.827419 3.7415 -0.375336
-0.827419 3.72814 -0.375336
-0.851187 3.71232 -0.386118
-0.851187 3.69896 -0.386118
-0.851187 3.68561 -0.386118
-0.851187 3.67226 -0.386118
-0.851187 3.6589 -0.386118
-0.851187 3.64555 -0.386118
-0.851187 3.63219 -0.386118
-0.851187 3.61884 -0.386118
-0.874922 3.6031 -0.396885
-0.851187 3.59213 -0.386118
-0.851187 3.57878 -0.386118
-0.77979 3.57253 -0.35373
-0.77979 3.55915 -0.35373
-0.77979 3.54577 -0.35373
-0.77979 3.53239 -0.35373
-0.80362 3.51667 -0.364541
-0.827419 3.50098 -0.375336
-0.827419 3.48761 -0.375336
-0.827419 3.47425 -0.375336
-0.827419 3.46089 -0.375336
-0.827419 3.44753 -0.375336
-0.827419 3.43416 -0.375336
-0.77979 3.42534 -0.35373
-0.77979 3.41196 -0.35373
-0.77979 3.39858 -0.35373
-0.77979 3.3852 -0.35373
-0.77979 3.37182 -0.35373
-0.827419 3.35399 -0.375336
-0.77979 3.34506 -0.35373
-0.77979 3.33168 -0.35373
-0.80362 3.3161 -0.364541
-0.80362 3.30273 -0.364541
-0.80362 3.28936 -0.364541
-0.80362 3.27599 -0.364541
-0.80362 3.26261 -0.364541
-0.80362 3.24924 -0.364541
-0.80362 3.23587 -0.364541
-0.80362 3.2225 -0.364541
-0.77979 3.21126 -0.35373
-0.77979 3.19788 -0.35373
-0.851187 3.17817 -0.386118
-0.898626 3.16063 -0.407637
-0.898626 3.14729 -0.407637
-0.851187 3.13811 -0.386118
-0.851187 3.12476 -0.386118
-0.851187 3.1114 -0.386118
-0.874922 3.096 -0.396885
-0.80362 3.08879 -0.364541
-0.80362 3.07542 -0.364541
-0.80362 3.06204 -0.364541
-0.80362 3.04867 -0.364541
-0.80362 3.0353 -0.364541
-0.80362 3.02193 -0.364541
-0.80362 3.00856 -0.364541
-0.827419 2.9932 -0.375336
-0.77979 2.9838 -0.35373
-0.77979 2.97042 -0.35373
-0.77979 2.95704 -0.35373
-0.77979 2.94366 -0.35373
-0.77979 2.93027 -0.35373
-0.77979 2.91689 -0.35373
-0.77979 2.90351 -0.35373
-0.77979 2.89013 -0.35373
-0.77979 2.87675 -0.35373
-0.77979 2.86337 -0.35373
-0.77979 2.84999 -0.35373
-0.77979 2.83661 -0.35373
-0.77979 2.82323 -0.35373
-0.77979 2.80985 -0.35373
-0.77979 2.79647 -0.35373
-0.827419 2.7794 -0.375336
-0.851187 2.76421 -0.386118
-0.851187 2.75085 -0.386118
-0.851187 2.7375 -0.386118
-0.827419 2.72595 -0.375336
-0.827419 2.71259 -0.375336
-0.827419 2.69923 -0.375336
-0.827419 2.68586 -0.375336
-0.77979 2.67605 -0.35373
-0.77979 2.66267 -0.35373
-0.80362 2.64753 -0.364541
-0.80362 2.63416 -0.364541
-0.80362 2.62079 -0.364541
-0.77979 2.60915 -0.35373
-0.77979 2.59577 -0.35373
-0.77979 2.58239 -0.35373
-0.77979 2.56901 -0.35373
-0.77979 2.55563 -0.35373
-0.77979 2.54225 -0.35373
-0.827419 2.52551 -0.375336
-0.851187 2.51049 -0.386118
-0.827419 2.49879 -0.375336
-0.77979 2.48873 -0.35373
-0.77979 2.47535 -0.35373
-0.77979 2.46197 -0.35373
-0.77979 2.44859 -0.35373
-0.77979 2.43521 -0.35373
-0.77979 2.42183 -0.35373
-0.827419 2.40525 -0.375336
-0.851187 2.3903 -0.386118
-0.851187 2.37695 -0.386118
-0.827419 2.36516 -0.375336
-0.851187 2.35024 -0.386118
-0.851187 2.33689 -0.386118
-0.827419 2.32508 -0.375336
-0.77979 2.31478 -0.35373
-0.77979 2.3014 -0.35373
-0.77979 2.28802 -0.35373
-0.77979 2.27464 -0.35373
-0.77979 2.26126 -0.35373
-0.77979 2.24788 -0.35373
-0.77979 2.2345 -0.35373
-0.80362 2.21965 -0.364541
-0.80362 2.20628 -0.364541
-0.77979 2.19436 -0.35373
-0.77979 2.18098 -0.35373
-0.80362 2.16616 -0.364541
-0.80362 2.15279 -0.364541
-0.851187 2.13658 -0.386118
-0.708105 2.13171 -0.321213
-0.732032 2.11689 -0.332066
-0.77979 2.1007 -0.35373
-0.77979 2.08732 -0.35373
-0.827419 2.07119 -0.375336
-0.827419 2.05783 -0.375336
-0.898626 2.04041 -0.407637
-0.827419 2.0311 -0.375336
-0.898626 2.01374 -0.407637
-0.827419 2.00438 -0.375336
-0.827419 1.99101 -0.375336
-0.851187 1.97634 -0.386118
-0.851187 1.96299 -0.386118
-0.851187 1.94963 -0.386118
-0.898626 1.93372 -0.407637
-0.874922 1.92165 -0.396885
-0.874922 1.90831 -0.396885
-0.80362 1.89873 -0.364541
-0.77979 1.88662 -0.35373
-0.874922 1.86827 -0.396885
-0.874922 1.85493 -0.396885
-0.755927 1.8477 -0.342906
-0.77979 1.83309 -0.35373
-0.77979 1.81971 -0.35373
-0.77979 1.80633 -0.35373
-0.660155 1.79893 -0.299462
-0.827419 1.77721 -0.375336
-0.827419 1.76385 -0.375336
-0.732032 1.75514 -0.332066
-0.77979 1.73943 -0.35373
-0.77979 1.72605 -0.35373
-0.827419 1.7104 -0.375336
-0.827419 1.69704 -0.375336
-0.80362 1.68479 -0.364541
-0.684146 1.67699 -0.310344
-0.684146 1.66357 -0.310344
-0.708105 1.64906 -0.321213
-0.732032 1.63456 -0.332066
-0.77979 1.61901 -0.35373
-0.77979 1.60563 -0.35373
-0.77979 1.59225 -0.35373
-0.77979 1.57887 -0.35373
-0.77979 1.56549 -0.35373
-0.708105 1.55521 -0.321213
-0.684146 1.54283 -0.310344
-0.684146 1.52941 -0.310344
-0.684146 1.516 -0.310344
-0.708105 1.50158 -0.321213
-0.636132 1.49115 -0.288564
-0.684146 1.47575 -0.310344
-0.684146 1.46233 -0.310344
-0.684146 1.44892 -0.310344
-0.708105 1.43455 -0.321213
-0.612077 1.42494 -0.277652
-0.612077 1.41149 -0.277652
-0.587989 1.39899 -0.266725
-0.563869 1.38646 -0.255784
-0.563869 1.373 -0.255784
-0.587989 1.35863 -0.266725
-0.732032 1.3398 -0.332066
-0.732032 1.32641 -0.332066
-0.684146 1.31476 -0.310344
-0.708105 1.30048 -0.321213
-0.684146 1.28793 -0.310344
-0.684146 1.27451 -0.310344
-0.755927 1.25858 -0.342906
-0.684146 1.24768 -0.310344
-0.660155 1.23509 -0.299462
-0.660155 1.22166 -0.299462
-0.684146 1.20743 -0.310344
-0.755927 1.19163 -0.342906
-0.691569 4.92036 -0.35542
-0.691569 4.90695 -0.35542
-0.691569 4.89354 -0.35542
-0.691569 4.88014 -0.35542
-0.691569 4.86673 -0.35542
-0.691569 4.85332 -0.35542
-0.738273 4.83348 -0.379423
-0.714937 4.8233 -0.36743
-0.784853 4.80032 -0.403362
-0.784853 4.78695 -0.403362
-0.784853 4.77358 -0.403362
-0.784853 4.76021 -0.403362
-0.784853 4.74684 -0.403362
-0.784853 4.73347 -0.403362
-0.784853 4.72009 -0.403362
-0.761579 4.70985 -0.391401
-0.761579 4.69647 -0.391401
-0.808096 4.67688 -0.415307
-0.808096 4.66352 -0.415307
-0.808096 4.65015 -0.415307
-0.784853 4.63987 -0.403362
-0.784853 4.62649 -0.403362
-0.761579 4.61619 -0.391401
-0.784853 4.59975 -0.403362
-0.808096 4.58334 -0.415307
-0.831309 4.56695 -0.427237
-0.761579 4.56267 -0.391401
-0.714937 4.55534 -0.36743
-0.714937 4.54194 -0.36743
-0.738273 4.52553 -0.379423
-0.784853 4.50615 -0.403362
-0.761579 4.49576 -0.391401
-0.761579 4.48238 -0.391401
-0.761579 4.469 -0.391401
-0.761579 4.45562 -0.391401
-0.761579 4.44224 -0.391401
-0.808096 4.42299 -0.415307
-0.831309 4.40671 -0.427237
-0.831309 4.39335 -0.427237
-0.85449 4.3771 -0.439151
-0.85449 4.36376 -0.439151
-0.808096 4.35618 -0.415307
-0.808096 4.34281 -0.415307
-0.808096 4.32945 -0.415307
-0.808096 4.31609 -0.415307
-0.808096 4.30273 -0.415307
-0.831309 4.28652 -0.427237
-0.808096 4.276 -0.415307
-0.808096 4.26264 -0.415307
-0.761579 4.25492 -0.391401
-0.761579 4.24154 -0.391401
-0.761579 4.22816 -0.391401
-0.761579 4.21478 -0.391401
-0.761579 4.2014 -0.391401
-0.761579 4.18802 -0.391401
-0.761579 4.17464 -0.391401
-0.761579 4.16126 -0.391401
-0.831309 4.13963 -0.427237
-0.808096 4.12901 -0.415307
-0.808096 4.11565 -0.415307
-0.808096 4.10229 -0.415307
-0.808096 4.08893 -0.415307
-0.808096 4.07556 -0.415307
-0.808096 4.0622 -0.415307
-0.808096 4.04884 -0.415307
-0.808096 4.03548 -0.415307
-0.784853 4.02478 -0.403362
-0.784853 4.01141 -0.403362
-0.784853 3.99804 -0.403362
-0.784853 3.98467 -0.403362
-0.761579 3.97393 -0.391401
-0.808096 3.9553 -0.415307
-0.761579 3.94717 -0.391401
-0.85449 3.92338 -0.439151
-0.85449 3.91003 -0.439151
-0.85449 3.89669 -0.439151
-0.85449 3.88334 -0.439151
-0.85449 3.87 -0.439151
-0.946906 3.84648 -0.486646
-0.969933 3.83064 -0.498481
-0.923848 3.82238 -0.474796
-0.808096 3.82168 -0.415307
-0.946906 3.79324 -0.486646
-0.946906 3.77993 -0.486646
-0.946906 3.76662 -0.486646
-0.946906 3.75331 -0.486646
-0.923848 3.74247 -0.474796
-0.87764 3.73408 -0.451048
-0.87764 3.72074 -0.451048
-0.87764 3.70741 -0.451048
-0.85449 3.69651 -0.439151
-0.85449 3.68317 -0.439151
-0.831309 3.67226 -0.427237
-0.85449 3.65648 -0.439151
-0.761579 3.65281 -0.391401
-0.87764 3.62739 -0.451048
-0.87764 3.61405 -0.451048
-0.808096 3.60788 -0.415307
-0.808096 3.59451 -0.415307
-0.808096 3.58115 -0.415307
-0.808096 3.56779 -0.415307
-0.831309 3.55207 -0.427237
-0.808096 3.54106 -0.415307
-0.831309 3.52537 -0.427237
-0.831309 3.51201 -0.427237
-0.761579 3.50563 -0.391401
-0.784853 3.48993 -0.403362
-0.784853 3.47656 -0.403362
-0.808096 3.46089 -0.415307
-0.808096 3.44753 -0.415307
-0.808096 3.43416 -0.415307
-0.831309 3.41854 -0.427237
-0.831309 3.40518 -0.427237
-0.831309 3.39183 -0.427237
-0.946906 3.36733 -0.486646
-0.831309 3.36512 -0.427237
-0.808096 3.35399 -0.415307
-0.761579 3.34506 -0.391401
-0.761579 3.33168 -0.391401
-0.761579 3.3183 -0.391401
-0.761579 3.30492 -0.391401
-0.761579 3.29154 -0.391401
-0.761579 3.27816 -0.391401
-0.85449 3.25614 -0.439151
-0.831309 3.24494 -0.427237
-0.808096 3.23373 -0.415307
-0.784853 3.2225 -0.403362
-0.831309 3.20488 -0.427237
-0.831309 3.19152 -0.427237
-0.808096 3.18028 -0.415307
-0.761579 3.17112 -0.391401
-0.761579 3.15774 -0.391401
-0.761579 3.14436 -0.391401
-0.761579 3.13098 -0.391401
-0.761579 3.1176 -0.391401
-0.784853 3.10216 -0.403362
-0.784853 3.08879 -0.403362
-0.761579 3.07746 -0.391401
-0.761579 3.06408 -0.391401
-0.808096 3.04665 -0.415307
-0.831309 3.03128 -0.427237
-0.761579 3.02394 -0.391401
-0.761579 3.01056 -0.391401
-0.761579 2.99718 -0.391401
-0.761579 2.9838 -0.391401
-0.784853 2.96844 -0.403362
-0.761579 2.95704 -0.391401
-0.761579 2.94366 -0.391401
-0.761579 2.93027 -0.391401
-0.761579 2.91689 -0.391401
-0.761579 2.90351 -0.391401
-0.761579 2.89013 -0.391401
-0.761579 2.87675 -0.391401
-0.831309 2.85768 -0.427237
-0.761579 2.84999 -0.391401
-0.761579 2.83661 -0.391401
-0.761579 2.82323 -0.391401
-0.761579 2.80985 -0.391401
-0.831309 2.79091 -0.427237
-0.808096 2.7794 -0.415307
-0.784853 2.76787 -0.403362
-0.784853 2.7545 -0.403362
-0.808096 2.73931 -0.415307
-0.831309 2.72415 -0.427237
-0.831309 2.71079 -0.427237
-0.808096 2.69923 -0.415307
-0.784853 2.68765 -0.403362
-0.784853 2.67427 -0.403362
-0.784853 2.6609 -0.403362
-0.761579 2.64929 -0.391401
-0.784853 2.63416 -0.403362
-0.831309 2.61732 -0.427237
-0.85449 2.60224 -0.439151
-0.85449 2.58889 -0.439151
-0.85449 2.57555 -0.439151
-0.85449 2.56221 -0.439151
-0.784853 2.55393 -0.403362
-0.808096 2.53888 -0.415307
-0.808096 2.52551 -0.415307
-0.808096 2.51215 -0.415307
-0.808096 2.49879 -0.415307
-0.808096 2.48543 -0.415307
-0.784853 2.4737 -0.403362
-0.85449 2.45545 -0.439151
-0.784853 2.44696 -0.403362
-0.784853 2.43359 -0.403362
-0.784853 2.42022 -0.403362
-0.784853 2.40685 -0.403362
-0.784853 2.39348 -0.403362
-0.784853 2.3801 -0.403362
-0.784853 2.36673 -0.403362
-0.808096 2.3518 -0.415307
-0.808096 2.33844 -0.415307
-0.808096 2.32508 -0.415307
-0.784853 2.31325 -0.403362
-0.784853 2.29988 -0.403362
-0.761579 2.28802 -0.391401
-0.761579 2.27464 -0.391401
-0.761579 2.26126 -0.391401
-0.761579 2.24788 -0.391401
-0.761579 2.2345 -0.391401
-0.761579 2.22112 -0.391401
-0.761579 2.20774 -0.391401
-0.761579 2.19436 -0.391401
-0.761579 2.18098 -0.391401
-0.761579 2.1676 -0.391401
-0.761579 2.15422 -0.391401
-0.761579 2.14084 -0.391401
-0.761579 2.12746 -0.391401
-0.808096 2.11128 -0.415307
-0.761579 2.1007 -0.391401
-0.761579 2.08732 -0.391401
-0.761579 2.07394 -0.391401
-0.761579 2.06056 -0.391401
-0.761579 2.04718 -0.391401
-0.761579 2.0338 -0.391401
-0.761579 2.02042 -0.391401
-0.808096 2.00438 -0.415307
-0.808096 1.99101 -0.415307
-0.808096 1.97765 -0.415307
-0.784853 1.96559 -0.403362
-0.784853 1.95222 -0.403362
-0.784853 1.93885 -0.403362
-0.761579 1.92676 -0.391401
-0.761579 1.91338 -0.391401
-0.808096 1.89748 -0.415307
-0.808096 1.88411 -0.415307
-0.761579 1.87323 -0.391401
-0.761579 1.85985 -0.391401
-0.761579 1.84647 -0.391401
-0.808096 1.83066 -0.415307
-0.808096 1.8173 -0.415307
-0.808096 1.80394 -0.415307
-0.808096 1.79058 -0.415307
-0.761579 1.77957 -0.391401
-0.761579 1.76619 -0.391401
-0.761579 1.75281 -0.391401
-0.761579 1.73943 -0.391401
-0.761579 1.72605 -0.391401
-0.761579 1.71267 -0.391401
-0.761579 1.69929 -0.391401
-0.761579 1.68591 -0.391401
-0.761579 1.67253 -0.391401
-0.784853 1.65805 -0.403362
-0.761579 1.64577 -0.391401
-0.761579 1.63239 -0.391401
-0.761579 1.61901 -0.391401
-0.738273 1.6067 -0.379423
-0.761579 1.59225 -0.391401
-0.738273 1.57992 -0.379423
-0.738273 1.56653 -0.379423
-0.738273 1.55314 -0.379423
-0.761579 1.53873 -0.391401
-0.761579 1.52535 -0.391401
-0.691569 1.51499 -0.35542
-0.761579 1.49859 -0.391401
-0.761579 1.48521 -0.391401
-0.691569 1.47477 -0.35542
-0.691569 1.46136 -0.35542
-0.714937 1.44699 -0.36743
-0.738273 1.43264 -0.379423
-0.738273 1.41925 -0.379423
-0.738273 1.40586 -0.379423
-0.738273 1.39247 -0.379423
-0.644739 1.38276 -0.331353
-0.644739 1.36933 -0.331353
-0.761579 1.35141 -0.391401
-0.644739 1.34249 -0.331353
-0.738273 1.32553 -0.379423
-0.738273 1.31214 -0.379423
-0.738273 1.29875 -0.379423
-0.738273 1.28536 -0.379423
-0.738273 1.27197 -0.379423
-0.738273 1.25858 -0.379423
-0.761579 1.24436 -0.391401
-0.761579 1.23098 -0.391401
-0.621276 1.22248 -0.319295
-0.74155 4.92393 -0.428136
-0.74155 4.91055 -0.428136
-0.718857 4.90043 -0.415035
-0.832017 4.87086 -0.480368
-0.809446 4.86073 -0.467336
-0.809446 4.84738 -0.467336
-0.809446 4.83402 -0.467336
-0.832017 4.81748 -0.480368
-0.718857 4.82009 -0.415035
-0.764212 4.80032 -0.44122
-0.764212 4.78695 -0.44122
-0.764212 4.77358 -0.44122
-0.764212 4.76021 -0.44122
-0.74155 4.74999 -0.428136
-0.74155 4.73661 -0.428136
-0.74155 4.72323 -0.428136
-0.74155 4.70985 -0.428136
-0.74155 4.69647 -0.428136
-0.74155 4.68309 -0.428136
-0.74155 4.66971 -0.428136
-0.74155 4.65633 -0.428136
-0.74155 4.64295 -0.428136
