1.0683 4.07565 -0.646281 0.902536 -0.133784 -0.409305
1.69573 1.90791 0.854049 0.85645 -0.0414201 -0.514566
2.32029 1.9095 1.91998 0.888585 -0.0209526 0.458233
1.27157 3.3594 -0.248879 0.962454 0.0335768 -0.269361
1.25096 1.2843 0.28652 0.812215 0.0568335 -0.580584
1.23093 4.23429 -0.341077 0.927676 0.0240405 -0.372612
1.02601 2.41233 2.82869 0.613969 0.0489832 0.787809
1.47642 4.53861 0.514308 0.801028 0.0187106 -0.598334
0.982861 2.96028 -0.978517 0.952625 -0.0624452 -0.297667
1.2872 4.13405 -0.183929 0.963378 0.0799577 -0.25595
1.26145 2.50549 -0.283044 0.986461 -0.0382815 -0.159466
1.76328 3.69748 2.45855 0.54862 0.0290035 0.835569
1.63784 1.18612 0.864339 0.833913 -0.0141498 -0.551714
1.25782 3.81388 -0.283517 0.978017 -0.0483361 -0.202844
1.24617 2.95426 -0.343831 0.973847 0.0819123 -0.211927
1.23536 1.861 -0.371322 0.926145 -0.0372482 -0.375324
1.15338 1.58627 -0.681038 0.963098 0.198087 -0.18222
1.21482 4.25558 2.73849 0.491767 0.0445862 0.869585
1.85528 2.04136 2.40261 0.613413 0.0209677 0.789484
2.02902 4.32382 2.23352 0.656513 0.132719 0.742547
1.02403 3.33814 -0.821038 0.939909 0.0797653 -0.331976
1.16003 1.55765 0.158006 0.768105 -0.0597219 -0.637532
1.44376 1.57553 0.499462 0.834325 -0.040486 -0.549785
1.27559 1.58921 0.295366 0.780048 -0.0356147 -0.624706
1.24134 2.35941 -0.36402 0.982774 -0.0386324 -0.180727
2.27932 3.28 1.99876 0.809292 -0.0138439 0.587243
1.24785 3.84251 2.74135 0.403452 -0.0571596 0.913214
1.60538 4.5605 2.49066 0.396596 0.00305545 0.917988
2.30952 3.62351 1.96616 0.800937 0.0123676 0.598621
1.29413 2.46643 -0.0805898 0.992404 -0.11751 -0.0364064
0.907805 2.61518 -1.18299 0.995464 -0.0935299 -0.0174296
2.20432 4.41996 2.06198 0.670591 0.0695744 0.738557
1.24923 4.29678 0.217144 0.769942 0.0220255 -0.637733
1.04687 3.35244 -0.751136 0.900409 0.0630073 -0.430458
2.20688 2.82288 2.05065 0.708389 0.0430141 0.704511
0.95234 4.2419 -0.919407 0.938827 0.049398 -0.340828
1.4278 3.12956 0.440892 0.826259 0.0489516 -0.561159
0.958048 4.42233 -0.854867 0.945049 0.113984 -0.306415
0.906871 3.45487 -1.198 0.912564 0.083843 -0.400247
2.27133 3.75623 1.68105 0.987107 -0.033486 -0.156522
1.99125 4.73588 2.29089 0.639862 -0.018022 0.768278
1.76071 3.11286 0.905413 0.858085 0.0043964 -0.513489
1.16443 1.89611 -0.643089 0.989499 -0.0498162 -0.135685
1.19665 2.65395 0.170558 0.739045 0.0568464 -0.671253
1.34724 1.19501 -0.12814 0.95447 -0.25531 -0.154288
2.17871 3.65191 2.1156 0.75547 0.0155736 0.654998
0.882515 4.53726 -1.08821 0.977647 0.0955748 -0.187274
1.92809 3.38835 1.14962 0.835757 -0.052267 -0.546607
1.10956 3.95874 -0.541234 0.829743 0.00618355 -0.558111
1.27349 4.69955 0.263416 0.78623 0.115558 -0.607033
1.74048 3.58185 2.47138 0.515004 0.00374514 0.85718
0.928474 2.70922 -1.36866 0.999751 -0.0132235 -0.0179794
1.26582 3.45562 -0.256515 0.957614 0.0185658 -0.287455
1.15941 2.12552 0.110333 0.808224 -0.12684 -0.575053
2.16944 3.53366 2.13279 0.740715 0.0122716 0.671708
0.946071 4.63248 -0.860627 0.949711 0.0439402 -0.31003
2.31826 2.28575 1.915 0.784467 0.0158325 0.619968
1.20296 2.42762 0.137187 0.831564 0.111531 -0.544116
1.63103 2.13161 2.56351 0.540933 -0.00376134 0.841057
1.44059 3.99116 2.64824 0.417817 -0.0154383 0.9084
1.46226 3.96807 0.508797 0.847775 -0.0394398 -0.528887
1.2051 1.9542 0.183232 0.796752 -0.00197188 -0.604303
1.12017 4.31695 -0.576503 0.860277 0.0911494 -0.501613
1.10781 4.03864 -0.55365 0.859823 -0.0797347 -0.504329
1.17616 4.21496 0.130199 0.727589 0.0278639 -0.685447
1.92121 1.82173 2.34011 0.681893 -0.000742577 0.731452
1.7914 1.43713 1.07421 0.855615 -0.0919229 -0.509386
1.23929 1.93824 -0.373878 0.926113 -0.0374166 -0.375387
1.2404 3.39955 -0.358923 0.962983 0.0507197 -0.264747
1.04287 3.7112 -0.764496 0.913908 -0.0470137 -0.40319
1.26682 4.60557 -0.200924 0.956056 0.0422687 -0.290121
2.24339 4.26295 2.04609 0.719996 0.00580717 0.693954
1.97122 4.64044 1.20313 0.840505 0.00276902 -0.541796
2.10995 4.00277 2.16567 0.715726 0.0283279 0.697807
1.15872 4.79635 0.125288 0.8091 0.115614 -0.576186
1.25088 2.57889 -0.363616 0.989826 -0.00623383 -0.142147
0.981011 3.49045 -0.921828 0.963935 0.107364 -0.24352
1.26212 4.81887 -0.105306 0.910403 0.409281 0.0604502
2.23329 4.35655 1.64584 0.919126 0.0269425 -0.39304
1.35377 1.51287 0.382224 0.77648 -0.0444626 -0.628571
1.38569 2.30778 0.398457 0.82414 -0.109199 -0.55576
1.73515 2.68312 2.47362 0.562868 0.00322889 0.826541
1.31209 1.53479 -0.301593 0.881884 0.292477 -0.369782
2.23898 4.61404 1.65093 0.924775 0.0947396 -0.368531
1.45027 1.93437 2.65888 0.458898 0.00132617 0.888488
2.2668 1.429 1.85048 0.912214 -0.407264 0.0447342
0.968829 2.15206 -1.10063 0.948238 0.29455 -0.118678
1.03445 3.66158 2.7879 0.354712 -0.0873728 0.930884
1.11349 4.51079 0.0795839 0.705405 -0.0089029 -0.708748
1.46103 3.50528 2.63416 0.436801 0.0260309 0.899181
1.22427 2.86161 -0.491863 0.94896 0.115274 -0.293574
1.68933 3.76121 2.50562 0.537832 -0.0124723 0.84296
2.23451 4.47974 1.64621 0.931111 0.0548442 -0.360589
1.08844 4.60292 0.0593831 0.706649 -0.00820295 -0.707516
1.07742 2.33841 2.8023 0.577004 0.057155 0.814739
1.99981 1.76883 2.26035 0.727058 0.0173388 0.686357
1.21126 3.29936 -0.482198 0.929073 0.0471122 -0.366883
1.14759 4.33935 -0.523766 0.86266 0.0392726 -0.504258
1.24046 1.76061 -0.344236 0.922191 0.016382 -0.386388
1.19489 1.3029 0.211365 0.801105 0.124012 -0.585536
1.28788 1.27821 0.338771 0.817902 0.0310441 -0.57452
0.921888 4.47039 -0.949251 0.95587 0.106023 -0.273993
1.41066 2.31588 2.66964 0.41955 0.00375586 0.907725
1.63876 2.49661 2.54382 0.528251 0.0441799 0.847938
1.22805 4.02803 -0.381596 0.87783 0.0464714 -0.476712
1.17516 1.88647 0.142337 0.778753 -0.00175989 -0.627328
1.59379 3.80861 2.56577 0.480374 -0.0485619 0.875718
1.14188 1.27306 0.126052 0.850393 0.211943 -0.481572
1.30853 1.61471 2.72464 0.410645 -0.0567529 0.910028
1.32238 2.34784 2.71102 0.399806 -0.0236415 0.916295
1.2241 3.19641 -0.443145 0.954975 -0.0439671 -0.29341
1.29479 3.57769 -0.174398 0.916783 0.0668625 -0.393748
1.34846 1.72569 -0.150147 0.848873 0.126443 -0.513251
2.09035 1.45475 2.13605 0.748199 -0.117708 0.652949
2.11709 1.80609 2.13441 0.72323 -0.0254627 0.690137
2.3146 2.9182 1.91162 0.770224 0.00321395 0.637766
1.93405 3.53607 1.14325 0.833232 -0.0416585 -0.551352
1.00911 2.98582 -0.869688 0.92947 -0.0134921 -0.368651
1.41538 3.28649 0.438797 0.798939 0.0290024 -0.600712
1.12958 4.44675 0.092301 0.70294 -0.0123042 -0.711142
1.27469 2.49288 -0.192093 0.974837 -0.084064 -0.20646
1.58244 3.72054 2.56422 0.471805 -0.0375468 0.880903
0.99725 2.92967 -0.910298 0.938238 -0.0138854 -0.345713
1.26416 4.23656 -0.239744 0.956528 0.0483431 -0.287607
2.01111 2.29497 2.26733 0.663754 -0.0271929 0.747456
1.47973 3.83607 0.550762 0.865673 -0.00770023 -0.50055
1.66275 3.67276 2.51584 0.518698 -0.0187939 0.854751
0.920661 2.46667 2.99189 0.690896 0.0287832 0.722381
1.24638 4.12431 -0.323218 0.926084 0.0871292 -0.367121
1.87852 2.6152 1.10485 0.837231 -0.00609259 -0.546816
1.43543 3.73715 0.463521 0.878621 0.0124407 -0.477358
1.19662 3.92451 -0.438406 0.845693 0.0216766 -0.53323
0.932857 2.26602 -1.23408 0.973266 0.215231 -0.0801791
1.97452 3.54701 2.31009 0.617332 -0.00146082 0.786701
1.31155 1.47005 -0.385723 0.879193 0.303746 -0.367093
1.12442 1.88269 -0.866921 0.961898 0.0939931 -0.256744
0.877521 3.01467 2.90883 0.624623 0.132988 0.769519
1.02832 1.65635 -1.42265 0.974278 0.154629 -0.163925
0.983076 3.23468 -1.08847 0.942093 -0.0335056 -0.333673
1.24994 2.07032 0.242038 0.802105 -0.0826922 -0.591431
1.27548 1.36235 -0.496357 0.883706 0.1174 -0.45308
1.17962 2.63614 0.152076 0.743807 0.0661366 -0.665114
1.18297 1.82133 0.151512 0.778849 -0.0333051 -0.626327
0.92688 2.7526 -1.2997 0.999113 0.00706461 -0.0415042
2.27201 3.68689 1.67428 0.968866 -0.0432893 -0.243772
1.04599 3.89988 -0.785694 0.955823 0.0824387 -0.282146
1.29801 2.95833 -0.179471 0.911479 0.0218295 -0.410767
1.3303 3.63061 -0.100909 0.936273 0.125286 -0.328172
1.09558 3.8792 0.0611728 0.623327 0.0397022 -0.780953
1.29328 4.20914 -0.139359 0.961511 0.0411603 -0.271666
1.59421 1.25944 0.789759 0.833913 -0.0141498 -0.551714
1.94196 2.0495 2.33268 0.662557 -0.00495235 0.748995
1.27238 2.49782 0.227668 0.736502 0.0726097 -0.672527
1.31297 3.41843 0.317521 0.802237 -0.0292224 -0.59629
1.11697 4.6936 0.0792705 0.750643 0.023051 -0.660305
1.08859 4.46201 2.80646 0.608413 0.0284756 0.793109
2.0961 1.89423 2.16003 0.715893 -0.0316429 0.697493
1.31321 1.84297 -0.166549 0.883575 0.107221 -0.45585
1.08496 1.39696 -1.35304 0.977605 0.168329 -0.12631
1.13313 2.86653 2.71854 0.354177 0.197284 0.914132
1.0314 3.48017 -0.788468 0.903951 0.0123183 -0.427458
1.44285 4.35726 2.59526 0.423541 0.22005 0.878744
1.82772 3.89418 2.39232 0.584258 0.00662994 0.811541
1.25738 2.69338 2.74621 0.327568 0.137669 0.934744
1.22767 1.82315 0.218789 0.821068 -0.031419 -0.569965
1.12652 1.64539 -0.839738 0.990804 0.0734517 -0.113631
1.56903 2.71624 0.648489 0.823867 -0.0253287 -0.566218
1.307 2.8391 -0.159947 0.926925 -0.0344228 -0.373665
1.23186 4.16992 0.193507 0.744598 0.0259191 -0.66701
1.51646 2.27346 0.608184 0.801729 -0.0369517 -0.596545
1.41803 1.61338 0.460773 0.809581 -0.0164085 -0.586779
0.973308 4.1242 -0.874754 0.923665 0.0877742 -0.373013
1.27025 4.06495 -0.283232 0.949207 0.071537 -0.306411
2.26165 2.41669 1.99135 0.792968 -0.0107115 0.609169
1.45333 3.26152 0.488781 0.804809 0.0304478 -0.592752
2.05162 1.62852 2.19605 0.757102 -0.0325069 0.652487
1.43506 3.78805 0.465943 0.872935 0.0163271 -0.487564
1.36874 1.44734 -0.190605 0.97743 0.0456404 -0.206273
2.05155 1.36997 2.13605 0.765669 -0.156595 0.623882
1.278 1.55547 -0.352808 0.863578 0.339586 -0.372713
1.20668 1.73077 0.194325 0.799199 -0.0533644 -0.598692
2.32287 2.74344 1.92162 0.770864 0.0225144 0.636602
0.981655 3.1177 2.76545 0.48992 -0.00881426 0.871723
1.31022 4.36703 0.30404 0.78529 0.0179802 -0.618867
1.11211 1.39632 -1.15235 0.970277 0.18742 -0.153087
1.30657 2.19444 2.71243 0.380094 -0.00952952 0.924899
1.26707 2.39544 -0.198365 0.9863 -0.0114431 -0.164562
1.20046 3.10925 0.15309 0.690166 -0.0242636 -0.723244
1.24676 2.51357 -0.386329 0.988845 -0.0341158 -0.144985
0.958579 3.13533 -1.12997 0.925972 -0.105887 -0.362442
1.23603 3.2055 0.18224 0.787829 0.0307188 -0.615128
1.5087 4.03618 0.575491 0.82714 -0.0447083 -0.560215
0.996821 4.54252 -0.692283 0.906665 -0.0158364 -0.421554
2.04739 2.01485 2.22084 0.712692 -0.029793 0.700844
1.00658 4.11901 -0.796758 0.912789 0.0417822 -0.406288
1.98441 2.84235 2.25462 0.721628 0.0174735 0.692061
2.2024 2.79763 1.61296 0.895785 -0.00747673 -0.444424
1.35571 1.14744 0.427094 0.827959 0.0542438 -0.558159
1.27937 3.34711 0.269494 0.819716 0.0437254 -0.571099
0.978445 2.04991 -1.33969 0.957963 0.248314 -0.143694
1.29015 2.55208 -0.16365 0.950613 -0.0925459 -0.29626
2.23324 4.22586 1.64557 0.906591 0.026458 -0.421179
0.996695 3.31806 -1.01209 0.973499 0.0512571 -0.222874
1.14504 1.39666 -0.990662 0.960353 0.164216 -0.22529
1.25972 4.56404 0.226916 0.798231 -0.00410133 -0.602338
1.06299 4.59397 2.86468 0.611182 0.0392111 0.790518
1.14258 4.58077 -0.53672 0.820154 0.051029 -0.569863
2.29249 2.33103 1.95038 0.780339 0.0114448 0.625252
0.944515 3.74493 -1.02265 0.955966 -0.0399983 -0.290739
1.14738 4.22293 -0.516351 0.903875 -0.0193724 -0.427358
0.946488 4.55394 -0.854471 0.948193 0.0266094 -0.316578
1.0093 3.01129 2.75581 0.469051 0.0786976 0.879658
1.5 1.90579 0.577855 0.792802 -0.0181682 -0.609209
1.1238 1.9384 -0.83355 0.953467 0.109983 -0.280721
1.16683 2.02968 -0.687644 0.982485 -0.12787 -0.135546
1.02103 3.21064 -0.871498 0.961305 0.0168968 -0.274969
1.24043 2.68762 -0.456549 0.991701 0.0152573 -0.127661
2.22232 3.48389 1.62993 0.903251 -0.0611965 -0.424726
1.99692 1.51954 2.26843 0.760426 -0.10421 0.641009
1.16573 1.45129 -0.880107 0.970422 0.150622 -0.188665
1.15076 4.53355 -0.523735 0.80246 -0.010311 -0.596617
2.05237 4.02148 2.22866 0.700219 0.0168467 0.713729
2.07112 2.66986 1.38462 0.847961 -0.00616103 -0.530022
1.23754 3.54003 -0.367194 0.959639 -0.00522211 -0.281185
2.07816 2.33295 2.20782 0.703439 -0.0387101 0.7097
1.27345 4.35193 -0.19729 0.957285 0.0225675 -0.288264
1.10081 1.4907 0.092694 0.769464 -0.023237 -0.638267
2.17566 2.06756 1.59688 0.873234 -0.0397496 -0.485678
1.69889 1.97423 2.51234 0.558036 -0.00923649 0.829766
1.69015 1.74554 2.50797 0.539366 0.0133443 0.841966
1.16089 3.4866 -0.556791 0.886891 0.0519359 -0.459049
1.04217 3.16311 -0.818105 0.919399 0.0493304 -0.39022
1.0825 3.68976 0.0486468 0.649047 0.0236724 -0.76038
1.94191 4.58057 1.1528 0.837466 0.000976416 -0.546489
1.2693 2.29251 0.239807 0.827083 -0.0838979 -0.555783
0.931085 2.26296 -1.15785 0.96903 0.218757 -0.114573
1.17317 1.52483 -0.680029 0.956642 0.229095 -0.179868
0.94066 3.62263 -1.02037 0.969228 0.0684737 -0.236449
1.98989 4.5402 2.20253 0.647012 0.00289338 0.762474
1.40022 1.69239 -0.0774031 0.867917 0.102642 -0.485988
1.27367 4.18742 -0.219304 0.958336 0.0575677 -0.279784
0.940169 2.98731 -1.10151 0.94331 -0.0632363 -0.325833
1.2252 4.11492 -0.370522 0.898251 0.075571 -0.432936
1.94326 1.71652 2.32407 0.70008 0.0468395 0.712526
1.43034 3.97934 0.446194 0.83603 -0.0296777 -0.547881
1.43752 1.52586 0.493487 0.837601 -0.0535586 -0.54365
1.26799 4.38478 0.248292 0.788127 0.00468179 -0.615495
1.00256 1.59254 2.83609 0.3064 -0.118468 0.944502
1.93584 2.25591 2.33058 0.635809 -0.0160933 0.771679
0.946619 4.46991 -0.87185 0.949741 0.101142 -0.296247
0.906623 3.68938 -1.16712 0.969828 0.0246602 -0.242541
1.31524 1.15142 -0.167417 0.949428 -0.260355 -0.175503
1.30243 2.78244 -0.15966 0.916736 -0.0400642 -0.397481
1.20447 2.03887 -0.456084 0.949558 -0.068466 -0.306027
1.07409 1.65751 -1.1225 0.979708 0.0940295 -0.177007
1.40592 1.83641 2.68225 0.440071 0.0178487 0.897786
2.3249 3.68931 1.92299 0.977871 0.0688389 0.19756
1.09821 3.73704 -0.61398 0.91212 0.0510108 -0.406737
1.29266 2.72512 -0.173128 0.926971 -0.031641 -0.373797
2.23835 3.08553 2.04639 0.775287 -0.0901859 0.625138
1.37992 2.44106 0.3524 0.817332 -0.0896777 -0.569146
2.07371 4.21777 1.37944 0.856422 0.0089812 -0.516198
1.49834 2.89011 0.543229 0.852877 0.0226749 -0.52162
1.35222 2.56226 0.311756 0.758467 0.0264567 -0.651174
2.07626 3.92017 1.37359 0.855526 0.00865176 -0.517688
1.88633 4.47954 2.30789 0.627447 0.0220165 0.778348
1.20843 2.12409 -0.469166 0.966837 -0.0760476 -0.243808
2.05344 4.65451 1.34513 0.859268 -0.00969801 -0.511433
1.71017 4.64387 0.827712 0.805617 0.00249565 -0.592432
1.26814 3.65303 2.69235 0.379797 -0.0355095 0.924388
1.71921 2.08432 0.874507 0.873246 -0.0550785 -0.484157
0.958948 4.50854 -0.827957 0.950196 0.0653987 -0.304714
1.07907 4.08393 0.0639369 0.634346 -0.0273943 -0.772564
1.74153 2.87406 0.877126 0.84884 -0.0229173 -0.528153
1.33805 2.08495 -0.113609 0.915322 0.0126659 -0.402523
1.2665 3.43795 0.25212 0.818007 -0.0466576 -0.573312
1.26939 3.58967 -0.235608 0.957223 0.048919 -0.285187
2.20861 2.65131 1.62857 0.900427 -0.00589973 -0.434967
1.23095 2.98035 -0.403796 0.971692 0.0738324 -0.22442
2.28576 3.95375 1.97702 0.766221 0.00824535 0.642525
1.65996 2.64258 2.52482 0.544056 0.00429473 0.839038
1.29757 4.45424 -0.0970656 0.963635 0.0412397 -0.264022
2.05238 1.80526 2.20366 0.732873 -0.0167761 0.680159
1.14085 1.79327 0.105757 0.76361 -0.0399016 -0.644444
1.25534 2.403 2.7482 0.368817 -0.0208478 0.929268
2.30964 2.38993 1.90678 0.932034 -0.0645912 0.356569
1.24901 1.30789 -0.540626 0.910872 -0.0360712 -0.41111
1.99743 1.85955 2.26465 0.715332 -0.0290222 0.698181
1.26294 4.4417 -0.228334 0.960655 0.0256066 -0.276562
1.24544 2.22583 -0.34691 0.967855 0.0266886 -0.25009
1.70974 4.10086 0.820332 0.806048 -0.0117241 -0.591733
2.06786 4.35165 1.37355 0.858012 -0.00256654 -0.513623
1.16299 2.68664 0.136031 0.758537 0.0378894 -0.650528
1.76356 4.01993 0.903956 0.812387 -0.0213134 -0.582729
1.82357 2.67387 2.41622 0.600499 0.0168134 0.799448
1.0598 4.16503 -0.705985 0.887057 -0.0628329 -0.457365
1.26434 4.53071 2.62791 0.498068 0.125546 0.858001
1.2782 4.52837 -0.163611 0.965934 0.028032 -0.257268
0.957324 3.54219 -1.0095 0.965182 0.127296 -0.228517
1.16246 1.94738 0.131045 0.768074 -0.0231223 -0.639944
1.4526 3.81805 0.499492 0.859006 -0.000378408 -0.511966
1.7788 4.18443 2.44633 0.540878 0.0653836 0.838556
1.22917 3.0578 -0.386846 0.971495 0.0199962 -0.236216
1.41454 2.69977 0.395652 0.829393 -0.00312794 -0.558657
1.33742 1.44904 -0.328261 0.934113 0.209094 -0.28933
0.941512 4.41224 -0.913201 0.94933 0.109799 -0.294478
1.3834 2.98251 -0.0108043 0.996846 -0.02531 0.0752192
1.3129 4.19344 2.69915 0.417615 0.112985 0.901572
1.12214 1.73415 2.80073 0.354748 -0.00388302 0.934954
1.25482 1.65627 0.269214 0.799364 -0.0452737 -0.59914
1.14139 1.65345 -0.680895 0.982085 0.088541 -0.166342
1.53145 1.69921 2.61665 0.518933 0.0037467 0.854807
1.29658 2.8919 -0.185816 0.924748 0.0182801 -0.38014
1.94569 4.66616 2.2751 0.622115 -0.0318737 0.782277
1.00489 3.2446 -0.953179 0.979394 0.0254029 -0.200354
1.28275 2.29601 -0.155343 0.965428 0.122673 -0.230002
1.46144 3.28853 2.61746 0.401974 -0.040407 0.914759
1.27014 4.65194 -0.183929 0.958114 0.057173 -0.280624
1.26944 2.53508 2.75163 0.351624 0.0297626 0.935668
1.12012 4.23913 0.0846057 0.69165 0.0044411 -0.722219
1.1589 4.34783 0.118662 0.735955 -0.000617565 -0.677031
1.25208 3.74781 -0.293034 0.983164 -0.0129654 -0.182267
1.04699 1.57354 -1.4162 0.979282 0.149169 -0.136948
1.90203 3.98891 2.35527 0.58588 -0.0263448 0.80997
1.56405 3.2931 2.56255 0.472276 0.015272 0.881319
1.00509 4.35061 -0.760177 0.904518 0.195578 -0.378941
1.26056 3.74315 0.203511 0.886635 -0.00769181 -0.462406
0.982632 3.44694 -1.00873 0.965625 0.146694 -0.214592
1.18873 2.95855 0.159234 0.680248 -0.0450204 -0.731598
1.26212 2.59998 -0.286294 0.983836 -0.00263759 -0.179052
0.887781 4.59811 -1.03567 0.968357 0.0538024 -0.2437
1.42692 4.05036 0.435693 0.835417 -0.0188213 -0.549294
1.3277 1.07035 0.35692 0.858409 0.158788 -0.487772
0.930816 4.51931 -0.900582 0.951441 0.0606182 -0.301803
1.31336 1.37908 -0.430029 0.900746 0.156309 -0.405245
1.27424 2.18922 -0.258381 0.955033 0.0783162 -0.285969
1.08384 2.9386 -0.748644 0.85901 0.0360402 -0.510688
1.15643 3.38729 0.0952498 0.791821 -0.00403842 -0.61074
1.34231 1.78814 -0.142241 0.856317 0.124194 -0.501296
1.24699 4.32773 -0.286943 0.955262 0.0126108 -0.295492
1.20617 1.8483 0.184635 0.816534 -0.025073 -0.576752
1.26923 2.63301 -0.244651 0.977123 -0.00356994 -0.212646
1.21404 4.54779 -0.384459 0.948227 0.0694253 -0.309913
1.18748 2.067 -0.555276 0.982231 -0.132022 -0.133387
1.00643 3.4584 -0.846812 0.948789 0.0620422 -0.309757
1.40846 4.45496 2.57375 0.424732 0.188027 0.885578
1.84173 3.77596 2.39846 0.562898 0.0329197 0.82587
1.48912 2.62329 0.521662 0.861015 -0.0262918 -0.507899
1.13229 1.32181 0.125364 0.807609 0.108343 -0.579681
1.12522 3.09769 0.0890945 0.663973 -0.05387 -0.745814
0.887815 2.95478 -1.31041 0.990889 0.0905775 -0.099671
1.31256 3.70529 -0.0214507 0.948297 0.290824 0.127101
0.990984 4.76786 -0.644596 0.791892 0.349974 -0.500425
1.1833 1.36142 -0.806034 0.980124 0.133573 -0.14668
1.42478 3.58396 0.434132 0.812656 -0.011072 -0.582639
1.16997 1.19695 0.13112 0.839048 0.278184 -0.467559
1.88457 3.04815 2.37597 0.666125 -0.0276468 0.745328
1.27395 4.7558 -0.0855457 0.978091 0.189469 0.0862518
1.27189 3.19892 -0.246442 0.962482 -0.0388173 -0.268553
1.5298 2.61547 0.596415 0.848129 -0.0322955 -0.528804
0.95433 3.20641 -1.15672 0.914918 -0.0264337 -0.402774
1.17504 1.3847 -0.870207 0.975642 0.126748 -0.179045
1.72957 4.31111 0.860211 0.813614 0.00148508 -0.581404
1.08781 3.44164 -0.683807 0.864009 -0.00808349 -0.503411
1.27185 3.53392 -0.23684 0.951916 0.0201843 -0.305693
1.36524 1.53743 -0.158671 0.959052 0.0902363 -0.268472
1.99176 2.11461 1.32519 0.828058 -0.0512065 -0.558299
1.66575 2.34156 2.54199 0.549867 0.0242194 0.834901
2.16488 3.11418 2.12861 0.699406 -0.107315 0.706622
1.30921 3.46641 -0.144066 0.923774 -0.0406964 -0.38077
1.5903 3.37342 0.67126 0.799621 0.0185891 -0.600217
1.1235 2.96077 0.0972486 0.656192 -0.0273568 -0.754098
1.03212 4.2169 -0.752227 0.87051 0.0157144 -0.4919
1.86938 1.76461 2.39047 0.629904 0.0379249 0.775747
1.25527 2.53611 -0.336081 0.98826 -0.0251842 -0.150692
1.00043 2.04937 -1.216 0.957619 0.248265 -0.146052
1.02176 3.632 -0.800148 0.901605 -0.0112147 -0.432416
1.65785 3.4765 2.51286 0.488603 -0.00762812 0.872473
1.36466 1.85685 -0.08647 0.857758 0.120246 -0.499792
1.29255 3.35688 -0.178074 0.951012 0.0215386 -0.308404
0.933973 4.26866 -0.979073 0.961618 0.0270295 -0.273057
0.884585 3.2277 -1.28136 0.946617 -0.00543321 -0.322315
2.10162 2.66825 2.16096 0.677631 0.104895 0.727883
1.81693 1.57 1.09608 0.859877 -0.0615885 -0.506773
1.21734 1.7787 -0.402722 0.928973 -0.00577318 -0.370103
1.42642 4.13853 0.436267 0.830694 -0.009807 -0.556642
2.29246 2.67464 1.98166 0.762395 0.0221272 0.646733
1.28283 3.96162 -0.245474 0.968897 -0.0677803 -0.238
1.7739 4.70481 2.43047 0.532881 -0.0303348 0.845646
1.94135 4.16085 2.33979 0.636256 0.050146 0.769847
1.92554 4.2375 1.14333 0.835734 0.00189195 -0.549131
1.74376 1.37926 0.997039 0.852237 -0.102581 -0.513
0.898156 2.49225 -1.15418 0.999841 0.00624082 -0.0167146
0.953892 4.77458 -0.698689 0.848171 0.346594 -0.400598
0.994325 3.40086 -0.923998 0.973218 0.100925 -0.206546
1.24593 2.33114 -0.649034 0.984757 -0.134699 0.110047
0.916558 4.33648 -1.05511 0.974728 0.0601562 -0.215142
1.27807 4.78779 0.297349 0.777212 0.137587 -0.614013
1.23516 3.01599 -0.362323 0.972327 0.0501663 -0.228173
1.49296 1.32732 0.631444 0.844151 -0.0527247 -0.533506
1.20223 4.62872 -0.38919 0.920333 0.201512 -0.335231
2.24458 2.55378 2.03413 0.781179 -0.0108483 0.624213
1.23827 3.43765 0.20843 0.823575 -0.0536376 -0.564666
1.16393 4.51112 0.118361 0.725998 -0.010041 -0.687624
1.26686 2.83505 -0.269508 0.968413 0.00746753 -0.249242
0.932808 4.12333 -0.994627 0.948551 0.0867577 -0.304507
2.00117 3.21833 1.29119 0.846592 -0.0490215 -0.52998
1.21261 3.52466 0.152535 0.784462 -0.088956 -0.613764
1.10209 1.72007 -0.988281 0.971485 0.0603798 -0.229286
1.25346 4.43194 0.228193 0.789672 -0.0119521 -0.613413
1.2811 4.21999 0.2573 0.776968 0.0234702 -0.629103
1.65493 2.24305 2.54831 0.566951 -0.00152054 0.82375
2.05117 2.52409 2.23972 0.669609 0.0472762 0.741208
1.22569 2.3814 -0.56769 0.990438 -0.097988 0.0971129
1.03018 3.41405 -0.789484 0.922009 0.0427622 -0.3848
1.94199 4.03329 1.15273 0.84005 0.0185397 -0.542192
2.21526 3.73281 2.07349 0.763778 0.0320584 0.644683
1.13418 1.62682 -0.739594 0.985815 0.11634 -0.12097
1.23313 2.8075 -0.479566 0.965183 0.0663619 -0.253016
2.24343 3.34436 2.05101 0.800624 0.0090873 0.599099
1.26522 4.3882 2.68837 0.511938 0.183807 0.839127
0.973101 3.01432 -1.02384 0.953091 -0.0745046 -0.293371
1.11772 3.43167 -0.63599 0.860755 0.020999 -0.508586
1.24585 4.06177 -0.339072 0.917197 0.0632748 -0.393378
1.10322 1.97998 0.0725658 0.774158 -0.0646147 -0.629686
1.07846 1.76878 -1.06099 0.973613 0.0716101 -0.216678
1.26379 3.77523 0.209445 0.862154 0.0168009 -0.506367
1.69375 3.37773 2.49293 0.49042 0.00824234 0.871447
0.972578 3.75476 -0.93481 0.936811 -0.0904739 -0.337933
0.902806 2.45515 -1.247 0.996591 0.0499756 0.0656374
2.14611 2.38397 2.14426 0.732395 -0.0305338 0.680195
1.30065 3.71017 -0.120844 0.951852 0.102856 -0.288789
2.30549 4.6197 1.88769 0.990847 -0.0610388 0.1204
1.14533 3.79589 2.78102 0.362259 -0.0663967 0.929709
1.26665 4.55712 -0.206014 0.960942 0.0288952 -0.275237
1.58732 4.22101 2.55597 0.490662 0.144611 0.859266
1.07726 4.03858 -0.605566 0.908949 -0.0728261 -0.410496
1.24058 4.78527 -0.203161 0.905257 0.21808 -0.364624
1.94385 2.54124 2.32974 0.632163 0.0416467 0.773716
1.23514 2.25182 -0.38249 0.974026 0.00352219 -0.226408
1.36471 1.26868 0.442375 0.812325 -0.0316527 -0.582345
1.37333 1.3946 -0.126753 0.987389 -0.046625 -0.151291
1.16408 2.35869 2.77226 0.381869 0.00261046 0.924213
0.987364 3.55492 -0.879349 0.942866 0.0740272 -0.324845
2.14924 3.20656 2.16154 0.686736 -0.08382 0.722058
1.42215 1.33124 0.511661 0.828331 -0.0820331 -0.554201
1.13899 3.11861 -0.657442 0.88547 0.0478999 -0.462221
1.20243 1.83676 2.76931 0.388543 0.0267501 0.921042
1.0102 3.39629 -0.849635 0.950373 0.0555945 -0.306105
1.90813 3.60137 2.3622 0.586006 0.0119483 0.810219
1.28124 2.6693 -0.199059 0.953819 -0.0279446 -0.29908
1.40552 4.64789 2.56261 0.40349 0.0246524 0.914652
2.32429 3.10044 1.9167 0.824714 -0.0468273 0.563608
1.2412 3.31876 0.205058 0.814221 0.0535496 -0.57808
0.906436 4.15144 -1.07432 0.969285 0.0231094 -0.244852
1.33864 2.81127 -0.105467 0.910106 -0.0319348 -0.413144
1.35968 1.23846 -0.114858 0.955029 -0.196407 -0.222134
1.24277 3.75439 -0.351592 0.975284 0.0048165 -0.220903
1.10203 1.62211 -0.993064 0.966414 0.117578 -0.228516
1.25174 1.13617 0.2453 0.853339 0.244988 -0.46021
1.10436 4.44926 -0.561911 0.724176 0.0261018 -0.689121
0.87588 3.27445 -1.39291 0.948131 0.0498189 -0.313952
1.13595 1.67713 0.114107 0.769715 -0.0791278 -0.633465
1.35852 1.0979 0.415209 0.83799 0.135648 -0.528557
1.17651 1.55662 -0.623542 0.940012 0.234476 -0.247786
2.32957 4.21573 1.94503 0.746331 -0.00894337 0.665515
1.37366 4.54528 2.57036 0.425439 0.0724021 0.902086
1.11649 4.38226 -0.564748 0.786325 0.0938167 -0.610649
2.21533 2.57576 1.63275 0.904809 -0.0128956 -0.425621
2.24177 4.4981 2.01519 0.6807 0.0736319 0.728852
1.205 4.15185 0.158103 0.735905 0.0305679 -0.676394
1.16273 3.8133 -0.494778 0.840093 0.0819365 -0.536218
1.2347 2.50758 -0.451639 0.990258 -0.058754 -0.126241
1.11857 4.3875 0.0847609 0.715981 -0.00779859 -0.698077
0.919733 4.70763 -0.928633 0.950691 0.140216 -0.276634
1.04206 4.6575 -0.641448 0.797567 0.093177 -0.595991
1.25094 2.31539 -0.303702 0.979335 0.0247094 -0.200729
1.67443 1.5939 2.52874 0.51272 -0.0390405 0.857668
1.12898 3.25531 -0.637324 0.859119 0.111711 -0.499434
1.24072 3.1023 -0.341663 0.971501 -0.0382886 -0.233923
0.916378 2.83088 -1.37696 0.994149 0.0750724 -0.0776701
1.18237 2.26794 2.76605 0.403237 0.00749819 0.915065
1.28148 3.45208 -0.206005 0.934079 0.0138516 -0.356798
1.03899 1.68703 2.82844 0.354567 -0.0677467 0.932573
1.5487 3.13397 0.620433 0.798793 0.012609 -0.601473
1.11036 3.55384 -0.642395 0.87968 0.0833268 -0.468208
1.49999 3.38769 2.60486 0.451325 -0.0264837 0.891966
1.68349 2.00103 0.823248 0.840857 -0.034214 -0.540175
1.73416 3.39508 0.875443 0.827624 0.0301012 -0.560475
1.90165 1.65261 2.3742 0.657364 0.0307031 0.752948
1.34559 1.26005 -0.156694 0.949708 -0.22665 -0.216066
1.22285 4.36467 -0.365976 0.941421 -0.0219442 -0.33652
2.24513 3.1691 2.05114 0.792481 -0.0632628 0.606607
1.02868 2.01659 -1.11984 0.944593 0.271535 -0.184424
1.08797 1.44469 -1.27864 0.978208 0.163576 -0.127878
0.92473 3.06178 -1.15382 0.94339 -0.0762865 -0.322795
1.09722 1.93132 2.80161 0.533457 -0.00987104 0.84577
1.15932 1.51441 -0.869404 0.96331 0.198774 -0.180342
1.63664 1.38309 2.49456 0.487967 -0.245629 0.837589
1.42226 2.60602 0.407523 0.838648 -0.0144406 -0.544482
1.03978 3.80313 2.80776 0.346623 -0.0522884 0.936546
1.17843 4.57399 -0.476604 0.88276 0.0877308 -0.461561
1.51843 2.06719 2.63193 0.474468 -0.00340959 0.880266
2.31998 1.95731 1.94559 0.730968 -0.0237353 0.681999
1.27911 2.00146 -0.2407 0.96164 -0.0163486 -0.273826
1.02075 3.57063 -0.803292 0.902281 0.0270493 -0.430299
1.28996 3.24148 -0.193935 0.951704 0.00910648 -0.306883
1.46317 3.18345 0.501525 0.817231 0.0353706 -0.575224
1.24263 4.06577 0.200613 0.762786 0.0264754 -0.646109
0.959002 4.29098 -0.891501 0.937801 0.074331 -0.339124
1.59798 2.96219 2.57169 0.484725 0.0148695 0.87454
2.12924 2.85811 2.11206 0.675292 0.015505 0.737388
1.70725 3.79125 0.843356 0.790337 -0.0192705 -0.61237
1.03102 3.39884 2.77423 0.341002 -0.050415 0.93871
1.30776 4.19339 -0.0809992 0.971615 0.0161975 -0.236011
1.73025 2.18611 0.881424 0.860005 -0.0532079 -0.507503
1.23255 2.30001 0.171798 0.864332 -0.0849486 -0.495695
1.20705 4.22781 -0.394608 0.906263 0.00100631 -0.422713
1.41246 1.99733 0.459711 0.792887 -0.0130008 -0.609229
1.77703 3.03601 0.92928 0.861416 -0.0125968 -0.507744
0.881777 1.40968 2.81352 0.30458 -0.153613 0.940018
0.921666 2.95843 -1.15143 0.957257 -0.0208416 -0.288487
1.05984 2.94651 2.73093 0.465946 0.147017 0.872514
0.881613 3.14809 -1.38282 0.975612 0.0252117 -0.21805
1.18328 4.35774 -0.461774 0.895077 -0.0358401 -0.444469
1.22984 3.67638 -0.403229 0.946516 0.0174542 -0.322184
2.18765 2.09425 2.07994 0.71996 -0.0335327 0.693205
1.28871 1.06726 0.271286 0.848314 0.35249 -0.395112
1.11338 1.79772 -0.919028 0.974913 0.0395495 -0.219045
2.22597 1.4716 1.97566 0.766551 -0.190887 0.613157
1.73492 1.88331 0.925935 0.881244 -0.0306332 -0.471668
1.38439 2.56652 2.68206 0.450553 0.014826 0.892627
1.31345 4.4591 2.61839 0.472622 0.212374 0.855293
1.43597 1.66802 0.488476 0.821737 -0.00666935 -0.569828
1.98793 1.85961 1.32573 0.826893 -0.0369286 -0.561145
1.1784 2.03131 -0.611176 0.98213 -0.137818 -0.128164
1.29418 1.10839 -0.169474 0.957295 -0.289095 -0.00318679
1.18589 4.58655 2.70234 0.608108 0.0613403 0.791481
1.25885 2.96257 -0.279491 0.963968 0.0566694 -0.259913
1.14863 1.56438 -0.788442 0.967603 0.222439 -0.119439
1.11702 1.45365 0.114074 0.78573 -0.000666771 -0.618569
1.97738 3.06571 1.2644 0.836721 -0.0174106 -0.547352
1.16804 4.76666 0.144464 0.8091 0.115614 -0.576186
1.29918 3.91357 -0.116781 0.984187 -0.0643017 -0.165052
1.25753 2.18699 -0.31524 0.958495 0.0561687 -0.279522
1.59158 2.01575 2.58371 0.524577 -0.0108032 0.851294
2.06121 3.11999 2.21334 0.665817 -0.110545 0.73788
1.15971 1.33989 -0.94677 0.964306 0.151866 -0.216912
1.21016 4.82553 0.226017 0.809315 0.173998 -0.561011
1.82095 2.30217 2.41769 0.605811 -0.0110058 0.795532
2.24554 1.99973 2.021 0.724215 -0.0316663 0.688847
1.32936 1.14565 -0.12021 0.957295 -0.289095 -0.00318679
1.26171 4.60607 0.230379 0.79549 0.0417081 -0.604529
1.27111 2.88604 -0.252458 0.962863 0.0350574 -0.267704
1.37119 3.48533 2.67152 0.370173 0.0184946 0.928779
2.20443 2.49206 1.62922 0.906924 -0.0259554 -0.420494
2.32051 3.1986 1.91902 0.837171 -0.042234 0.545308
1.25253 4.55175 -0.252539 0.957637 0.0337886 -0.285988
1.10014 4.23551 2.78882 0.439848 -0.0402066 0.897172
1.27061 3.92123 0.229766 0.7899 0.0524557 -0.610988
1.17322 2.46065 2.773 0.338238 -0.00170463 0.941059
1.55602 4.44418 0.621338 0.801372 0.00104488 -0.598165
1.20221 2.56839 0.167664 0.74637 0.0923514 -0.659093
1.09657 4.25192 -0.63971 0.887133 0.0567761 -0.458008
1.35279 1.56952 -0.184268 0.927032 0.148277 -0.344419
0.912787 3.01015 -1.17106 0.95682 -0.0196965 -0.290013
1.15137 4.83079 0.153008 0.811128 0.103079 -0.575714
1.29108 4.30485 -0.14905 0.958606 0.0197066 -0.284054
0.953584 2.80324 -1.04146 0.970967 -0.0814611 -0.224917
1.38106 3.15524 -0.0147043 0.990566 0.0686459 0.118606
2.19132 1.66192 2.05186 0.741647 -0.081669 0.665801
1.258 3.22231 -0.316012 0.9698 -0.0473405 -0.239264
1.19928 3.30807 0.141688 0.806006 0.0217664 -0.591507
0.88389 3.37884 -1.26383 0.922414 0.0712962 -0.379565
1.49454 4.26255 0.544841 0.816295 -0.00554971 -0.577609
1.06537 4.55039 -0.603721 0.737021 -0.0497039 -0.67404
1.08036 1.57309 -1.11461 0.973484 0.141779 -0.179518
2.10143 2.08517 2.16643 0.713922 -0.036586 0.699269
0.983096 4.56854 -0.746469 0.940806 -0.0073722 -0.338866
1.30079 3.12704 -0.160905 0.918282 -0.0218809 -0.395321
1.17364 1.60377 -0.598188 0.93967 0.213301 -0.267437
1.57062 1.96985 0.662586 0.80095 -0.02577 -0.598176
1.0932 3.60354 -0.664842 0.886548 0.0858482 -0.454603
2.27939 4.68524 1.99366 0.925623 0.0402962 0.376296
0.95788 4.17919 -0.905132 0.93066 0.0613413 -0.360707
1.00421 1.99103 -1.26978 0.96095 0.205831 -0.184954
1.21895 3.02327 -0.436659 0.964451 0.0549812 -0.258478
1.14957 2.05844 2.77717 0.472747 0.0183204 0.881008
1.93789 1.90801 2.32835 0.688079 -0.0110345 0.725552
1.34871 3.06738 -0.0966036 0.892089 0.014456 -0.451628
1.43998 4.40963 0.464309 0.794765 0.00723945 -0.606874
1.005 2.0778 -1.08739 0.937378 0.306303 -0.165835
1.64915 3.99674 2.54443 0.547741 0.00381399 0.83664
1.06763 1.55273 -1.3224 0.979783 0.152114 -0.129952
1.71997 4.01503 0.837814 0.791149 -0.0240775 -0.611149
1.2098 4.665 -0.346983 0.912365 0.202451 -0.355814
2.01597 1.4358 2.21445 0.758018 -0.136764 0.637734
1.25676 1.53997 -0.426985 0.870152 0.326205 -0.369359
2.05013 2.4869 1.36484 0.842559 -0.0375633 -0.537292
1.43094 1.63438 2.67516 0.452816 -0.052624 0.890049
2.23655 4.34841 2.05231 0.69145 0.0855327 0.717343
1.68042 4.51159 0.785968 0.806666 9.37511e-05 -0.591007
2.26413 1.89824 2.00258 0.725052 -0.0415391 0.68744
1.50724 4.73712 0.565579 0.791954 0.0359525 -0.609521
1.27856 2.10112 -0.257107 0.957313 0.0127266 -0.288773
1.15595 1.71248 -0.601766 0.973632 0.0380277 -0.224934
1.26331 2.73599 -0.272049 0.975325 -0.021125 -0.219759
1.66865 1.8299 2.52341 0.541055 -0.00678002 0.84096
1.02371 4.05976 -0.763162 0.928124 0.0389315 -0.37023
1.12865 1.74547 -0.857289 0.988039 0.0226957 -0.152528
2.04412 3.21434 2.23991 0.647234 -0.0797361 0.758109
1.2897 3.07733 -0.184965 0.91643 9.70861e-05 -0.400196
1.07154 1.88436 -1.04663 0.963746 0.16563 -0.20919
2.32865 3.44543 1.91463 0.821018 -0.0025714 0.570897
1.12741 1.37157 0.126842 0.792579 0.056576 -0.607139
1.02113 1.85101 -1.28861 0.964207 0.160338 -0.211179
2.30817 3.00192 1.90573 0.99163 -0.0358412 0.12404
1.11731 1.56402 -0.971409 0.957377 0.154646 -0.243953
1.94101 4.09975 1.15803 0.839958 0.0223088 -0.542193
2.26962 3.87783 2.00748 0.782354 0.0203929 0.6225
1.02597 4.55823 -0.64747 0.822241 -0.0601511 -0.565952
2.07338 4.71782 2.20072 0.669109 -0.046244 0.741724
1.83394 1.91996 1.11163 0.847378 -0.0381868 -0.529615
1.04924 4.09843 2.79012 0.390788 -0.0234346 0.920182
1.22029 1.06283 -0.528235 0.958445 -0.116778 -0.26028
1.446 3.63906 0.473569 0.849425 0.0182621 -0.527393
1.44914 4.08621 0.473393 0.831623 -0.0226088 -0.55488
1.18869 1.40874 -0.76046 0.974418 0.173668 -0.142647
1.25514 2.74755 -0.319252 0.986702 -0.0166027 -0.161692
1.14751 4.5735 0.102465 0.720974 -0.0112349 -0.692871
1.10971 3.14435 -0.70462 0.8615 0.0831223 -0.500908
1.26372 4.64951 0.23842 0.789296 0.0777948 -0.609065
1.33378 4.12648 0.318656 0.780193 0.0218574 -0.625157
2.01353 4.23815 2.26665 0.668146 0.0811004 0.739597
1.32857 2.09645 2.6995 0.374059 0.00160562 0.927403
0.936323 2.69883 -1.00606 0.973712 -0.122985 -0.191726
1.18065 2.0106 0.153454 0.786948 -0.0441255 -0.615439
1.23091 2.07669 -0.397726 0.940448 -0.0288061 -0.338714
1.25483 3.03997 2.65505 0.235272 -0.000348979 0.971929
1.21567 3.46516 0.167234 0.818651 -0.0738737 -0.56952
1.84525 2.74002 1.061 0.855105 -0.000235784 -0.518455
1.1529 4.79453 0.0985993 0.789308 0.0603239 -0.611027
2.29136 4.34196 1.98037 0.739546 0.069193 0.66954
1.05191 1.70898 -1.26802 0.978509 0.136879 -0.154224
1.58154 4.44584 2.50523 0.418429 0.104941 0.902167
1.60268 4.26031 0.684107 0.804375 -0.00755046 -0.594074
1.94856 3.89106 1.15346 0.832654 0.0143953 -0.553607
2.23593 4.04793 2.03329 0.74888 -0.0280177 0.662113
1.08176 3.03095 0.0694859 0.651029 -0.047566 -0.757561
1.24532 3.71814 0.173561 0.798346 0.00163332 -0.602196
1.13435 3.19567 -0.647162 0.861523 0.102607 -0.497243
1.46683 2.81683 0.478417 0.848398 0.0107398 -0.52925
1.26716 1.06859 0.0721471 0.780757 0.575825 0.242579
1.28238 3.90673 -0.193395 0.984028 -0.0984958 -0.148282
1.30108 4.12725 -0.11665 0.975932 0.0364439 -0.21501
2.21237 3.21729 1.62437 0.898767 -0.00954917 -0.438322
0.91119 4.65839 -0.96414 0.954598 0.00235931 -0.297889
1.82892 2.2252 1.0639 0.856408 -0.0726962 -0.511156
1.10947 3.79053 -0.581941 0.901901 0.0862227 -0.42325
1.27061 3.24955 -0.262696 0.967532 -0.0190213 -0.252031
2.21958 3.28433 1.63294 0.905963 -0.0265935 -0.422521
1.28066 2.25139 -0.196324 0.959644 0.130278 -0.249222
1.62005 3.90774 2.55867 0.520384 -0.0213931 0.853664
1.25364 3.87304 -0.324381 0.95198 -0.0437453 -0.303019
1.27303 1.70258 -0.280144 0.887132 0.117769 -0.446237
2.27173 2.23592 1.99603 0.771836 0.0284111 0.635186
1.13061 3.73112 -0.550315 0.875383 0.0825248 -0.476334
2.14222 3.92471 2.13978 0.730858 0.0489849 0.680769
1.47868 2.98971 0.51348 0.846706 0.0324446 -0.531072
1.19716 1.1951 0.177671 0.834839 0.286785 -0.469892
1.25734 2.68295 -0.303191 0.983322 -0.00621129 -0.181766
1.10985 1.85966 -0.920902 0.960614 0.100472 -0.259088
2.28449 3.03266 1.97446 0.7732 -0.0800517 0.629089
2.11325 4.58941 2.11456 0.69182 0.0164599 0.721883
2.18727 1.98505 1.63518 0.894946 -0.0502924 -0.443331
0.965015 4.63021 -0.800965 0.953267 0.0490693 -0.298118
1.19127 1.47546 -0.642508 0.946828 0.190941 -0.258955
2.15052 1.42214 2.0456 0.768206 -0.219493 0.601401
1.91389 2.72024 1.15744 0.836813 0.00950954 -0.547406
1.10306 1.92375 -0.902934 0.950679 0.130704 -0.281293
1.45772 4.19226 0.486158 0.824656 0.00281513 -0.565627
1.02722 1.921 -1.22354 0.962061 0.193668 -0.192174
1.77788 1.64335 1.02171 0.870045 -0.0482253 -0.490608
1.17093 3.0132 0.137367 0.651029 -0.047566 -0.757561
0.899819 4.3273 -1.13501 0.982643 0.0290108 -0.183223
1.23751 3.48889 0.199226 0.814016 -0.0834598 -0.574815
2.05206 4.4166 1.34849 0.859531 -0.00645559 -0.511043
2.21466 3.07986 1.63336 0.906114 -0.0255218 -0.422262
1.26073 3.23276 0.220616 0.792585 0.0439574 -0.608174
1.21275 1.64439 -0.439807 0.918939 0.199775 -0.340062
1.13203 4.09775 -0.532217 0.876158 -0.0910861 -0.47334
1.70331 2.50724 0.826044 0.813237 -0.00246058 -0.581928
1.21331 4.45363 -0.398081 0.942758 0.00820296 -0.333376
1.19864 3.57516 -0.47221 0.899326 0.0532985 -0.434018
1.15115 4.27807 -0.517221 0.898848 -0.0103326 -0.438138
2.00119 3.8743 1.23731 0.863044 0.00613848 -0.505091
1.17315 4.3026 -0.472161 0.897498 -0.0349453 -0.439632
0.939118 2.75161 -1.10889 0.990526 -0.0793856 -0.112057
1.12071 1.34482 0.111578 0.813346 0.08846 -0.575016
1.96897 1.67146 1.31938 0.819642 -0.0381557 -0.571603
1.23042 4.36257 0.196004 0.772202 0.00929151 -0.635309
1.03664 2.04356 -0.97806 0.931277 0.276944 -0.236695
0.900128 2.54419 -1.10515 0.998237 -0.05258 -0.0275362
1.15742 3.45544 0.093575 0.785122 -0.0301479 -0.618607
1.18205 4.44022 -0.47286 0.878474 -0.0286492 -0.47693
1.67174 1.83137 0.813961 0.85547 -0.0366735 -0.516552
1.28037 1.13844 0.295369 0.854364 0.174045 -0.489663
0.918948 4.56859 -0.927408 0.948178 0.0177928 -0.317241
1.98408 2.45277 2.30028 0.65243 -0.000816679 0.757849
2.22312 2.33278 2.04256 0.780175 -0.00836514 0.625506
1.66288 2.74277 2.52652 0.545049 -0.0214045 0.838131
2.02692 3.1302 1.34083 0.842662 -0.0346042 -0.53733
0.946344 3.31093 -1.16363 0.895035 0.0588591 -0.442095
1.51097 4.41525 2.54574 0.437638 0.173579 0.882238
2.20972 2.93882 1.6317 0.925303 -0.0266148 -0.378294
1.74248 3.02461 0.86926 0.844593 -0.0156085 -0.535181
2.01517 3.75219 2.2806 0.635068 0.0218925 0.772146
1.19067 3.66084 -0.477866 0.884841 0.0575306 -0.462327
1.47619 3.10472 2.62358 0.330364 0.017205 0.943697
2.0468 2.14368 2.22836 0.700917 -0.0286049 0.712669
1.30532 1.80637 2.73492 0.381122 0.0423452 0.923555
0.935503 3.94281 -1.07213 0.932421 0.0634642 -0.355758
1.32533 1.62336 -0.218413 0.879047 0.18495 -0.439398
1.23765 3.16197 -0.379567 0.965357 -0.0709289 -0.251109
0.909118 3.40761 -1.20123 0.890987 0.0623097 -0.449733
1.22894 2.29257 -0.410021 0.980867 -0.0149492 -0.194103
1.31925 2.15856 -0.141033 0.926713 0.083701 -0.366329
0.978523 4.50104 -0.745354 0.948545 0.0398162 -0.31413
0.966335 1.47436 2.82611 0.300522 -0.1431 0.942979
1.42545 1.92093 0.478016 0.787226 -0.00665013 -0.616628
1.29452 2.06017 -0.195129 0.945266 -0.00648235 -0.326237
1.71498 1.53704 0.91515 0.850319 -0.0936792 -0.517862
1.23258 1.80707 -0.36671 0.927569 -0.00507809 -0.373616
1.61829 1.41162 0.803889 0.830179 -0.0926528 -0.549744
1.64263 3.56528 0.741886 0.811184 0.0236076 -0.584314
1.23156 3.04229 0.184477 0.693756 -0.0453335 -0.718782
1.08862 1.87106 0.0602352 0.752793 -0.020336 -0.657943
1.03837 3.99596 -0.722558 0.956715 0.0570748 -0.285375
1.25713 3.48186 -0.288329 0.965136 0.00819041 -0.261622
1.18085 1.44418 -0.81542 0.979859 0.138335 -0.144012
1.13716 4.14646 2.76552 0.394013 0.017632 0.918936
1.71441 3.61139 0.861408 0.828742 0.00945136 -0.559551
1.77302 4.11977 0.926949 0.817119 -0.0043352 -0.576452
1.25993 3.83402 0.204683 0.815994 0.0427553 -0.576477
1.28409 4.48447 -0.142978 0.962952 0.0322529 -0.267738
1.97365 2.93507 2.2722 0.717788 -0.0463138 0.694719
1.6971 2.56421 2.50291 0.54771 0.0298873 0.836134
1.46189 3.77785 2.62215 0.412831 -0.0762489 0.907611
1.80653 4.28663 2.41676 0.547667 0.127732 0.826889
1.42693 3.43885 0.45175 0.809447 -0.0213835 -0.586804
0.965356 3.93741 -0.984959 0.924353 0.0640971 -0.376115
1.2743 1.94104 -0.259906 0.959626 -0.00880206 -0.28114
1.1782 1.79143 -0.510026 0.956313 0.00346109 -0.292326
0.992243 1.96632 -1.34447 0.958371 0.192452 -0.210922
0.887563 4.19425 -1.17001 0.982654 0.00167286 -0.185443
2.32416 3.36513 1.92412 0.986855 -0.0016528 0.1616
1.22436 2.94 -0.456327 0.958041 0.10796 -0.265523
1.28353 2.83741 -0.215609 0.941757 -0.0162209 -0.335902
1.66922 3.27664 2.50946 0.485047 0.0361615 0.87374
1.14734 3.29972 -0.601121 0.854656 0.0863315 -0.511966
0.925291 2.75275 2.96948 0.67705 0.148475 0.720804
1.80044 1.83376 1.06191 0.864728 -0.0344375 -0.501058
1.69653 4.72337 0.812881 0.800669 0.0133574 -0.598958
1.97473 3.14408 2.29062 0.659404 -0.077108 0.747824
1.25679 1.87741 -0.318764 0.942781 -0.0232153 -0.332605
2.21148 3.14895 1.62662 0.896022 -0.00725321 -0.44395
1.19535 1.92027 -0.461787 0.945613 -0.0388774 -0.322962
1.24045 1.48714 2.74558 0.416536 -0.134889 0.899057
2.15645 1.49928 1.57272 0.866242 -0.129532 -0.482541
0.969838 2.12237 -1.30916 0.961664 0.247876 -0.117301
1.287 4.41907 -0.143415 0.960971 0.0362222 -0.274269
1.02837 4.51042 -0.63334 0.810333 -0.0242883 -0.585467
1.31298 2.62066 2.729 0.388786 0.0614695 0.919275
1.37314 3.97403 0.364346 0.809042 -0.0115525 -0.587638
1.93829 3.32335 2.33362 0.618221 -0.0205356 0.785736
1.26586 1.8866 0.277968 0.820699 -0.0177759 -0.571085
2.08955 3.55104 2.21933 0.67555 0.0120579 0.737216
1.18163 4.13705 -0.449706 0.881712 0.024355 -0.471158
2.04178 2.98949 2.20292 0.688661 -0.0874454 0.719792
1.45544 3.57583 0.485732 0.826325 0.00431649 -0.563177
1.26862 3.40708 -0.250202 0.958588 0.024767 -0.283716
0.957337 4.59375 -0.829762 0.946826 0.0170929 -0.32129
1.27795 4.71888 -0.139716 0.949408 0.12874 -0.286443
1.07864 4.7922 -0.503487 0.762613 0.452577 -0.462164
1.17265 1.95957 2.76585 0.398038 0.036569 0.91664
1.07356 3.89798 -0.631775 0.944266 0.0880678 -0.317183
1.43803 4.75183 0.477581 0.782574 0.0575665 -0.619891
1.16703 3.34434 -0.563596 0.869247 0.0640382 -0.490212
1.45294 3.76164 0.500801 0.864932 0.0134033 -0.501711
2.03825 1.92262 2.22499 0.723334 -0.031049 0.6898
0.967839 4.37273 -0.849678 0.937287 0.12188 -0.326556
1.37792 1.70994 2.70266 0.43368 -0.0153117 0.900937
1.58424 3.48713 0.664057 0.80889 0.0204773 -0.587603
1.22639 3.39399 -0.408629 0.950721 0.0633687 -0.303503
1.17047 1.63087 0.161598 0.771366 -0.0739403 -0.632081
1.1669 3.24128 -0.580376 0.874858 0.0869929 -0.476504
1.25005 2.83336 -0.372847 0.985342 0.0278104 -0.168311
1.09904 1.79228 -0.977718 0.965492 0.0809007 -0.247547
1.08614 4.16742 -0.654761 0.890228 -0.0959153 -0.445302
1.37946 1.18762 0.466559 0.822738 -0.00375756 -0.568408
2.25201 3.9572 1.64752 0.928815 0.0493875 -0.367237
1.2826 2.39093 -0.104712 0.998058 -0.0336718 -0.052411
0.992156 4.31462 -0.806257 0.909203 0.125506 -0.396985
1.12423 1.54276 0.118259 0.769664 -0.0493796 -0.636537
0.990876 4.17386 -0.830799 0.911695 0.0600417 -0.406456
1.26867 3.72502 -0.194536 0.964279 0.0626355 -0.257376
1.10728 3.08329 2.68875 0.393935 -0.00119995 0.919137
1.28793 4.53816 0.269717 0.808647 -0.0104872 -0.5882
1.64908 4.35701 2.4835 0.472062 0.179365 0.863126
1.45749 2.66713 0.464981 0.839741 -0.0116775 -0.542862
1.27769 2.59312 -0.209408 0.963145 -0.020534 -0.268197
1.3781 2.13783 -0.039409 0.988804 0.146618 0.0277574
1.24174 1.99419 -0.369687 0.930556 -0.026677 -0.365177
1.25498 2.79652 -0.336439 0.985393 -0.00897793 -0.170057
1.13709 3.56834 2.74664 0.317161 -0.0769877 0.945242
1.27472 2.35032 -0.16797 0.975386 0.050936 -0.214541
1.3588 4.63963 0.363685 0.786306 0.0622082 -0.614698
1.29433 3.22943 0.265917 0.800447 0.0567954 -0.596707
1.55606 2.49451 2.59343 0.49191 0.0341906 0.869974
1.17974 1.73805 -0.505728 0.954991 0.0436085 -0.293411
1.96107 2.16417 2.31173 0.667566 0.00344322 0.744543
2.0189 2.93443 1.32663 0.841208 0.0126466 -0.540563
1.16204 4.1527 0.115618 0.689687 0.000203287 -0.724108
1.8095 3.38807 2.43176 0.533533 -0.00183114 0.845777
1.67242 1.65012 0.821563 0.834089 -0.0659343 -0.547675
1.74356 2.95355 0.87193 0.841374 -0.0171377 -0.540181
0.903576 3.29719 -1.21742 0.918938 0.0492956 -0.391308
1.43345 4.10626 2.65205 0.426347 0.0765627 0.901314
1.07386 3.78188 -0.687663 0.952918 0.0172354 -0.302737
2.33535 2.06999 1.93042 0.739326 -0.00783661 0.673302
1.26375 2.55581 -0.274171 0.986651 -0.0176482 -0.161892
1.35286 1.37448 -0.293858 0.97387 -0.0658845 -0.217341
1.35564 2.01607 0.387319 0.797541 -0.0328522 -0.60237
1.04341 3.53878 -0.760818 0.885918 0.0268351 -0.463066
1.88337 2.59374 2.37816 0.610632 0.033909 0.791188
1.05435 3.21351 -0.782145 0.892859 0.0911709 -0.441011
1.91421 3.12943 2.35382 0.657453 -0.0252746 0.753072
1.06349 4.70387 -0.606839 0.753498 0.251844 -0.607301
1.27867 1.9695 0.2934 0.811939 -0.0293615 -0.583004
2.0098 2.08126 2.26461 0.69755 -0.0202813 0.716249
2.33842 1.77829 1.91309 0.744204 -0.0759312 0.663623
1.93826 4.37506 1.14949 0.845741 -0.00230645 -0.533588
1.04386 4.11783 -0.724426 0.88896 -0.0873233 -0.449582
2.29114 3.39026 1.98606 0.810234 -0.000477004 0.586106
1.22491 2.43338 -0.495113 0.996731 -0.0795688 -0.0139963
1.25756 2.85368 -0.314824 0.983361 0.0186376 -0.180703
1.75041 4.24255 0.893202 0.820863 0.000241421 -0.571126
2.15913 1.91079 1.58683 0.872379 -0.0191485 -0.488455
1.14446 3.544 -0.579288 0.880674 0.0913249 -0.464837
0.974073 4.22504 -0.856358 0.917595 0.0529262 -0.393977
1.70938 1.7202 0.878002 0.870079 -0.0431448 -0.49102
1.56214 2.16662 2.60924 0.495924 -0.00295373 0.868361
1.44516 1.44626 0.521233 0.841894 -0.095366 -0.53115
2.33297 4.10261 1.91734 0.992775 0.0582212 0.104924
0.95097 4.67178 -0.847249 0.944961 0.141669 -0.294921
1.42757 4.20609 0.43953 0.81929 0.00797168 -0.573323
1.25072 2.36689 -0.305956 0.984774 -0.0229732 -0.172315
1.29142 4.25883 -0.14499 0.961001 0.0226967 -0.275613
1.45014 2.51199 0.45759 0.857377 -0.0589041 -0.511306
1.32964 3.98999 2.69635 0.405772 -0.000564541 0.913974
1.91415 3.49753 2.35714 0.594235 0.000210931 0.804291
2.0571 3.81942 2.24196 0.678001 0.03692 0.734133
1.07295 3.05882 -0.762462 0.865404 0.00699307 -0.501026
1.26299 1.81323 0.274747 0.819932 -0.0228116 -0.572006
0.885244 4.38947 -1.20354 0.982314 0.0632863 -0.176224
1.18146 4.70556 -0.380767 0.869894 0.320588 -0.374843
1.71703 3.93313 2.47935 0.574736 -0.00446067 0.818327
0.902108 4.39246 -1.10132 0.979589 0.0725396 -0.187465
1.24351 3.45868 -0.338229 0.9642 0.0128302 -0.264866
1.24916 4.23018 -0.290618 0.947744 0.0512201 -0.314894
0.906146 3.60035 -1.19816 0.9529 0.0861244 -0.2908
1.54666 2.46633 0.63262 0.819864 -0.0287551 -0.571836
2.14806 3.74062 2.15507 0.733752 0.0305948 0.678728
1.72871 4.57064 0.853167 0.807084 -0.00284641 -0.590429
1.18723 4.25967 -0.438333 0.907471 -0.0219725 -0.41954
1.26966 4.49816 -0.198678 0.963955 0.026111 -0.264783
1.07205 4.12297 -0.667368 0.899311 -0.115696 -0.421728
2.28008 2.87969 1.97238 0.753252 0.00417733 0.657718
1.57683 2.27029 2.59669 0.483091 0.0288996 0.875093
1.12872 4.16252 -0.557164 0.89601 -0.103793 -0.431732
1.47484 2.73607 0.487079 0.859867 -0.00286466 -0.51051
1.37114 1.59758 -0.135315 0.902719 0.10057 -0.418312
1.25745 1.49916 0.279045 0.759327 -0.0528251 -0.648561
2.11336 4.10565 2.1573 0.710979 -0.00314558 0.703207
1.20823 1.89926 0.186432 0.812368 -0.00378468 -0.583133
1.21362 2.18763 -0.618559 0.987855 -0.155271 -0.00582131
1.61566 1.6853 2.55857 0.529046 0.0113653 0.848517
1.21507 1.28908 -0.59805 0.934383 -0.0323431 -0.354798
0.929212 3.62204 -1.09787 0.965455 0.0665464 -0.251928
1.18907 1.354 -0.71548 0.977161 0.127835 -0.169749
1.55043 4.17462 0.623381 0.810109 -0.0171651 -0.586028
1.24484 1.24108 -0.535913 0.914066 -0.0602256 -0.401069
1.25645 3.08212 -0.278517 0.962995 -0.0238501 -0.268463
0.990713 3.86918 -0.928018 0.929508 -0.0280834 -0.367731
