1.32109 3.78703 2.67726
1.02569 3.22438 2.74213
-1.03177 2.96282 -1.96852
1.95659 3.59674 1.17179
0.862701 4.64788 -1.15068
-0.810327 3.37597 -0.259664
-0.352522 3.42366 0.612485
-0.46267 1.24622 0.43983
-0.62578 1.82117 0.162139
1.21206 2.79398 -0.554666
1.77826 2.21175 0.967795
0.876007 4.2016 -1.27528
-0.187344 1.4907 -2.48968
-0.801284 2.61697 -0.251162
-0.915247 4.09376 -2.15922
1.22544 3.49491 -0.404449
1.17594 2.8717 -0.600922
1.24184 1.93812 0.238917
-0.737384 2.16573 -2.25683
1.33455 1.17399 -0.149055
-0.545206 3.1238 -2.28967
0.201917 1.499 -2.55777
-0.362767 4.09334 0.524473
-0.900457 2.35691 -0.882094
0.948718 4.35093 -0.913375
0.130116 1.88857 -2.50874
-0.863892 4.73598 -0.805998
1.31396 3.01528 -0.14416
-0.668338 1.37754 -0.22819
-0.53439 4.4205 0.295212
-0.958459 4.52268 -1.19572
-0.697904 4.30603 -2.20645
-0.601779 1.37435 0.0249641
-1.01574 3.44831 -2.16187
1.77776 2.65526 0.942619
-0.274835 3.1605 -2.44461
1.25598 2.63457 -0.318123
-0.845864 3.66112 -0.399278
-0.991151 3.29074 -1.27197
1.86635 2.37515 2.38763
-0.660277 1.82878 -0.00354204
0.355303 3.6741 -2.54772
1.1583 3.15803 -0.609643
-0.493191 1.27734 0.395505
-0.88049 3.4339 -0.560322
-0.367391 2.72567 0.649825
-0.783291 1.34201 -1.33113
-0.573844 3.63854 0.333281
2.108 3.45127 2.20254
1.40574 1.85361 0.456357
-0.658132 3.45056 0.198012
-0.654017 3.881 0.161072
1.27718 2.93315 -0.228941
-0.728221 1.54243 -0.420765
1.07877 3.97087 -0.596485
-0.554453 2.19603 0.390342
-0.628984 4.26259 0.158623
1.28967 4.35567 -0.147661
1.09832 1.43067 -1.20901
-0.820429 3.51609 -0.327983
-0.508818 2.54884 0.51765
0.93704 3.44763 -1.15136
1.28843 2.93593 2.66359
2.19178 3.84215 2.09487
-0.68048 1.81432 -0.0952828
1.03285 4.488 2.872
-0.842664 4.4958 -0.5353
-0.301059 2.06602 0.774037
-0.79062 4.34772 -0.300127
-0.742381 4.837 -0.371369
-0.604468 1.53647 0.16929
-0.00032991 2.27151 -2.51488
-0.402241 2.67871 0.605084
2.29071 4.54873 1.93379
1.29566 1.64427 -0.25794
1.43559 3.00288 0.438817
-0.491869 2.06633 0.487175
-0.690823 2.07038 -0.0372342
1.51516 2.70912 0.56907
-0.615237 4.8262 -0.0276935
0.745196 2.55576 -2.65741
-0.765503 1.77382 -0.463058
-0.412515 3.49497 0.562546
-0.709729 2.08254 -0.133865
1.20126 1.75381 -0.443817
1.71612 3.85755 0.855539
-0.829392 3.47599 -0.397334
-0.80644 2.957 -0.329492
1.20533 1.23961 0.210565
-0.56601 4.25492 0.291531
-0.940675 3.97046 -0.874483
0.899269 4.2539 -1.1272
-0.809039 2.2653 -2.25025
-0.678269 2.86523 0.233827
1.19187 3.35529 -0.511572
1.09439 3.48939 -0.676686
-0.409025 4.39029 0.447198
-0.34969 4.55374 0.48057
2.0139 3.2899 2.26987
-0.665979 4.19066 0.0276668
-0.0986206 3.06211 -2.49109
0.899776 4.52818 -0.998771
-0.690777 2.15335 -0.0337604
-0.817417 1.81515 -0.830317
1.25728 1.77486 -0.30385
-1.02238 4.20425 -1.76228
2.06804 2.87996 1.3957
1.18434 1.14792 0.0962636
-0.262426 3.85302 0.626335
-0.841138 1.74983 -1.08435
1.45255 4.25419 0.4783
1.5027 2.59289 2.6177
-0.855266 2.05618 -0.720881
1.30185 2.02227 -0.161176
1.30543 3.24257 2.67561
-0.476229 4.25196 0.389902
1.37047 1.49007 -0.157695
1.15517 3.91879 2.78419
1.283 3.79529 -0.0952449
1.26494 4.71536 -0.18274
-0.588798 4.81933 0.0393742
-0.898069 2.94603 -2.22783
-0.710113 4.42708 -0.0852944
-0.945726 2.36215 -1.30144
0.922657 2.67862 -1.25798
1.54493 1.12463 0.694011
1.18279 4.62925 -0.444119
-0.310006 1.72087 0.631875
-0.871747 2.11544 -0.774755
-0.812625 3.67706 -0.219451
1.26589 4.35296 0.243587
-0.311975 2.1152 -2.46104
1.69669 2.42556 2.51447
-0.618563 4.47281 0.144135
1.25738 3.52601 0.221994
1.1416 2.08034 0.099515
-0.580559 1.33544 0.135398
1.30101 1.76769 -0.209779
-0.942464 3.42156 -0.856378
-0.510012 2.08487 0.456501
1.32623 2.74415 2.69922
-0.586959 4.56669 0.186002
-0.40986 2.78876 0.593759
0.419044 2.86872 -2.57897
1.53298 3.25523 0.597961
-0.571555 1.38687 0.146821
1.16546 4.40579 0.12436
2.32304 2.00754 1.92043
-0.0673739 2.51051 -2.48119
-0.628362 3.79376 0.201713
1.28738 2.14789 -0.229926
-0.973364 4.39806 -1.22149
1.27752 1.7278 0.298498
-0.857606 3.18134 -0.53503
-0.723457 1.81832 -0.238263
-0.901187 3.30496 -0.69872
1.32318 2.55628 -0.0957421
-0.771813 2.31658 -0.292308
0.655762 2.00618 -2.58728
-0.606488 4.65011 0.109127
1.76921 2.10336 0.971817
1.25437 3.56584 -0.300315
-0.694235 1.6001 -0.224231
-0.580234 1.97192 0.290249
1.16543 1.75184 -0.563592
-0.207149 4.34504 -2.46819
1.26655 2.4442 -0.200875
-0.69561 3.04304 0.131468
-0.628163 4.03644 0.178864
1.28366 3.64809 -0.180742
-0.807711 2.93818 -0.300964
-0.66959 1.89309 -0.00743163
-0.618517 3.82497 0.226595
-0.32791 2.78104 0.706725
-0.517894 1.79835 0.417121
-0.591931 3.12293 0.324375
1.2279 4.32219 -0.34868
1.16419 4.38911 -0.498125
-0.564495 1.68357 0.307162
-0.717299 3.05998 -0.0633943
-0.657881 1.37854 -0.158071
1.19097 4.49032 2.69854
0.916944 3.50922 -1.17144
1.14781 3.41224 -0.587511
-0.73379 1.38817 -0.68855
-0.61342 1.39625 -0.0126064
2.18584 2.40336 1.60576
0.950187 3.68177 -0.973222
1.12145 3.76857 0.0374305
-0.38422 3.40158 0.586021
1.52041 1.65137 0.623465
-0.705016 2.678 -0.0278273
-0.585817 1.51058 0.196981
-0.303665 4.08609 -2.41889
1.3903 4.37825 0.39957
-0.795767 2.38428 -0.422212
2.08338 2.24422 2.19609
-0.679256 1.99682 0.0335589
1.11632 4.17832 0.0826717
-0.703081 2.30524 -0.0963769
-0.547728 1.60047 -2.41371
1.45433 4.02552 0.486759
1.42419 4.29625 0.441162
-0.625441 4.58651 0.0822593
-0.365195 1.38453 0.583776
-0.421986 1.57854 0.547554
-0.944291 3.88835 -0.857177
1.23342 2.41325 -0.414977
-0.389524 4.45126 0.476967
-0.532719 3.62667 0.407781
-0.72482 2.56071 -0.0665018
-0.806645 2.51771 -2.23815
-0.786476 2.31903 -0.381328
2.22938 3.55182 1.62694
-0.428467 4.73251 0.33203
-0.678374 4.49463 -0.0208849
-0.671721 2.67697 0.178808
1.1346 3.68857 2.76964
-0.650378 2.78169 0.25819
1.49894 2.50745 0.555897
-0.546006 1.46926 -2.38955
-0.857885 2.79051 -0.580798
1.87979 2.35388 1.12591
1.76739 3.82249 2.44408
1.24152 2.56718 -0.422183
0.216715 2.87875 -2.54878
1.23754 1.71589 0.241585
1.22672 1.73161 -0.381937
-0.540211 2.87483 0.440389
-0.710255 2.95635 0.0115963
-0.0542559 3.5658 -2.4897
1.13041 1.40954 0.132873
1.38987 3.85913 0.385429
-0.00997263 3.7699 -2.49701
-0.489581 4.8532 0.196298
-0.738568 1.35297 -0.808498
2.06655 4.28358 1.3713
1.05251 1.95027 -1.10471
0.565732 2.23477 -2.60664
-0.350363 3.64641 0.580687
1.41134 1.25971 0.50684
-0.370299 3.19287 -2.41256
2.11761 4.48493 2.11147
1.01706 3.58403 2.78236
1.2053 4.16685 -0.401444
0.96261 4.68511 -0.791945
-0.733591 3.32317 -0.0544437
1.23547 3.71722 2.71828
1.93556 4.30543 1.15425
-0.681718 4.3781 -0.0197618
-0.46819 1.33198 0.449744
1.99251 2.03619 1.32355
-0.790312 1.91797 -0.570087
-0.672325 4.1663 0.00283388
1.26414 2.4881 -0.634912
-0.823957 1.53866 -1.63809
-0.711744 1.44561 -0.456472
1.21566 4.70685 -0.304495
-0.691485 3.43196 0.0774831
-0.970693 2.63874 -1.2657
-1.01204 2.64811 -2.14642
1.01826 3.95176 0.0563097
-0.60804 2.07177 0.25944
2.02879 3.02504 1.34501
-0.477306 3.59108 0.488462
-0.473735 4.7893 0.257759
1.24356 3.26783 -0.385571
-0.934477 3.61924 -0.807087
2.26932 1.56266 1.96504
-0.544317 4.26793 0.319722
1.15698 2.39362 0.0784507
1.17101 1.96393 -0.593379
-0.37934 1.43872 0.572147
1.348 2.84592 0.317444
-0.797473 4.07769 -0.325573
-0.332786 3.78748 0.580045
-0.732397 4.06104 -2.20234
-0.56299 3.17829 0.377277
2.02555 2.39722 1.34081
0.97429 4.81051 -0.609707
1.86245 3.29781 2.39523
1.267 2.68436 -0.253336
-0.457816 4.61531 0.344279
-0.0637838 1.75046 -2.49956
-0.748683 2.45682 -0.16122
1.19277 1.70486 -0.473755
-0.359895 3.69922 0.558162
2.07477 3.70425 2.23136
-0.521121 1.47042 0.309377
1.08961 2.59855 0.0399733
-0.765404 4.3431 -0.238557
-0.6573 4.46801 -2.21288
1.98647 1.35325 2.22359
-0.684532 3.46994 0.0897751
-0.784503 3.09397 -2.23307
-0.712762 3.1495 -0.00367357
-0.785407 1.64625 -0.652624
-0.326015 1.41108 0.624256
-0.618801 2.86234 -2.25543
-0.299756 3.77384 0.605217
1.75686 2.49315 2.4671
1.2836 4.09993 -0.221131
1.73152 3.8192 0.879299
-0.416886 4.80599 0.308908
0.927157 2.58869 2.97658
-0.867578 2.82986 -0.613191
-0.656906 1.68915 -0.0246855
1.41318 2.19137 0.460026
-0.300965 3.8721 0.606314
-0.424883 1.53478 0.535096
1.26183 4.52489 0.232884
-0.659085 4.44427 0.0387817
-0.661644 2.11997 0.160665
-0.0758766 4.80302 -2.45475
-0.794573 2.43097 -0.344207
2.20504 2.31648 1.62096
2.27468 2.78129 1.99255
-0.694248 1.30431 -0.48103
1.39352 1.77726 -0.0780749
-0.737423 4.24166 -2.19865
-0.661479 1.33642 -0.169789
-0.30792 1.57903 -2.46032
1.17326 3.74386 -0.489769
0.449726 3.84946 -2.57471
-0.800969 4.18233 -0.351074
1.75478 1.75871 0.971368
-0.695224 4.3916 -0.0564352
-0.390093 1.51655 -2.45095
-0.748816 3.50285 -2.20598
-1.00965 2.61301 -1.84695
-0.643668 1.58766 0.0189251
-0.917863 2.95799 -0.775452
1.25462 3.94839 0.211878
-0.992736 3.43569 -1.32242
-0.570756 2.96111 0.366441
-0.680131 2.28919 0.160681
-0.745653 3.27868 -0.0834991
-0.985791 4.42809 -1.38852
0.999904 3.16598 -0.948191
-0.602802 4.47815 0.17655
-0.396192 3.21459 0.603102
2.04588 3.37505 2.25271
-0.766265 4.57169 -0.298809
-0.777339 1.49739 -0.804122
0.933442 3.25473 -1.17866
-0.47589 4.44743 0.362347
-0.875033 2.94588 -0.628903
-0.37527 1.61243 0.596197
-0.345753 3.60026 0.600148
1.26888 1.65266 -0.303411
-1.01951 3.78732 -1.40917
-0.920604 2.71709 -0.848845
-0.252005 3.6364 0.660043
0.0309648 4.41948 -2.49411
1.26436 2.78696 -0.275815
0.995002 4.48311 -0.68682
0.498136 3.93241 -2.56702
1.16301 3.95409 -0.481957
-0.210032 4.26099 -2.47656
-0.564496 2.48922 0.411716
-0.578889 4.28751 0.267837
-0.576277 1.71468 0.285656
-0.689937 2.50204 0.108967
0.673619 2.10721 -2.59275
-0.567213 1.42223 0.169036
-0.698719 2.27325 -0.0736136
-0.971559 3.33929 -2.19572
1.29858 3.55239 0.271127
1.26438 3.14795 -0.261722
-0.726262 1.47778 -0.558297
1.24242 2.78389 0.231797
-0.704804 2.5152 0.0140042
-0.337864 2.19427 -2.45249
1.30514 1.90727 -0.164127
1.12747 1.49728 0.126002
-0.76213 4.7728 -0.40657
-0.377064 3.49637 -2.41603
-0.87931 2.09704 -0.894649
1.76909 2.76945 0.940865
-0.442354 1.41744 0.493752
0.929475 4.64838 -0.907008
-0.770711 1.83115 -0.411584
-0.413046 4.7311 0.349001
-0.653437 4.61087 -0.00672251
-0.860543 2.65655 -0.59565
-0.780355 1.92501 -0.361274
-0.47788 3.37031 -2.36661
-0.711638 2.542 -0.0178331
-0.874013 3.72388 -2.21048
1.9447 3.23113 2.32609
-0.90683 4.54947 -0.84509
-0.805224 2.59125 -0.323254
0.148728 3.19478 -2.4982
-0.254316 4.61568 0.481554
-0.0254762 1.48438 -2.51873
-0.884481 3.52505 -0.561484
-0.905413 2.48588 -0.904643
1.62964 1.91464 2.55366
-0.507842 3.71138 0.413862
-0.329563 4.65453 0.441873
-0.606407 3.79747 -2.25077
-0.410396 1.67004 0.563528
1.0463 2.66216 2.8133
2.24577 3.5598 2.03689
1.88263 2.83449 2.37235
1.19705 1.51251 -0.59724
0.020937 3.84497 -2.49644
-0.599394 2.99846 0.314458
1.20375 2.87814 0.178997
-0.580966 1.33477 -2.32866
0.048233 1.71371 -2.50543
-0.596107 4.08621 0.231592
-0.649725 1.87674 0.089144
-0.949442 3.4887 -0.888794
-0.787477 3.35467 -0.182474
-0.224461 4.84021 0.390435
-0.629891 4.44557 0.124066
1.30653 3.30009 -0.145802
-0.610164 3.67611 0.248402
-0.863662 2.34772 -0.65796
-0.673295 4.56355 -0.0325098
1.2322 1.87415 0.225943
-0.903862 3.61446 -0.675472
-0.0426118 4.41642 -2.47851
2.25658 3.87763 1.65698
1.67923 3.85056 2.5085
-1.00135 2.90225 -1.45458
2.12579 3.82898 2.17576
-0.757471 1.72954 -0.397083
-0.823573 4.23163 -0.441138
-0.921485 1.89322 -2.13451
-0.664064 4.71594 -0.0847859
-0.663784 2.63912 0.19859
-0.570329 2.64731 0.410544
1.89072 3.4021 2.37421
-0.990076 3.4078 -1.14876
-0.720233 4.46695 -0.108033
-0.99988 4.10353 -1.35812
-0.67231 2.20616 0.144931
1.2604 1.61702 -0.337299
1.06385 1.72722 -1.17484
-0.33329 2.0449 0.729164
-0.640465 4.25287 0.125648
-0.812016 2.67413 -0.396215
-1.00424 4.59309 -1.74019
1.14903 1.50692 2.7932
-0.787972 2.30377 -0.426208
-0.655117 2.20216 0.196382
1.24904 3.14976 0.200682
1.70446 2.18433 2.5065
-0.702108 2.24532 -0.0971538
-0.615992 4.20284 0.188356
-0.931782 4.55621 -0.997726
-0.615336 4.16642 0.186243
-0.831325 3.83928 -0.383983
-0.635142 2.12165 -2.3026
-0.705603 2.75714 -0.0519173
0.119542 2.13588 -2.54348
0.171883 2.37151 -2.48363
-0.516164 2.74713 0.486777
-0.603478 4.78309 0.0317038
0.0917132 3.91922 -2.50877
1.28844 1.82867 -0.223693
0.291824 2.63875 -2.57196
-0.663799 1.58972 -0.0933054
-0.722791 3.17387 -0.0432402
1.18522 3.47704 -0.50953
-0.712423 3.46553 -0.0256147
-0.355353 1.7972 0.597801
1.27297 4.2955 -0.204037
-0.577959 1.36778 0.124366
2.06096 2.77519 1.37064
1.32518 2.30543 0.308236
-0.642117 2.2899 -2.27635
-0.56957 3.59845 0.350983
-0.879389 4.08892 -0.666129
-0.667767 1.79496 -0.0495239
-0.473796 2.43248 0.54564
-0.574439 3.68241 0.323228
-0.161921 2.06705 -2.48344
-0.770272 4.73952 -0.415865
-0.631196 1.54642 0.0563913
1.26072 2.13046 0.248143
-0.459526 4.29573 0.393103
-0.758989 2.67199 -2.23023
1.05795 3.83007 -0.753357
2.21749 3.95225 2.05164
0.17999 3.86877 -2.51546
-0.6789 3.60271 0.098693
-1.00517 3.74845 -2.09093
1.9306 3.00076 2.32538
-0.436719 2.05527 0.574481
2.12013 2.17182 2.15504
1.23867 3.63231 -0.368054
1.15446 1.84908 -0.704999
-0.550568 3.0608 0.387697
1.33545 4.49691 0.33829
-0.857537 1.77934 -1.18695
-0.496364 1.692 0.453003
1.46523 1.35023 2.57073
1.19579 2.82913 0.175928
1.04496 4.40801 2.84645
-0.625141 1.28771 -0.0261549
-0.869305 2.70701 -0.622606
1.40211 3.09382 0.393594
0.0483961 2.19205 -2.52031
-0.687915 3.02004 0.164206
1.24325 3.21083 -0.376032
1.25653 3.79667 0.196677
-0.659117 2.68203 0.215001
0.929115 2.36039 2.97073
-0.654517 1.51452 -0.109938
-0.76644 4.40705 -0.232935
-0.687729 2.2597 0.0353211
1.21435 3.41363 0.174014
-0.540854 3.08961 0.406651
0.873149 4.26243 -1.32089
-0.635498 1.78946 0.121813
-0.628708 1.79346 0.150933
-0.787516 1.55614 -0.757434
1.24797 3.00292 -0.311983
1.27515 2.40618 -0.68014
-0.6372 4.70667 -0.00944313
-0.872081 2.12746 -2.21284
-0.581612 4.23778 0.266055
-0.725142 3.84367 -0.0672278
1.21416 3.86014 -0.416745
1.58601 2.38627 2.58691
-0.680498 4.17776 -0.0388758
1.34555 1.93162 -0.0969927
-0.891059 2.31587 -2.23259
1.04976 3.87869 2.8126
1.06725 4.28947 -0.679543
-0.822708 1.77755 -0.937668
2.28944 3.72288 1.99245
1.21822 3.80009 -0.417838
0.0723486 1.62638 -2.52346
-0.309239 4.11579 0.559393
-0.689692 1.96981 -0.0670166
1.16881 1.24548 0.157471
0.285859 1.9671 -2.58088
0.199959 4.36447 -2.52995
-0.454213 1.65282 0.51464
-0.153781 1.73033 -2.48901
-0.318741 3.04739 0.692371
-0.869217 2.03036 -0.912542
1.27224 4.49375 0.250056
-0.712036 2.95615 0.0746937
1.25555 2.46581 -0.318057
-0.486142 1.86265 0.473344
-0.70101 2.06132 -0.0987505
-0.856048 4.52266 -0.59945
-0.825686 3.24253 -0.414916
-0.618446 4.33547 0.180534
-0.829654 3.64736 -0.306511
1.79233 1.98134 1.03537
-0.331012 3.65008 -2.40635
1.3976 2.21899 2.67586
-0.70497 2.59773 0.00236519
0.407818 1.82471 -2.61763
-0.682394 3.78599 0.080548
1.14137 3.04823 -0.647603
-0.960801 4.36133 -2.15198
1.85382 3.20033 1.05948
-0.541404 2.93946 0.429872
1.23996 4.36719 -0.309813
-0.504924 2.98171 -2.31059
-0.521696 1.67313 0.402801
-0.498916 1.99077 0.477195
-0.574299 1.92734 0.297101
1.66937 2.61834 0.781313
1.27383 4.39968 -0.195057
-0.960501 2.99131 -0.976762
-0.730031 4.53309 -0.158036
-0.64846 1.26214 -0.0922917
-0.885735 2.71524 -0.692251
1.15164 2.90468 -0.647269
1.20106 2.61115 0.170102
-0.579334 4.60849 0.19097
1.81296 1.92946 2.43492
1.23529 3.63592 0.163039
-1.00438 3.80418 -2.15893
-0.321351 1.51283 0.637185
-0.936852 4.3462 -0.977149
-0.526031 2.66371 0.484881
1.24098 2.91944 -0.400033
-0.636386 1.58466 0.0756461
-0.228553 4.78125 0.4198
1.32677 2.69686 0.311172
-0.738273 1.58252 -0.433785
0.937843 4.17861 -0.966348
1.26002 1.20012 0.2821
-0.263833 4.84218 0.383596
1.21095 4.09215 0.162184
1.55956 1.42971 2.56817
1.78212 2.01096 2.45647
-0.55289 4.73896 0.184134
1.24301 4.12084 0.205901
-0.8099 2.97819 -0.303378
-0.654379 3.34024 0.25096
1.22763 1.42324 -0.565957
1.4421 3.60458 2.62647
-0.833731 3.01077 -2.2327
-0.775805 2.06598 -0.389632
1.0113 1.91484 -1.28993
1.92231 4.35963 2.31512
-0.927064 3.07664 -0.800276
-0.201347 1.97616 -2.4798
1.0568 3.279 -0.746258
1.47284 4.38026 0.508901
1.0529 3.44296 -0.743666
1.68897 3.65162 0.819313
-0.179953 4.83109 0.396084
1.06685 3.70955 -0.702602
1.63589 4.13527 0.725088
-0.727716 1.33292 -0.744082
-0.735934 2.75372 -2.22795
1.11025 3.07639 -0.708831
-0.812357 3.33342 -0.253632
1.24257 2.17007 -0.365843
-0.759886 1.86258 -0.302006
-0.580265 3.19413 -2.27107
1.99644 3.05137 2.25536
0.450385 4.50873 -2.57758
1.13177 1.81657 -0.84782
-0.724429 1.29013 -0.867162
1.2366 4.56857 -0.303334
-0.67497 2.1556 0.117707
-0.61646 4.24326 0.190534
-0.740376 3.76651 -0.102637
-0.610253 1.64281 0.207121
1.59379 4.72975 0.676085
1.26518 3.77633 -0.205996
0.337793 1.74673 -2.60971
1.05351 1.4389 2.81114
-0.805612 1.81507 -0.691936
-0.261373 1.55781 0.713052
1.14006 1.34831 0.141771
1.30015 1.17321 0.342314
-0.88886 3.61535 -0.576586
-0.690095 2.4197 0.13524
-0.703694 2.56009 0.0221052
1.26123 4.33577 -0.240814
-0.755271 2.96051 -0.157989
1.77487 3.19742 2.45874
-1.01111 3.91068 -1.38493
-0.916046 3.38441 -0.762516
1.20251 3.05747 -0.485059
0.917676 2.55972 -1.33607
-0.753277 1.9244 -0.26059
1.75331 3.4652 2.46377
-0.806137 2.84535 -0.32836
-0.961453 2.43768 -1.55254
-0.672357 2.12238 0.12455
-0.747104 1.63743 -0.415154
-0.875105 2.39029 -0.691711
0.877553 1.60358 -2.65001
1.23748 2.57319 -0.491838
1.24309 2.75156 -0.428271
1.50293 2.38543 0.577264
1.4123 2.40082 0.413994
-0.817765 3.46685 -0.336058
0.421117 4.60728 -2.57618
-0.77247 1.50125 -0.726324
-0.792911 4.60267 -0.40573
2.00367 2.20585 1.3367
-0.704162 4.27494 -0.121169
1.14971 4.01324 -0.497205
-0.398921 4.17746 0.482522
-0.562243 4.80841 0.110661
-0.392444 3.71209 0.528133
-0.311318 3.46398 0.640536
-0.504503 4.27199 -2.30869
-0.47615 4.82724 0.232277
-0.610729 1.7109 0.211957
-0.691661 1.29323 -0.518651
1.14353 4.09202 0.100283
-0.261195 4.53046 0.516442
-0.590632 3.08258 0.320937
-0.660572 3.51849 0.158572
-0.891244 2.98829 -0.680623
-0.693736 2.32399 0.00776433
-0.710737 2.13014 -0.135903
-0.580257 2.60143 0.393855
1.25494 4.63863 -0.232147
-0.425281 3.78134 0.492277
-0.540943 3.86159 -2.26702
-0.573376 2.38713 0.370911
-0.670451 4.31423 0.0141757
-0.79274 2.39357 -0.369889
2.16814 4.28463 2.11094
-0.474895 4.18225 0.41176
1.46976 1.41258 0.572553
-0.47146 4.54059 0.350778
-0.592187 4.13058 0.23917
1.74486 3.9509 0.882517
-1.00308 2.95449 -1.41013
0.583279 2.1516 -2.60799
-0.3111 1.84108 -2.45239
1.69084 2.28066 0.799407
-0.387486 2.24831 0.656382
1.79515 2.87197 2.44012
-0.698751 2.21079 -0.0791091
-0.508481 3.34724 0.446864
1.54673 4.14668 2.59845
-1.00262 2.99614 -1.47918
-0.580021 4.78975 0.0848465
-0.960145 3.73565 -1.01193
-0.893665 1.88639 -1.51069
1.22351 1.68364 -0.392976
1.27672 2.40513 -0.153385
0.203241 2.80274 -2.55537
1.15682 4.74544 0.126204
-0.80972 1.66107 -0.917697
-0.465542 3.83397 -2.29836
1.94183 3.30965 1.184
-0.775353 3.97828 -0.217206
1.22729 2.19194 -0.412144
1.03032 3.04294 -0.828948
0.927447 2.27164 3.00732
1.4686 4.13298 0.50214
1.2607 3.64059 -0.253919
1.18672 2.93177 -0.554279
1.30617 3.41228 2.69929
1.26978 3.09562 -0.235129
1.2867 1.96582 -0.202748
-0.0155942 1.41282 -2.5171
-0.998081 3.97275 -1.17925
1.03394 3.26234 -0.816552
1.07983 2.4815 2.79211
-0.593674 1.37764 0.0570671
-0.698962 2.96906 0.151491
-0.464448 1.53358 0.473442
1.26764 4.15087 0.239521
-0.271488 3.88541 0.622929
-0.779001 4.61504 -0.357114
-0.65818 1.9145 0.0827736
1.31147 4.65143 0.302216
-0.821406 3.29798 -0.362913
-0.307314 2.73871 0.749905
-0.98146 3.5206 -1.14694
0.917405 2.83701 -1.24191
1.23738 2.64701 -0.540909
1.21962 1.48458 -0.55467
-0.510721 2.33426 0.463163
1.29656 3.19111 -0.171094
1.95858 3.9695 1.17237
1.23757 4.73484 -0.244211
-0.621643 4.87456 -0.0789375
-0.522062 3.28879 -2.31449
-0.9514 3.21757 -0.879415
0.925775 3.15499 -1.18891
1.2331 2.49552 -0.531846
0.960285 2.95053 -1.04784
-0.761708 4.28231 -0.240251
1.20984 2.20863 -0.55498
-0.593878 1.86314 -2.33317
-0.218949 3.23459 -2.46032
-0.579785 3.47919 -2.29265
1.2586 3.7155 0.19834
-0.291746 2.01904 -2.46298
-0.682667 2.69111 0.146083
2.069 3.48798 1.37536
1.21384 3.36275 0.169043
1.44643 2.50577 2.651
-0.693212 3.52924 0.0537102
0.994727 4.41881 -0.725614
-0.0597833 1.34607 -2.50995
-0.797816 2.4646 -0.412626
1.16038 1.95752 -0.67417
-0.593801 4.34554 0.231493
1.03051 4.60675 -0.652326
-0.695023 1.32144 -0.43269
1.21375 4.72955 0.193851
-0.413856 3.89816 -2.32277
1.82832 1.46677 2.42777
-0.44772 1.57164 0.513373
-0.373683 1.88724 -2.43321
1.45781 3.09337 0.485987
-0.685514 2.08572 0.0184784
1.71965 3.08339 0.824359
-0.685475 1.78691 -0.124629
-0.666063 4.07507 0.0728135
-0.638434 2.8098 0.286397
0.463066 3.46931 -2.58101
-0.953024 2.36734 -1.42853
-0.485828 1.39841 0.414281
0.28542 3.35636 -2.55523
-0.792694 4.36506 -2.17786
-0.515906 2.03389 0.440749
-0.0059571 2.99823 -2.50573
1.16125 1.41653 2.77543
1.25085 1.72081 -0.32236
1.76206 2.53237 0.918428
-0.391763 4.08514 0.505093
-0.65605 3.74205 0.137144
1.35016 1.33368 -0.19887
2.24613 4.18145 2.03918
1.21949 2.28187 -0.464895
-0.261006 2.21551 -2.46539
-0.877164 3.02096 -0.628451
-0.695055 1.47495 -0.319661
1.67492 3.16757 2.51745
1.24116 1.0746 0.159508
1.14058 3.46997 -0.59811
-0.718013 2.0521 -0.166375
-0.237051 4.50297 0.530172
-0.856614 4.62547 -0.65118
1.82629 4.08181 2.4135
-0.721299 4.3963 -0.122766
-0.942157 4.06892 -0.947093
1.23208 1.60826 0.241527
1.21509 2.34588 0.00887499
-0.496382 3.54711 0.470918
-0.301642 1.94679 -2.45807
1.31595 3.52992 -0.136006
-0.853436 1.85575 -2.25194
-0.817972 3.57638 -2.21148
2.0956 4.30594 2.17516
1.06569 4.34415 2.82219
-0.63394 1.53598 0.0211739
-0.388283 3.51748 0.583032
-0.704793 3.80696 0.0129718
-0.565956 2.75819 0.403428
-0.573686 2.09283 0.329474
1.04578 1.79902 -1.21553
-0.696914 2.2973 -0.0515054
-0.435734 3.6181 0.520989
1.26428 3.2801 0.230804
-0.28503 3.52035 0.655558
-0.712973 4.36931 -2.19519
-0.713323 2.9029 0.0453067
-0.535182 3.93163 0.351537
0.611791 2.60318 -2.61168
1.22091 2.29343 -0.581754
1.63734 1.93921 0.753792
-0.665385 1.41775 -0.212619
-0.593551 1.29673 0.10572
-0.976994 2.95026 -1.1082
-0.581182 1.60961 0.256222
-0.696814 1.37132 -0.398704
-0.429234 3.99671 0.484655
2.32583 2.82896 1.89958
-0.332793 3.07894 0.678454
-0.534207 3.45484 0.417934
-0.943739 2.84568 -0.899151
1.47448 2.01695 0.53921
1.20026 4.58251 -0.418841
-0.767947 3.88742 -0.174692
-0.376271 4.21973 0.488758
-0.464195 3.47711 0.504167
1.17536 4.20564 -0.456121
1.55573 4.04322 2.59783
-0.443945 3.83099 0.475164
-0.579707 2.4286 0.368022
-0.992725 2.80659 -1.51879
-0.469594 1.96935 -2.39809
1.23053 3.45088 -0.386923
-0.435347 1.4483 0.505577
-0.725442 1.51332 -0.499048
-0.556702 1.31748 0.265323
-0.703037 2.75477 -0.0127411
1.24357 3.585 -0.352371
-0.782306 2.83129 -2.2312
1.57847 1.80669 2.58183
0.899508 4.46393 -1.04986
-0.706797 3.07223 0.0259552
2.25237 1.33323 1.83605
-0.671699 3.15008 0.190997
-0.861774 1.7514 -1.28648
-0.627935 3.431 0.278004
-0.568955 3.13247 0.3625
0.976308 4.72027 -0.718267
-0.353188 2.4139 0.661166
-0.694279 3.77454 0.0448775
-0.594456 3.51346 0.321244
-0.990267 3.25921 -1.13734
-0.52344 3.03125 0.45422
0.0284787 2.44253 -2.48278
-0.878279 2.3356 -0.734496
0.971273 3.29577 -1.11809
-0.743724 3.17594 -2.22161
-0.699368 2.72026 0.0476326
-0.70376 3.53601 0.0150668
-0.217456 4.70328 0.451294
-0.336299 2.99561 0.688454
-0.515129 1.57572 0.379837
-0.350047 4.50386 0.497308
-0.812672 3.79045 -0.272217
1.20298 1.56114 0.208388
1.09384 4.71138 -0.56403
-0.375907 2.11058 0.656164
-0.354925 2.63445 0.732258
-0.704389 3.26656 0.126661
-0.283787 4.70158 0.437573
1.60265 3.25635 0.678562
-0.634546 1.62079 0.122306
-0.538862 1.79521 -2.37412
1.30632 1.96793 -0.149736
1.17073 4.46151 0.125615
-0.813086 3.13753 -0.229089
-0.543256 3.02388 0.407536
1.59794 2.85942 2.57505
-0.270638 1.45812 0.691623
-0.682817 2.10674 0.0486425
-0.429191 3.13544 -2.36379
-0.348077 4.03818 0.541842
0.595355 4.28662 -2.63641
-0.580037 1.67527 0.27301
-0.699742 4.55435 -0.0862076
0.933496 2.18355 2.98718
1.9649 4.42793 1.18902
0.589672 3.40343 -2.60661
1.00763 3.08365 -0.905322
1.74116 3.24698 0.874287
0.92322 2.63455 -1.31171
-0.879423 2.83743 -2.24075
1.24574 4.18127 -0.310204
-0.537754 2.27503 0.42343
-0.448476 2.81104 0.558895
-0.403452 3.36173 0.567481
1.99543 1.61442 2.28268
-0.992972 3.20075 -1.33002
-0.687713 2.02522 -0.0248221
1.65418 2.768 0.75184
-0.550529 1.65319 0.330959
1.23658 1.23911 0.254158
1.8196 2.133 2.42036
1.26364 3.64668 0.208503
-0.452531 4.78821 -2.45162
-0.717576 2.65757 -0.0739317
1.25808 3.76436 -0.249783
-0.4898 3.19879 -2.32531
-0.625853 3.62714 0.220916
2.03099 3.48417 2.26524
-0.514655 4.77235 0.21997
-0.994835 3.51211 -1.33941
1.26853 4.31797 0.245641
-0.561019 2.14689 -2.3642
1.7146 3.67796 0.860416
-0.291223 3.43502 0.6501
1.25022 2.26623 -0.316486
-0.572081 2.26658 0.364195
-0.211392 3.93536 0.649395
-0.574472 2.99812 0.351524
-0.719973 4.12878 -0.145189
-0.407838 2.07594 0.613025
-0.47473 1.68955 0.486679
-0.473835 1.57345 0.471036
-0.480091 2.99151 0.550589
1.99043 1.95728 1.32192
-0.845639 4.04314 -0.524258
-0.89983 4.10525 -0.756238
-0.960778 2.49329 -1.40289
-0.139036 3.88854 -2.4784
1.08325 3.73264 -0.661608
0.92264 4.07585 -1.04387
1.23153 3.1133 -0.38652
-0.812553 3.00803 -0.283899
-0.692449 2.26285 -0.0233508
-0.704733 3.48386 0.00621782
-0.525164 2.3039 0.44105
-0.408452 1.91684 0.60138
1.13541 1.58176 -0.899167
-0.401201 2.36148 0.634187
-0.526684 1.53757 0.326799
1.22654 4.1795 -0.356986
2.02985 2.77405 2.20304
-0.612813 1.85001 0.20146
1.08483 1.9875 -0.904296
-0.826464 1.54952 -1.40503
1.30422 1.70404 -0.224293
-0.606255 2.5204 -2.2544
-0.147909 3.77071 -2.48665
2.24274 3.45488 2.0414
-0.225144 2.89298 -2.45559
1.27984 4.67182 -0.147127
-0.343927 1.89296 0.663476
1.15456 1.63257 -0.638486
-0.523389 3.73328 -2.28585
-0.584205 2.29655 0.347532
1.74958 4.37193 2.42539
-0.851474 4.69406 -0.690921
1.24158 1.54643 0.25724
-0.811847 4.37002 -0.367121
2.24813 3.61989 1.64739
-0.578682 3.41112 0.359792
-0.635815 3.0938 0.248136
1.22226 1.35194 2.72498
-0.645269 1.50002 -0.0778909
1.80025 3.98876 2.42324
1.2319 4.67873 0.2018
1.26729 2.187 0.244055
-0.652022 1.8173 0.03404
-0.67557 1.60728 -0.13515
0.0323441 2.64488 -2.51111
-0.80656 2.80982 -0.3184
-0.287356 3.39923 0.651443
1.30946 1.09834 -0.120638
-0.742733 1.31076 -1.02982
-0.729278 2.50078 -0.0897441
-0.525922 2.5771 0.49615
1.2504 4.00871 0.207927
-0.677183 4.74128 -0.12992
1.29873 2.20407 0.292583
1.30065 2.62802 -0.152149
-0.651945 1.65317 -0.00388456
-0.263108 4.18152 -2.45883
-0.992975 3.37389 -1.59755
0.247705 4.12241 -2.51865
-0.613578 2.7866 0.319656
-0.505819 2.50209 0.516137
0.501361 2.90686 -2.58108
1.43262 2.12186 2.66633
1.5437 3.00818 0.615673
1.33491 2.87716 -0.117909
-0.0475302 1.59171 -2.51069
-0.623891 1.50622 0.0359927
-0.917754 3.81599 -0.725715
-0.732101 4.44455 -0.140769
-0.805269 2.93427 -0.249457
-0.599635 4.17967 0.2264
-0.821574 3.19813 -0.311834
-0.415567 3.45445 0.556029
1.01938 3.14775 -0.878671
-0.66973 2.08095 0.130399
-0.822014 3.15165 -0.301021
-0.359952 4.17839 0.514954
-0.670337 2.54897 0.186635
1.27139 2.99076 -0.234003
1.14207 2.96452 -0.657654
-0.575216 2.23316 0.355034
1.68258 2.06255 2.52233
-0.664066 4.22788 0.035932
-0.413242 2.20144 0.610153
-0.604197 3.57908 0.283799
-0.707995 2.00362 -0.13694
1.36148 1.50733 -0.198213
-0.294158 2.00959 0.776019
1.59935 1.55728 2.57598
0.327627 1.86418 -2.58535
-0.512396 1.5134 0.353263
0.372396 1.54782 -2.61184
-0.627415 1.54936 0.0887812
-0.11709 1.55266 -2.50226
0.0621823 1.96045 -2.50982
2.21947 3.3502 1.64437
-0.611998 1.47789 0.0555088
-0.655917 2.58903 -2.23157
-0.562717 2.92951 0.390064
-0.549027 1.92198 0.355203
-0.386906 3.9173 0.538663
-0.37652 1.47248 0.578694
1.24929 3.98192 -0.34813
-0.629442 2.08484 0.223065
1.28912 4.28647 0.27084
-0.575204 4.53243 0.211949
-0.694821 3.60188 0.0533053
-0.0125107 3.91772 -2.49104
-0.59193 1.79962 0.253455
-0.947574 2.69495 -2.2316
-0.707763 2.87724 -0.0466724
-0.552922 3.11901 0.386131
-0.7465 1.7715 -0.311648
-0.69665 3.44642 0.0447186
-0.29491 4.37785 -2.44756
0.273778 2.53056 -2.53359
1.79232 2.32785 0.975374
0.337316 3.82625 -2.54726
-0.384818 1.6574 0.585267
-0.480314 3.41626 0.479899
-0.567789 4.17511 0.290315
1.31468 4.29433 2.68605
-0.418281 2.63753 -2.41941
0.122614 2.43731 -2.47863
0.946977 2.21843 -1.32028
-0.708982 3.9443 0.00718519
0.339606 1.64664 -2.6131
1.02655 3.4882 2.7778
-0.774627 4.79241 -0.513817
-0.426013 4.48912 0.434422
0.274486 3.89614 -2.52898
-0.540666 2.41974 0.430263
-0.7694 4.22413 -0.255381
0.991173 3.62088 -0.862112
2.07934 4.03258 1.38379
0.884821 4.7163 -1.02872
-0.590711 3.37523 0.346607
2.19496 2.15501 1.61801
-0.641863 3.45149 0.241514
1.62321 4.40256 0.705955
-0.548121 2.72588 0.440678
-0.229326 4.02282 -2.45327
-0.298152 4.51285 0.514191
1.90464 2.96943 1.16193
-0.327728 4.78844 0.388476
-0.700283 4.64447 -0.141717
-0.705129 3.01076 0.0992106
1.25338 3.4223 -0.304082
1.75947 4.70362 0.898419
1.26366 2.03099 -0.309378
-0.310304 4.04764 0.563897
-0.456196 4.0016 0.452909
-0.709073 4.78268 -0.223594
1.74683 2.96106 2.47367
1.27753 4.24524 -0.193129
1.28057 2.78257 -0.21695
-0.724446 3.12508 -0.0695194
1.14968 1.45804 0.155798
0.393075 4.46279 -2.54477
1.45386 1.7466 2.6618
1.39314 4.56249 0.405797
1.90324 3.09556 1.15244
1.1002 1.38158 -1.26228
0.459486 3.23256 -2.58928
-0.427042 1.39295 0.514887
-0.909454 2.2278 -1.10036
-0.624376 4.72402 0.015738
-0.631607 3.60668 -2.24669
0.920393 2.67013 2.99708
0.917964 3.20315 -1.21302
1.2638 2.28 -0.251611
-0.419717 3.39856 0.548729
-0.233132 3.39957 -2.45968
-0.105038 2.85869 -2.48503
1.97964 3.65696 2.30752
1.82726 4.49501 0.995399
1.20033 4.41268 -0.431149
-0.646346 4.34157 0.101714
2.05714 2.5782 1.36549
-0.698944 3.1819 0.122627
1.19319 4.771 0.179623
-0.673093 3.37703 0.197461
0.598743 2.06571 -2.60968
1.22308 2.14547 -0.420341
-0.933016 2.42614 -1.12051
-0.761902 2.3875 -2.25053
-0.190795 3.69288 -2.47526
-0.577709 1.88406 0.287162
1.1814 3.12611 -0.552302
-0.609325 4.5576 0.13965
-0.702567 2.32997 -2.24881
-0.611193 1.27942 0.0274593
0.377355 3.96019 -2.56259
0.52463 2.76381 -2.58827
-0.858697 1.68697 -1.62789
1.56329 1.3441 0.737222
-0.113398 4.72359 -2.44191
-1.02847 4.17068 -1.84928
1.11045 1.5259 -1.0158
-0.529209 1.91758 0.399961
-0.39133 2.30279 -2.43603
-0.864963 1.73344 -1.43442
-0.369877 4.75676 0.377418
-1.00671 2.462 -1.99398
-0.370254 4.3634 0.482168
0.151507 3.53339 -2.51451
-0.711642 3.27412 0.0756315
1.09423 3.34009 2.73624
1.4826 4.46074 0.519923
-0.233766 4.73942 0.434897
-0.536615 2.33879 0.422001
-0.884418 1.92575 -1.21905
-0.469118 1.37721 -2.39125
1.83893 2.94779 2.41211
1.7459 3.17117 0.879107
-0.374295 4.73331 0.383614
-0.894357 2.00716 -2.18663
1.04492 1.66829 -1.33805
1.19836 1.80849 -0.447305
-0.415854 4.07186 0.487246
-0.697498 2.0069 -0.0931484
-0.707027 2.71099 -0.0507814
1.53549 3.20018 2.5849
-0.918193 2.14104 -1.62928
-0.504099 1.35854 0.376752
-0.681022 1.85171 -0.084074
0.0947083 3.44778 -2.5108
-0.322168 3.89788 0.591415
-0.351848 3.85375 0.57084
-0.471122 2.56053 0.557882
2.04352 1.53361 2.18929
-0.728142 2.37387 -0.165785
1.69604 3.55856 0.823348
1.17891 3.53262 -0.515528
1.25654 3.68809 0.194843
0.915524 2.35225 -1.25415
1.17435 1.84998 -0.525192
-0.59365 4.66292 0.138598
1.31851 1.38707 0.359875
1.57781 2.64672 2.57711
-0.440341 1.45165 -2.42823
-0.57189 3.38094 -2.29445
1.08346 2.99905 -0.744656
-0.708361 3.98382 -0.00651603
1.16102 4.77649 0.111861
-0.509762 4.86825 0.155463
-0.117992 4.39551 -2.47077
-0.423125 3.96389 0.496183
-0.710619 3.39844 -0.000375176
-0.526367 3.26581 0.426713
-0.645937 4.13928 0.103771
1.19429 2.71461 0.176781
1.72347 3.49237 0.865578
-0.500027 1.74286 0.446821
-0.856665 4.18404 -0.573211
-0.160128 2.44965 -2.46635
1.01566 3.82324 0.0504963
-0.585885 4.01956 0.260129
1.0049 4.25995 -0.79359
-0.434365 4.26563 0.42079
-0.497793 2.96984 0.520366
-0.751017 2.86613 -0.161266
-0.335432 4.46483 -2.41519
-0.500997 1.53471 0.391382
1.22121 4.49342 -0.369595
-0.973382 2.54144 -1.60087
-0.579139 4.14889 0.267482
1.34418 1.76677 0.378999
0.414118 2.40208 -2.58087
1.42964 2.79748 0.416135
0.201897 2.97623 -2.52777
1.5807 2.75745 2.58099
1.28372 2.32924 -0.102401
1.93345 1.60925 1.27412
1.94223 2.64488 2.32069
1.33757 3.25175 -0.100202
-0.697463 1.91739 -0.125023
-0.815316 3.43047 -0.311027
-0.89189 4.80534 -2.29531
0.899951 3.51902 -1.23229
1.14293 1.46683 -0.963668
1.2578 3.27646 -0.32404
0.688778 3.51202 -2.63197
0.99099 4.0502 -0.861481
-0.613049 2.33895 0.310876
1.96655 3.41718 2.31432
1.42012 4.70321 0.449727
-0.606626 4.00278 0.229418
-0.751954 1.68075 -0.420143
-0.772598 2.22083 -0.362216
1.5322 3.86381 2.60404
-0.824654 4.49466 -0.454528
-0.969975 4.4948 -1.30136
-0.693972 2.29879 -0.0201868
1.90102 2.713 2.35876
-0.467487 2.94972 0.562783
-0.411093 2.83276 0.598574
1.07639 3.17105 -0.750883
1.31524 3.89806 2.7061
-0.882005 1.80392 -1.66265
1.00215 4.67085 -0.692152
-0.550018 2.36966 0.403501
0.944943 4.74718 -0.790402
-0.805045 2.58104 -0.36018
-0.27885 2.56963 0.788461
1.24585 2.81093 -0.420358
0.977419 3.81777 -0.950159
1.03936 1.86307 -1.20521
-0.502155 4.82485 0.202002
-0.956612 3.95676 -0.954257
-0.528644 3.86117 0.368323
2.02128 2.21729 2.25455
1.7231 3.0813 2.49314
0.121154 1.79379 -2.50196
1.1068 4.51821 -0.563609
-0.613398 3.07764 0.283203
1.40512 3.2056 2.64192
1.22291 3.26305 0.170697
1.28622 2.46385 -0.143896
-0.199903 4.11189 -2.46988
0.988567 3.15844 -1.03958
2.1375 1.5109 2.09942
1.24364 3.05588 -0.322518
-0.798837 4.2736 -2.18253
-0.513444 3.18277 0.44444
1.35834 1.30075 -0.141936
1.25838 2.33481 -0.25973
-1.00821 3.1408 -1.75763
1.41635 3.39895 2.65213
0.62022 3.24414 -2.61453
1.26115 3.69096 -0.232127
-0.36556 3.06511 0.659968
-0.920842 4.21855 -0.87019
-0.934547 4.69483 -1.20268
-0.567511 2.70397 0.407925
-0.595012 3.62381 0.292353
1.40452 1.70744 0.448859
-1.00109 2.88481 -1.39224
2.18154 3.40498 2.13462
0.301669 2.1728 -2.58336
-0.435382 3.42923 0.532167
-0.601113 3.42071 0.325949
-0.684037 2.5194 -2.23106
1.27931 3.96601 0.24502
-0.201891 2.69386 -2.47405
-0.290219 3.99253 0.590082
1.7225 2.70044 0.856016
1.22066 4.5984 -0.348751
1.34025 1.90604 0.377941
-0.635898 4.67196 0.0115192
-0.246354 1.71399 -2.46819
1.37761 1.50443 -0.110887
-0.23903 4.75867 0.426856
-0.544312 4.14448 0.32697
1.27335 4.01002 -0.285974
-1.00862 3.97286 -1.30856
1.42338 3.19903 0.440542
-1.0122 3.63788 -1.54788
-0.344452 2.54697 -2.45827
-0.308745 3.23673 0.65723
-0.932342 2.37749 -1.16081
1.37059 1.3432 -0.122249
0.711478 1.70357 -2.56457
1.55501 3.91164 0.660287
1.42641 3.64225 0.439177
1.23045 4.63179 -0.304863
-0.579891 2.51762 0.385566
-0.653442 4.81804 -0.113444
-0.289227 4.59083 0.4845
0.384227 2.64346 -2.59653
1.28106 3.85281 -0.15962
1.24282 1.68152 -0.347478
-0.421487 2.51049 -2.42048
-0.33268 4.7699 0.394272
0.103764 4.21847 -2.51319
-0.282646 2.31577 0.782878
-0.813046 2.42649 -0.505663
1.21619 1.17824 -0.562791
-0.509644 2.1955 0.473312
-0.780526 1.92272 -0.408043
-0.0270881 2.90175 -2.50308
1.27443 3.86822 0.231734
-0.672464 2.50402 0.189089
-0.652917 4.69471 -0.0451288
-0.630973 2.48647 0.289336
1.28454 4.18445 -0.175923
1.34929 3.4855 -0.0814347
-0.68858 4.26825 -0.0738086
-0.670698 4.22699 0.00212645
-0.595363 3.28171 0.344572
1.32483 3.41688 -0.109816
1.30969 4.0834 2.70463
-0.587789 3.86566 0.285502
-0.351915 3.22029 0.634604
-0.70954 2.96633 -0.0271676
-0.786801 1.7929 -0.605769
-0.648089 1.65988 0.0261211
-0.43536 4.53802 0.408096
0.730804 2.1648 -2.58112
-0.895468 1.91442 -1.63424
1.9805 4.40325 2.25296
-0.518717 4.23689 0.354851
-0.601468 4.53497 0.164569
1.27241 3.89931 -0.251673
1.44979 4.68257 0.485228
-0.427095 3.01087 0.613739
1.36824 3.21434 0.364192
-0.453555 4.43067 0.395046
-0.260844 3.30886 -2.45569
-0.978435 3.06097 -1.06307
1.93473 2.79018 2.31928
-0.680705 2.16208 0.0785609
-0.644759 2.23889 0.232725
1.70929 1.8071 0.879694
1.15893 2.91138 0.129634
-0.597233 2.5867 0.352326
1.1995 2.13247 -0.561042
1.20884 2.50042 0.163252
1.31154 2.69356 -0.1328
1.26387 1.97924 -0.305653
-0.878943 3.58199 -0.525987
1.27568 3.89509 0.235306
1.76053 1.50506 1.00875
1.40222 2.41773 2.67461
1.27179 1.87395 -0.268023
1.07213 3.84336 -0.690009
1.9357 4.48135 1.14263
-0.0620564 2.65876 -2.49485
-0.691651 2.35771 0.118003
1.31046 1.5846 -0.262965
1.37471 1.28146 -0.08849
-0.568326 2.57808 -2.26537
2.31431 3.28799 1.93146
-0.906819 2.33369 -0.954488
-1.0218 3.74814 -1.71958
-0.814786 3.35382 -0.29778
-0.279597 4.44842 0.534751
1.59336 3.10156 2.56594
-0.644011 4.39755 0.0969872
1.11414 1.72507 0.0875996
-0.779196 2.62653 -0.187102
-0.723793 2.16897 -0.189415
0.459618 4.08985 -2.56095
-0.163096 3.0179 -2.47415
0.94693 3.81706 -1.04289
-0.693032 3.23203 0.163624
1.49262 2.41278 2.6303
1.16236 2.76989 2.74279
-1.00737 3.27539 -1.78862
1.18269 1.62671 -0.541619
1.315 3.92677 0.289712
-0.772482 4.76292 -0.457801
-0.833134 2.10685 -0.634445
-0.467096 1.87017 -2.39483
-0.750903 3.04244 -0.135535
2.20677 2.7248 1.61737
0.948684 4.01706 -0.998118
0.554486 4.04238 -2.58307
-0.847692 2.248 -0.636389
1.42575 2.99306 2.64318
-0.823541 1.54032 -1.49615
1.38091 1.42884 -0.0735463
-0.65402 2.39283 0.258464
1.82387 2.77279 2.41513
-0.349378 2.25962 0.712363
0.885537 4.2903 -1.21485
-0.483531 4.36924 -2.32761
-0.384735 2.96533 -2.37803
-0.273183 4.04762 0.590007
-0.590471 2.91406 0.349539
-0.791737 2.35471 -0.388991
-0.350583 1.95552 0.696357
-0.384386 4.76363 0.362474
1.1961 2.11917 -0.64955
-0.916014 3.2073 -0.764357
-0.801488 3.77788 -0.225611
-0.336229 4.76634 -2.45864
-0.258963 4.76573 0.420574
-0.758516 1.56049 -0.611222
-0.69756 1.71267 -0.188469
1.85701 1.56321 2.42372
1.91728 1.49998 2.37222
0.0661405 1.4509 -2.52817
-1.0189 3.52267 -1.8137
-0.251696 3.63125 -2.44605
-0.892453 2.3793 -0.7977
1.95212 1.45442 2.31424
1.24154 2.62937 -0.428867
1.55905 3.58974 2.57275
-0.515129 4.473 -2.28126
-0.972589 2.45372 -1.71965
0.46046 3.71165 -2.57321
-0.265064 4.25464 0.570627
-0.567669 4.21357 0.291471
-0.696047 4.31304 -0.085951
0.0639891 3.23082 -2.49012
1.1374 4.78629 -0.385434
1.30795 3.35409 -0.083122
-0.648416 2.09452 0.187356
-0.709099 2.82713 0.104699
-0.812899 3.05016 -0.2459
-0.801761 1.65524 -0.759968
-0.811155 3.99103 -0.380948
2.04064 3.61147 2.25582
-0.218408 4.90221 0.339707
0.741831 3.06845 -2.65458
-0.494737 2.41156 0.5047
-0.803704 4.10767 -0.353513
-0.451641 1.69596 0.516438
-0.541566 1.48789 0.270534
-0.70652 2.81583 0.00210663
-0.443985 1.95016 0.566114
1.52246 1.54104 0.636767
-0.617375 1.75958 0.191526
0.505033 2.10928 -2.61555
1.66941 2.15857 0.783282
0.702121 1.31306 -2.58568
-0.472006 4.68536 0.303389
1.95831 3.67573 1.1718
-0.208817 4.73223 0.44112
1.16927 2.854 0.14243
1.42172 1.4006 0.4928
1.05235 3.65945 -0.738323
0.997774 4.60375 -0.708379
-0.595703 1.4487 0.0894641
1.68146 4.45583 2.45747
0.58317 3.05138 -2.61001
-0.919467 4.81438 -1.32568
-0.530811 3.32965 0.422178
-0.460638 3.02882 0.577055
-0.596712 1.31774 0.0644171
2.05049 4.41647 2.18072
0.102504 2.99119 -2.51684
1.2952 4.60834 2.60418
-0.935149 2.76853 -0.886343
-0.753814 4.81436 -0.418624
-0.623898 1.64509 0.172874
2.31398 4.67987 1.92072
-0.647959 4.29096 0.10146
0.93832 3.00559 2.82485
-0.635568 1.65484 0.128705
1.69931 3.71891 0.836479
-0.715217 3.64232 -0.0251458
-0.33108 2.33503 0.737285
-0.590237 1.72224 0.256835
-0.944945 3.55999 -0.870111
-0.660347 1.98818 0.13259
-0.299329 2.62146 0.784015
1.72897 2.60081 0.869488
-0.80242 3.42832 -0.235739
-0.857011 2.45962 -0.612274
1.08616 4.21465 -0.662898
-0.558721 3.57657 0.376021
-0.421672 2.49532 0.606826
-0.648118 2.96217 -2.26476
0.32969 2.05703 -2.6054
-0.861238 2.01904 -0.781701
0.114748 3.30117 -2.50316
1.03329 1.78315 -1.28753
-0.866316 4.095 -0.608196
2.02235 2.37813 2.2651
-0.387198 2.05077 0.652464
2.19692 2.42244 2.08295
-0.904178 4.45937 -0.80286
1.14155 2.02731 0.107893
-0.240982 3.46172 0.675916
1.44726 2.44397 0.467021
1.04639 4.06561 -0.696287
-0.807727 2.65392 -0.299821
1.41317 2.88944 2.64761
-0.707853 2.34598 -0.112092
-0.712316 3.58204 -0.017466
-0.409075 3.16544 0.605728
-0.658365 4.40129 -2.2157
-1.01926 3.33883 -1.84532
1.42271 1.4405 2.64549
1.22418 2.38424 -0.452476
1.41668 2.79055 2.65921
-0.643104 4.58674 0.030395
-0.688848 4.34045 -0.0516221
1.20895 1.14743 0.169087
-0.82454 4.69329 -2.25466
-0.793888 3.89135 -0.24908
-0.572719 4.85197 0.0473312
1.32354 1.20984 -0.202048
-0.683626 4.29769 -0.0454368
1.3719 1.65732 -0.124947
1.22622 2.13159 2.74118
-0.558669 2.23363 0.386904
1.27782 4.5862 -0.161201
1.07222 3.38921 -0.700694
-0.604027 1.40809 0.0237449
-0.492683 3.1755 0.476485
1.15721 4.68963 -0.458326
1.25592 3.61277 0.201155
-0.476662 1.61181 0.477354
-0.561253 3.514 0.379288
-0.592704 4.78401 0.0579737
1.21072 3.37725 -0.461531
-0.631283 4.11291 0.147238
1.03329 2.8845 -0.828137
-0.628399 2.37891 0.295669
0.920131 2.10196 3.00155
-0.690966 3.39804 0.108546
0.22399 2.42649 -2.49156
-0.381157 1.50775 0.579585
-0.833171 3.61724 -0.340964
0.889985 4.10309 -1.1502
-0.838698 4.78102 -0.760352
-0.670814 3.25219 0.219916
-0.803169 2.95905 -0.406172
-0.681743 4.21608 -0.0513189
1.54559 4.55021 0.610285
-0.983225 3.78484 -1.12184
0.872242 4.48025 -1.23764
1.18404 3.36201 0.126645
-0.714774 3.87087 -0.0223298
-0.628648 4.15442 0.151351
-0.705542 3.07393 0.0614841
-0.569227 4.82242 0.0819344
-0.885432 2.44305 -0.737285
-0.634548 1.64742 -2.38814
-0.598838 2.39931 0.335298
-0.126449 3.52424 -2.47643
0.967526 4.55597 -0.792354
-0.642668 1.62722 0.0652813
-0.70731 1.41086 -0.483205
1.72634 4.17731 0.856254
1.24402 2.40779 -0.364935
-0.804372 2.60004 -0.286017
-0.737636 1.3713 -0.744493
-0.688405 3.94006 0.0825498
-0.681056 1.6758 -0.126984
-0.769969 2.15688 -0.380416
0.738667 2.05378 -2.57625
-0.637292 1.72648 0.114811
-0.545657 1.83546 0.363666
-0.298877 3.93688 -2.41151
1.25046 2.89081 -0.35246
-0.8246 4.00928 -0.44568
0.427589 4.30185 -2.56388
-0.998919 4.11817 -1.46788
-0.99424 3.99799 -2.12757
0.906263 2.91349 -1.43856
1.1896 3.46409 0.130859
-0.610488 3.51827 0.288426
-0.502757 4.66375 0.2785
1.1442 1.86718 -0.792665
1.52912 3.54862 0.596933
-0.619675 3.5464 0.259196
-0.991875 3.44383 -1.38842
-0.50294 3.43563 0.455163
2.18772 4.13666 2.09023
1.04904 3.60368 -0.747917
-0.797076 2.48283 -0.343193
-0.933717 3.48995 -0.812392
-0.952501 4.60579 -1.24674
1.19019 1.97705 -0.481366
1.235 1.11973 0.2024
-0.417113 4.35429 0.430853
1.44698 4.61668 0.47821
-0.715387 3.28008 0.0344386
-0.670861 2.00857 0.103404
1.24479 3.81631 -0.347326
1.25766 4.69039 -0.214277
0.441311 3.11821 -2.58044
-0.368903 3.36356 0.599712
-0.322035 3.17898 0.663088
1.23591 2.46219 -0.426132
-0.254671 1.69766 0.787222
1.16114 1.80137 -0.600306
1.80851 1.62293 2.45147
1.17482 1.75519 0.148234
1.25962 3.87339 0.208137
1.41976 2.89146 0.403348
-0.686771 2.91016 -2.247
-0.582452 4.06728 0.258176
-0.3254 1.35879 0.622311
-0.556096 2.89494 0.409815
-0.611935 1.89113 0.208019
1.67266 1.48909 2.52354
1.54641 1.92661 2.61026
2.14982 1.66795 1.58009
-0.303116 2.99069 0.711904
1.65295 4.63553 0.750003
-0.585681 1.84328 0.267322
-0.598929 1.50299 0.147933
-0.621223 4.39983 0.160012
1.19652 4.0324 -0.434554
-0.77233 2.19384 -0.40116
-0.36847 4.40676 0.491309
0.474958 2.22494 -2.60985
2.27388 1.48805 1.91315
2.17061 2.23705 2.10734
2.2366 4.13663 1.64516
1.0388 3.95441 2.80415
1.27829 2.05058 -0.255149
1.89311 1.96047 2.37354
-0.884308 2.53525 -0.712357
0.641399 1.90186 -2.58451
1.89421 4.71727 2.35161
-1.01531 3.88961 -1.31706
1.25065 2.70326 -0.346951
0.285532 3.99623 -2.52685
1.38276 3.31325 2.66597
-0.274028 4.48482 0.527966
-0.633885 1.39701 -0.0697591
1.69032 2.41264 0.796632
-0.65613 1.42237 -0.151575
-0.909947 2.60836 -0.884766
-0.573831 3.76132 0.313787
-0.687701 2.28609 0.076297
-0.971539 3.59568 -1.12201
-0.257545 4.44875 -2.43731
-0.878922 4.77638 -0.966334
1.25186 3.76087 0.186992
-0.658601 1.54823 -0.101574
1.19323 1.85781 -0.463175
-0.674264 1.9549 0.0253704
-0.361058 3.10486 0.656708
-0.603448 1.27996 0.0657094
0.883477 1.38578 -2.67169
-0.83297 2.54916 -0.532273
-1.02191 4.06556 -1.84759
-0.696718 2.74452 0.110491
1.13583 1.9851 -0.783486
-0.888763 4.60723 -0.784355
-0.146142 2.22485 -2.48501
2.2225 2.70354 2.06213
-0.825229 1.78131 -2.29931
1.26018 2.08502 -0.320991
1.5153 2.92197 2.62114
-0.818372 3.34737 -0.335214
-0.879073 2.22448 -0.782328
-0.495802 3.02683 0.522864
1.45691 1.2876 0.575509
1.69512 1.43272 0.911325
-0.515805 4.03927 0.364954
2.07774 4.09282 1.38231
0.979225 3.68756 -0.887112
2.30568 3.82158 1.71384
-0.674751 3.91046 0.119147
-0.421082 3.60871 -2.37326
1.2159 4.6164 0.167153
-0.46455 2.22564 0.543326
1.12269 3.60642 -0.601632
0.305208 2.91577 -2.56146
0.724243 2.4719 -2.63267
1.02388 3.97213 -0.826052
-0.552486 4.80256 0.136892
-0.588604 3.66047 0.298909
1.86471 2.22624 2.38177
-0.980625 3.45939 -1.08403
0.882312 3.03297 -1.39983
-0.559123 4.51631 0.238496
1.16264 3.0868 -0.601018
-0.941428 4.62551 -1.1446
-0.788374 1.41813 -1.10969
-0.790485 4.20388 -0.310258
-0.702922 2.74958 0.0198868
-0.377782 4.13946 -2.37454
-0.700977 3.57067 0.0282492
-0.728916 4.57796 -0.186314
-0.511539 4.28132 0.352594
1.22764 4.53689 -0.339418
1.56583 4.06176 0.649314
-0.692207 1.83563 -0.134399
-0.683781 1.60721 -0.175477
-0.659739 3.57932 0.14839
0.927812 2.74905 -1.20651
-0.661523 4.48591 0.0214644
-0.748631 1.36689 -0.912916
-0.439858 4.80739 0.28369
-0.83105 3.56116 -0.360901
-0.622763 2.43138 0.304264
-0.690743 1.32504 -0.366395
-0.91934 3.18316 -2.207
-0.878298 3.95252 -0.63093
-0.794181 3.9319 -0.26579
-0.468333 2.63076 0.547341
1.58137 1.48613 0.734353
-0.688599 2.57533 0.10453
1.23864 4.67605 -0.266784
-0.760629 3.12957 -0.13374
1.20041 3.10923 -0.49643
1.03056 1.78656 2.84559
1.34944 1.19153 -0.0956103
-0.527446 2.7195 -2.28828
1.30017 4.0258 -0.160228
1.27633 2.73059 -0.221152
-0.689848 1.41776 -0.335594
-0.624183 1.36393 -0.0420725
-0.533949 4.75251 0.20547
-0.57837 1.32574 0.161627
-0.674706 1.42618 -0.267494
-0.410351 4.705 0.362457
2.23306 4.41897 1.64541
-0.851714 4.63071 -2.22482
1.83419 3.48648 2.41721
-0.719055 1.46141 -2.34395
0.563226 1.46038 -2.5845
-0.971906 2.57008 -1.47545
-0.271027 2.32288 -2.45762
1.14759 4.43683 -0.523082
1.21834 3.73612 -0.425752
-0.974925 2.729 -1.19772
0.570825 3.96019 -2.57372
-0.560117 1.48483 0.231025
1.20142 3.22601 -0.510341
1.65506 1.52874 0.821535
-0.920108 4.3646 -0.87081
1.15427 3.30348 0.0926189
-0.955088 3.54496 -0.936404
-0.471646 1.43224 0.437707
0.953809 3.36087 -1.13461
1.25355 3.60981 -0.29755
-0.676939 1.94229 -0.00619313
1.27102 2.53198 -0.224101
1.02328 1.74707 -1.36465
-0.34779 4.66099 -2.40543
-0.00119826 3.48513 -2.49143
-0.357414 4.31828 -2.42133
1.01175 3.51745 -0.824433
1.26272 1.46436 -0.490341
1.77922 3.29994 2.45279
-0.418156 4.77714 0.32288
-0.666215 1.76393 -2.34576
-0.567448 2.31222 0.373715
-0.696362 2.86847 0.190319
-0.386216 2.9678 0.649667
2.11352 1.99667 2.14877
-0.903582 3.48955 -0.69187
1.13326 4.68452 -0.522652
-0.535692 1.96669 0.387358
-0.719081 3.54023 -0.0447969
1.43958 2.24373 0.497875
-0.554631 1.77315 0.340432
2.04926 3.31658 1.35385
1.26721 4.76243 -0.155522
2.07679 3.97574 1.37659
-0.665857 3.05632 0.202467
1.20653 1.43801 -0.605385
-0.596295 1.47256 0.116301
-0.608301 2.14186 0.274096
0.963389 3.87152 -1.00008
-0.433797 1.89843 0.557665
1.18602 2.90724 0.159203
-0.630363 3.91243 -2.24083
-0.40443 1.62115 0.5695
0.912162 4.27847 -1.06897
1.26466 3.93688 -0.302509
1.29128 3.40903 -0.179947
-0.347486 2.91231 0.682718
-0.688781 3.18586 0.162382
-0.857828 4.33311 -0.61391
1.201 4.28621 0.159458
-0.916935 1.84096 -2.03465
-0.772038 1.85818 -0.477586
0.181057 3.61772 -2.5144
-0.591732 3.75536 0.281027
-0.836837 1.86518 -0.961174
-0.684721 2.47566 0.147299
-0.767633 1.80721 -0.436152
-0.531436 1.42437 0.278551
-0.379901 3.31719 -2.42277
-0.848819 2.73175 -0.552578
1.27605 4.45909 0.258641
-0.88798 3.69246 -0.559455
1.23123 4.23128 0.192618
2.14097 2.30794 2.14175
-0.458993 3.96991 -2.30445
1.57773 1.05231 0.728293
-0.290952 4.64631 0.457312
1.21008 1.48359 0.224203
-0.700327 2.70433 0.016364
-0.695857 2.43004 0.0717576
1.28635 4.58888 0.266105
-0.640954 1.54933 -0.00781133
-0.498674 1.90004 0.458397
1.20316 3.16691 -0.496028
