-0.802257 0.435635 4.13379
-0.333344 0.675251 4.31767
0.375272 0.938251 4.61306
1.44324 0.720988 4.27403
-0.919249 0.405565 3.73637
1.64188 0.794219 4.56938
0.0779061 0.880545 4.4961
0.162681 0.945841 4.53345
0.729474 0.0959054 3.72035
0.809192 0.0562784 3.74269
1.15916 0.656713 4.24715
-0.269845 0.451243 3.92464
-0.342131 0.476992 3.98204
-0.902617 0.437724 3.97143
0.801315 0.103996 3.77158
0.937117 0.061869 3.84915
0.393582 0.102643 3.79035
-0.917469 0.407188 3.75146
0.317609 0.0339284 3.60885
-0.811441 0.436125 4.01919
1.54393 0.73401 4.66649
1.33756 0.598389 4.71633
1.35571 0.643446 4.67253
0.612322 -0.0437652 3.6187
-0.219886 0.437255 3.93142
-0.680686 0.43012 3.92728
-0.909941 0.394613 3.74213
-0.398342 0.490622 3.99931
-0.88908 0.458944 4.0247
0.375507 -0.0261927 3.57882
0.626457 0.698969 4.59651
0.653631 0.09042 3.80918
1.4663 0.648058 4.24812
0.538666 0.0282673 3.67021
1.42388 0.66697 4.36013
-0.546333 0.387848 3.82834
1.38579 0.718927 4.69099
0.536715 0.0204688 3.66252
-0.0895831 0.0273807 3.7075
-0.298774 0.440948 3.90458
1.42364 0.721272 4.62599
1.46799 0.774123 4.65244
0.0812141 0.917915 4.51746
0.693863 0.0345361 3.67115
-1.11056 0.409931 3.64291
0.0389045 0.925379 4.5251
-0.998484 0.414968 3.72937
0.819911 0.654157 4.29392
1.47741 0.751519 4.59689
0.169378 0.965401 4.55184
-0.817732 0.431593 4.0565
0.0407386 0.892238 4.4923
1.45392 0.731531 4.53912
0.155562 0.979745 4.60568
1.4613 0.702414 4.75502
1.32666 0.599571 4.71163
1.62572 0.693458 4.59027
-1.11099 0.448399 3.82503
1.87974 0.703277 4.27474
0.522352 0.0390671 3.6522
-1.04786 0.443682 3.72185
-0.120374 0.84316 4.469
1.47143 0.345848 4.19975
1.47172 0.403615 4.21365
-0.36603 0.309083 3.80191
1.43703 0.617829 4.27225
1.37444 0.55522 4.31198
-0.225477 0.420342 3.92106
-0.686691 0.326315 3.84384
1.94749 0.475706 4.12907
1.49603 0.76859 4.62532
1.62886 0.431403 4.17993
1.48444 0.432849 4.23365
1.48578 0.443654 4.2369
-0.457737 0.275201 3.77478
-0.288496 0.397191 3.88779
0.681355 0.0133089 3.65446
-0.692975 0.0167244 3.79145
-0.359057 0.217787 3.74096
-0.788898 0.191469 3.85602
1.453 0.364651 4.21257
-0.353553 0.314134 3.81338
0.43474 0.017943 3.64511
-0.860069 0.375042 3.98138
0.761754 0.0987117 3.72564
-0.880607 0.38559 3.76862
0.0792616 0.270405 3.84465
0.607284 0.581747 4.12365
1.71701 0.668241 4.27192
0.114912 0.698516 4.26293
0.219543 0.276332 3.86071
-0.221554 0.365415 3.8669
-0.326072 0.362122 3.86801
-0.0770877 0.827111 4.41329
-0.256523 0.385436 3.8771
-0.702965 0.369359 3.88325
0.134092 0.956116 4.53043
-0.957698 0.217901 3.63902
1.50571 0.586978 4.20992
-0.180247 0.351392 3.88247
-0.327689 0.379266 3.8708
-1.00811 0.30476 3.64735
-0.213653 0.427449 3.92468
1.52523 0.453753 4.18243
-0.258714 0.465944 3.94414
-0.568942 0.258339 3.77405
0.572835 -0.0340171 3.60065
1.60799 0.592853 4.26021
-0.526991 0.462349 3.89309
-0.334702 0.453598 3.93687
-0.409873 0.511772 4.00729
1.57955 0.231416 4.12319
-0.854867 0.444639 4.04408
-0.239824 0.170492 3.76463
1.48086 0.763316 4.61739
-0.808247 0.239844 3.84296
0.273824 0.241601 3.83859
-0.669328 0.255082 3.80339
1.51747 0.384245 4.19557
-0.711223 0.361245 3.87205
1.236 0.606292 4.55335
1.14119 0.622467 4.54336
-0.238849 0.69203 4.32412
-0.171332 0.734233 4.35367
0.395894 -0.043144 3.58946
-1.1693 0.455695 3.65763
-0.971867 0.427643 3.76481
1.86801 0.686697 4.28413
1.42149 0.663935 4.31849
-0.823915 0.426553 4.04517
0.314737 0.852925 4.67792
1.6374 0.795683 4.5859
-0.0193861 0.932178 4.546
-0.851483 0.462846 4.07777
-0.828848 0.216783 4.12444
-0.723796 0.371876 3.89628
-0.948241 0.427063 3.76285
1.66165 0.793712 4.52176
-0.903351 0.451424 4.02284
-0.811381 0.343736 3.93191
1.39011 0.680153 4.6157
1.46807 0.749333 4.70628
1.58692 0.762734 4.66796
1.33825 0.688144 4.60722
1.40847 0.410917 4.88565
0.140456 0.0137026 3.6156
0.121517 0.0239973 3.63925
-0.212836 0.0402654 3.71898
0.209862 0.262781 3.84176
-0.416881 0.244169 3.75679
-0.766946 0.220995 3.85143
-0.315853 0.476238 4.04831
-0.291895 0.660484 4.29874
-0.498591 0.598136 4.28628
1.49028 0.776343 4.69054
0.912436 0.595411 4.29706
1.41312 0.585752 4.31534
0.219868 0.86522 4.56328
0.771237 0.00854823 3.72289
1.46113 0.435627 4.26153
-0.831845 0.411502 3.98468
-1.03876 0.331849 3.64538
1.49469 0.42529 4.22035
-0.488975 0.60263 4.29006
-0.238096 0.727725 4.41605
0.0281708 0.842084 4.45621
0.749032 0.0956474 3.72515
1.01026 0.0808201 3.90031
-0.0942946 0.0106811 3.68881
2.17565 0.234903 4.19786
-0.0418309 0.0621 3.75897
-0.596143 0.248442 3.77991
-0.351965 0.322643 3.82291
1.33388 0.527232 4.79558
-0.345337 0.398077 3.88627
-0.0449126 0.907639 4.53732
-1.08366 0.440825 3.69015
-0.797479 0.283516 3.87501
-0.646738 0.382472 3.8642
-0.793872 0.282052 3.88168
-0.801691 0.311395 3.90282
0.731683 0.656036 4.20986
-0.824343 0.331024 3.93147
-0.68446 0.431346 3.93578
1.42122 0.522635 4.26858
-0.679505 0.330874 3.84946
-0.885773 0.38369 3.75991
-1.00994 0.424695 3.70748
0.772975 0.0472727 3.72939
1.47363 0.729836 4.49222
0.192867 0.253924 3.82204
0.444235 -0.000405145 3.63385
1.47798 0.452512 4.24782
1.46327 0.328087 4.20965
-0.199329 0.696232 4.35021
-0.0873219 0.489025 3.93444
1.93405 0.496887 4.13581
1.44351 0.697015 4.25148
-1.02663 0.335982 3.67412
-0.805514 0.314911 3.89428
-0.353418 0.451377 3.93566
1.65598 0.816245 4.53875
1.62594 0.243063 4.11846
1.72285 0.780746 4.72932
-0.225777 0.397223 3.90185
-0.334965 0.469543 4.00745
1.48487 0.734863 4.44934
1.46183 0.734462 4.4743
1.58585 0.793127 4.64166
1.02376 0.568121 4.56851
-0.0794946 0.866213 4.47931
1.51148 0.228055 4.1552
-0.192168 0.329139 3.88883
-0.661932 0.297723 3.81437
1.60096 0.254081 4.09582
1.45153 0.369071 4.18561
0.101226 0.651866 4.20038
1.7329 0.8789 4.72799
0.555864 -0.0198318 3.60744
0.812323 0.0130575 3.80005
0.169924 0.613685 4.43933
0.091156 0.751698 4.38949
-0.499904 0.121905 3.70721
0.0683816 0.899943 4.50029
-0.0525335 0.203978 3.82673
0.556481 0.0288879 3.69662
1.50298 0.787236 4.31888
-0.883619 0.403799 3.97394
0.550632 0.0504913 3.7156
1.41969 0.573341 4.30681
-0.205248 0.421695 3.91767
0.560629 0.0610879 3.74657
-0.407696 0.273668 3.7843
-1.0205 0.420387 3.67038
0.04409 0.947429 4.54835
-0.854984 0.31998 3.84677
-0.212531 0.499714 4.01886
-1.04223 0.430928 3.74045
1.34009 0.595683 4.74551
-0.0932852 0.845217 4.42317
1.52074 0.525084 4.20466
1.87061 0.872694 4.79754
-0.932603 0.357326 3.81038
2.17157 0.808406 4.67807
-0.218142 0.64287 4.23538
1.47749 0.427896 4.24491
-0.754921 0.134474 3.77036
-0.688078 0.340605 3.85858
-0.238757 0.343058 3.85727
-1.10164 0.398248 3.63747
-0.295348 0.41524 3.89062
1.41231 0.67997 4.36509
1.51792 0.225669 4.17147
1.94558 0.89919 4.76882
1.50459 0.553585 4.20381
0.916874 0.128696 3.9064
-0.323998 0.410013 3.89708
-0.728438 0.400693 3.92546
1.65882 0.80056 4.51729
0.167704 0.914556 4.51611
-0.262397 0.685199 4.31287
1.55275 0.722784 4.29172
-0.356803 0.653656 4.25167
0.411121 0.0529973 3.66008
-0.695063 0.223598 3.78928
1.42418 0.626747 4.31473
1.22651 0.562498 4.69903
-0.794184 0.467574 4.08819
-0.407395 0.509283 3.96323
-0.994061 0.428207 3.74636
1.80607 0.94846 5.30349
-0.392975 0.633864 4.35158
-0.0509951 0.544757 4.05757
1.79457 0.89089 4.69471
-0.877946 0.391149 3.7705
1.35401 0.445173 4.84383
-0.0522365 0.815716 4.42017
1.43389 0.614182 4.3163
1.85867 0.870343 4.44185
1.42614 0.602271 4.32517
-0.819643 0.444056 4.10226
1.64857 0.826317 4.61166
1.64438 0.802208 4.5795
-0.36811 0.584838 4.06991
0.328111 0.810168 4.57062
0.650278 -0.016385 3.63742
0.43693 0.0332349 3.65626
0.484209 0.0352469 3.65551
-1.00598 0.384374 3.64304
1.48275 0.764779 4.68464
-0.174345 0.397629 3.89134
-0.0956165 0.865428 4.50133
1.49793 0.765543 4.65684
1.93562 0.829769 4.85714
0.646259 0.0917565 3.79305
1.38311 0.376634 4.94229
1.51988 0.791219 4.37411
0.566329 0.0940518 3.83752
1.45256 0.74442 4.68941
-0.782729 0.205645 3.84513
1.56884 0.705291 4.27604
-0.430156 0.411521 3.85752
-1.01841 0.447536 3.7402
1.31133 0.54714 4.76124
1.41782 0.636473 4.3184
-1.15056 0.408722 3.6242
-0.313071 0.371512 3.883
0.177887 0.334767 3.87638
-0.375665 0.394334 3.85682
-1.17212 0.443343 3.63745
-1.17068 0.453257 3.65278
1.44065 0.573637 4.25879
0.154514 0.54528 3.97237
-0.65902 0.260735 3.78422
0.105406 0.333144 3.86373
0.451392 0.0156361 3.65325
-0.213051 0.338347 3.86989
0.45664 -0.0426523 3.6009
-0.827748 0.440855 4.11288
1.93476 0.497071 4.13192
2.69821 -1.13652 2.75386
0.201076 0.903277 4.54878
-0.254915 0.367995 3.8763
-0.685934 0.374437 3.86574
1.56023 0.213323 4.19735
1.63161 0.654562 4.29362
-0.857528 0.451908 4.08588
1.47773 0.772763 4.66887
-0.318115 0.342079 3.85746
1.40444 0.725758 4.65243
-0.997131 0.433898 3.73544
-0.0851107 0.859957 4.50958
1.45007 0.740011 4.44191
-0.916791 0.415383 3.75614
1.51994 0.589489 4.76205
-0.28825 0.484753 3.99371
2.67742 -1.12345 2.79274
2.6735 -0.878177 2.72849
2.55351 -0.541643 2.98341
0.146482 0.968111 4.57952
2.37856 0.0847037 3.38782
-0.361453 0.656624 4.27688
-0.235764 0.663823 4.31549
-0.732151 0.411806 4.23507
-0.123233 0.789457 4.38916
-1.07445 0.412503 3.64624
0.639204 0.000292688 3.68169
-0.462166 0.505992 3.95314
-0.303986 0.453089 3.93563
-0.389842 0.226968 3.75729
-0.708121 0.360844 3.86755
0.0689767 0.533748 3.9745
-1.00481 0.430361 3.70256
-0.0752008 0.500333 3.94022
-0.678712 0.239075 3.79672
-0.991024 0.42161 3.73781
1.71978 0.624687 4.891
0.273173 0.0478213 3.57553
0.542284 0.0132577 3.63845
-0.299499 0.430633 3.89387
1.46205 0.458288 4.25971
0.123489 0.990613 4.58644
1.41993 0.732191 4.54065
1.41932 0.42607 4.27339
0.0594707 0.915854 4.51308
-0.243647 0.454669 3.96014
1.57407 0.778259 4.65693
0.123456 0.577694 4.07052
-0.704483 0.0706291 3.79552
1.93525 0.448957 4.15779
-0.0787039 0.771335 4.37281
0.0411071 0.523131 3.94682
-0.269046 0.39708 3.88495
2.81377 -1.00721 2.5724
-0.211057 0.362704 3.88064
-0.0553319 0.810826 4.4037
-0.79127 0.273728 3.86435
-0.0672972 0.87064 4.48757
0.100173 0.862974 4.49125
1.37797 0.7023 4.55786
-0.94893 0.452298 3.92169
-0.219615 0.398374 3.89397
-0.785847 0.293654 3.87076
1.30581 0.537925 4.74493
1.41099 0.628069 4.3225
-0.591461 0.566408 4.08874
1.43136 0.696746 4.56969
1.66326 0.822604 4.54277
1.39636 0.65119 4.75171
-0.741967 0.417012 4.21132
-0.301605 0.600332 4.10285
-0.724144 0.38279 3.90946
1.43858 0.76574 4.45296
1.9123 0.558639 4.181
0.0259411 0.973382 4.57354
-0.40105 0.615977 4.34046
1.4404 0.698731 4.5752
1.65683 0.711264 4.351
-0.787572 0.447399 4.0154
0.130479 0.981681 4.58294
-0.0507114 0.899561 4.52451
1.44102 0.710936 4.55393
-0.317327 0.670187 4.32916
-0.333363 0.461281 3.93369
0.480013 -0.0402944 3.59602
-0.839751 0.446543 4.06368
-0.299118 0.414324 3.88836
1.12589 0.629117 4.52763
-0.261179 0.313134 3.85517
-0.317298 0.410162 3.90775
-0.880369 0.395541 3.76005
-0.813011 0.443233 4.10073
-0.583395 0.467546 3.92751
0.108643 0.572845 4.06813
-0.697605 0.370222 3.86203
-1.18374 0.427121 3.73334
-0.983773 0.414808 3.74083
-1.08655 0.446639 3.69033
1.51152 0.758034 4.64457
-0.898536 0.4614 4.01548
1.41032 0.729096 4.54942
-0.850177 0.410906 3.99117
0.357776 0.642056 4.21397
-0.741802 0.398609 3.93793
-0.670752 0.430792 3.92557
-0.355799 0.47164 3.9576
-0.353225 0.454374 3.93474
-0.788326 0.176004 3.81842
1.58353 0.790996 4.36815
-0.776832 0.182033 3.79736
-0.868336 0.380866 3.76765
-1.07684 0.442582 3.69422
-1.11077 0.449056 3.6764
0.451995 0.0277654 3.64671
1.8104 0.948139 5.29538
1.40003 0.717854 4.64917
1.63216 0.788864 4.60002
1.66405 0.822145 4.55883
1.64965 0.806747 4.55459
1.40338 0.75556 4.45163
-0.810415 0.317412 3.889
-0.391719 0.488431 3.93111
-0.797777 0.160162 3.80296
-0.218978 0.429795 3.92219
-0.201382 0.225974 3.79195
0.390061 0.0402971 3.61106
-0.0146068 0.905293 4.47612
-0.0492491 0.85633 4.43692
-0.249449 0.427033 3.9171
-1.0911 0.363907 3.62183
0.524857 0.0291835 3.67046
0.0565787 0.600919 4.16158
1.56423 0.797285 4.328
1.42822 0.513516 4.2749
1.49124 0.425727 4.2306
0.125299 0.924144 4.52164
0.12823 0.853875 4.4897
-0.255373 0.461212 3.98121
1.34953 0.441915 4.25636
1.42774 0.432565 4.27467
-0.350653 0.271314 3.79895
2.12802 0.479821 4.19644
0.418558 0.0347448 3.66506
0.261975 -0.00898628 3.59663
0.649603 -0.0269755 3.63604
0.184547 0.883032 4.52447
0.0989096 0.867477 4.48901
0.0974316 0.842161 4.47891
-0.324548 0.485474 4.06915
-0.844607 0.353862 3.96987
1.39145 0.672089 4.36236
-1.0865 0.44744 3.73298
-1.02806 0.431319 3.75081
1.6869 0.749416 4.38013
1.38025 0.646381 4.33189
1.66671 0.740206 4.34913
-1.15921 0.441148 3.66698
-0.235832 0.441255 3.94221
1.46926 0.573649 4.22698
-0.776363 0.160576 3.7827
0.45972 0.0324642 3.66468
-0.069295 0.874231 4.52257
0.0610825 0.91255 4.51794
0.150671 0.918663 4.51917
0.096556 0.886698 4.49882
-0.847432 0.426587 4.00587
0.0631339 0.59335 4.15525
1.27314 0.735751 4.3716
1.14939 0.686183 4.28002
-0.30418 0.471238 3.9445
-0.667161 0.333648 3.84482
-1.03806 0.424422 3.67036
1.50721 0.560608 4.19961
0.897907 0.126448 3.86415
0.459476 0.00624221 3.63928
0.590249 -0.067481 3.59859
0.0664575 0.922579 4.52909
-0.266654 0.45307 3.92178
-1.09756 0.394213 3.63603
-0.23715 0.399068 3.88236
1.71875 0.676532 4.29821
-0.329793 0.328181 3.84042
-1.00643 0.27776 3.62013
-0.245336 0.484439 4.01836
1.35482 0.675589 4.39434
-0.698442 0.349505 3.86893
-1.09486 0.413903 3.6603
-1.02989 0.419556 3.65527
-0.873014 0.352923 3.73615
-0.392044 0.401444 3.84983
-0.653586 0.294825 3.80982
-0.285433 0.381177 3.86383
-0.342461 0.339128 3.8352
-0.342261 0.321968 3.82865
-0.126326 0.366611 3.86442
0.365821 -0.0286616 3.56548
0.0736348 0.902885 4.51201
0.168556 0.87497 4.50261
0.150422 0.855168 4.49399
0.107938 0.837082 4.47426
-0.40979 0.500595 4.04988
1.68003 0.726147 4.35215
-0.970791 0.346401 3.66685
1.50489 0.593665 4.21176
-0.485326 0.258249 3.763
-0.385516 0.23995 3.76594
0.228753 0.268923 3.86088
0.944149 0.101205 3.85762
0.803223 0.124606 3.76902
0.845084 0.0596286 3.75118
0.557857 -0.0429912 3.58711
0.272204 0.965947 4.58948
-0.817526 0.323095 3.92237
-0.81239 0.318921 3.91254
-0.304818 0.486957 3.96361
-0.641754 0.247791 3.89821
-1.17397 0.41325 3.62105
1.51352 0.543596 4.18914
-0.807682 0.400633 3.99285
-0.934012 0.360062 3.67951
1.66425 0.821662 4.58091
0.555774 0.00506479 3.62983
-0.0361802 0.904468 4.47152
-0.107447 0.83201 4.39457
1.8886 0.635582 4.2642
1.28172 0.546209 4.70915
1.17439 0.578523 4.59386
-0.247802 0.436756 3.92022
-0.368793 0.477575 3.96941
0.177266 0.0881574 3.69904
0.568025 0.00632704 3.66423
-0.690954 0.363935 3.86907
-1.03364 0.454788 3.74005
1.74558 0.734862 4.36195
1.43415 0.683017 4.26417
0.154783 0.984182 4.59095
0.149584 0.975346 4.58465
0.0768328 0.868068 4.50716
1.45144 0.75272 4.67817
1.66592 0.809277 4.51545
-0.461481 0.510697 3.96824
-0.446878 0.508973 3.95742
0.86739 0.60114 4.2258
-0.811103 0.440865 4.09046
0.442378 0.072954 3.77855
1.40701 0.618987 4.33263
-0.836749 0.45601 4.09818
1.50805 0.774105 4.67602
1.46562 0.45987 4.95377
0.375267 -0.0367449 3.53919
-0.463044 0.270318 3.76359
-0.689654 0.340629 3.85153
1.42832 0.679119 4.36291
-0.821083 0.423002 4.04299
-0.0514024 0.851226 4.42419
0.717094 0.842801 4.71095
0.43291 -0.0519255 3.57503
0.552263 0.0238266 3.67343
0.967121 0.0902296 3.86566
0.322733 0.198009 3.7999
-0.117113 0.282526 3.79985
1.45088 0.47894 4.27028
-0.323463 0.36481 3.86444
-0.786935 0.278534 3.87202
-0.244407 0.444705 3.94689
-0.670684 0.382234 3.86397
-0.275192 0.497462 3.97893
0.0407583 0.932919 4.54838
-0.680517 0.261965 3.8122
-0.16141 0.747649 4.3545
-0.345078 0.658348 4.3602
-0.0715454 0.825422 4.42846
0.566723 -0.0252788 3.59417
0.525896 0.0229923 3.63834
0.489626 0.0900655 3.80212
1.46391 0.373969 4.23052
-0.704579 0.231299 3.80492
-0.742446 0.213715 3.8113
-0.361006 0.398677 3.84955
-1.15962 0.437 3.64462
-0.231055 0.485682 4.01153
1.70921 0.737283 4.80313
-0.451138 0.602677 4.33574
0.064404 0.825433 4.45675
0.0850467 0.897448 4.50726
-0.0164812 0.927288 4.50126
-0.251133 0.317658 3.85702
-0.902556 0.371578 3.73059
1.4189 0.710075 4.3889
0.0997101 0.576603 4.13658
0.23472 0.729021 4.46893
-0.103583 0.788656 4.37722
-0.221448 0.735197 4.37709
-0.767713 0.431167 4.18084
1.41951 0.412075 4.8805
1.43584 0.74015 4.47715
-0.859373 0.427608 3.99288
-0.882398 0.453925 4.02821
1.75162 0.699614 4.3101
-0.446625 0.502369 3.9602
0.344737 -0.00433047 3.57731
2.36506 -0.456084 3.51616
0.657887 0.0979314 3.80115
0.0510374 0.0825743 3.69131
0.604807 0.10091 3.84649
1.44449 0.702118 4.56635
1.59582 0.639594 4.77922
2.81627 -0.651685 2.45412
2.87434 -1.05537 2.38384
0.30164 0.0519751 3.60948
1.88962 0.604664 4.20595
-0.356509 0.215265 3.72348
1.30809 0.429755 4.16095
1.2512 0.443148 4.15086
1.48236 0.628284 4.23042
1.45679 0.415778 4.21835
-1.08131 0.428948 3.653
-0.0764279 0.470533 3.89294
1.44429 0.715866 4.24706
1.50826 0.736258 4.3942
-0.840864 0.42008 3.99477
0.0204567 0.77935 4.3956
2.64398 -1.02755 2.87292
0.201099 0.0468298 3.57764
-0.156532 0.520733 3.99007
0.0583321 0.937651 4.55208
0.51653 0.0197121 3.61557
0.712948 0.590365 4.42321
0.459793 -0.0279872 3.54589
1.35333 0.642711 4.55701
1.85794 0.854112 4.4413
1.29111 0.530742 4.72281
1.36578 0.582117 4.77164
0.554855 -0.039959 3.5811
0.545626 -0.0320879 3.59409
0.199378 0.0410566 3.58649
0.556149 0.0288797 3.69091
1.48931 0.352857 4.18924
-0.379643 0.374083 3.83258
-0.134736 0.475005 3.93563
-0.226888 0.409315 3.91687
-0.31065 0.401993 3.89703
-0.272858 0.463988 3.94021
-0.666713 0.378392 3.86278
0.880287 0.62845 4.31129
-0.772414 0.26984 3.89896
1.70286 0.776243 4.62945
1.85603 0.976888 4.78529
-0.826275 0.431341 4.03026
-0.148183 0.826013 4.45084
0.46596 -0.0379956 3.59236
0.495973 -0.00279195 3.62011
1.43748 0.710031 4.2909
-1.04961 0.39885 3.65837
0.928559 0.61401 4.16654
-0.12306 0.488631 3.94528
1.46686 0.737899 4.38286
1.48241 0.694365 4.38796
1.56886 0.708735 4.42587
0.923105 0.618277 4.34666
0.150175 0.599096 4.17563
-0.387967 0.602168 4.08352
1.37015 0.730616 4.56359
-0.934818 0.457015 3.97212
-0.167257 0.749828 4.35545
-0.115265 0.827713 4.39863
0.0908702 0.872252 4.48883
0.105765 0.940217 4.51928
2.86479 -2.11677 1.66201
2.65818 -0.834086 2.45548
2.55837 -0.286133 2.80185
2.61465 -0.664744 2.60214
2.69684 -1.29567 2.44811
2.55541 -0.913837 2.97887
2.57883 -1.09189 2.95675
0.554615 0.00579516 3.62215
0.297603 0.121227 3.69017
0.281291 0.135486 3.70448
0.927321 0.0760935 3.84465
1.84429 0.801567 4.38707
1.51979 0.405727 4.18177
1.73707 0.700138 4.33689
-1.02824 0.392549 3.6581
1.09912 0.658702 4.24414
0.143625 0.586006 4.03149
-0.328864 0.396688 3.88118
-0.241123 0.477928 4.00561
0.0964814 0.703098 4.27313
-0.357128 0.651689 4.23626
0.0482754 0.862713 4.46824
1.73143 0.658482 4.8509
0.074121 0.887938 4.49659
-0.135366 0.839525 4.48078
1.37743 0.400117 4.89511
2.74757 -1.37439 2.07329
2.68231 -0.930252 2.35809
2.62613 -0.685372 2.55424
2.84844 -2.07955 1.80171
2.803 -1.80225 2.0021
2.6081 -0.650833 2.65023
2.71089 -1.40279 2.34296
2.62921 -0.959798 2.68008
1.89369 0.600881 4.22276
1.56264 0.289865 4.10295
1.68091 0.715698 4.35804
1.65923 0.707721 4.37508
1.43948 0.639314 4.31682
1.38381 0.746173 4.41574
-0.701413 0.399691 3.91507
-0.605206 0.558919 4.08381
2.71542 -0.992949 2.21953
2.56874 -0.318914 2.77782
2.59774 -0.585557 2.6819
2.73084 -1.34123 2.28513
2.59151 -0.540878 2.72877
2.54678 -0.577169 2.93385
2.48241 -0.703137 3.21327
2.47578 -0.847044 3.32278
1.87971 0.596454 4.23721
1.52537 0.712753 4.41791
-0.240568 0.4325 3.94821
-0.722092 0.313417 3.8379
-0.692902 0.328681 3.83385
-1.16211 0.389826 3.60396
1.64825 0.820876 4.56671
0.0388985 0.937597 4.53896
1.4078 0.410681 4.27315
1.6109 0.546704 4.22534
-0.245323 0.263552 3.86722
-1.07995 0.365839 3.60669
-1.08874 0.376304 3.61413
-0.366231 0.396203 3.86838
-0.497934 0.45973 3.8945
-0.65661 0.439369 3.92609
0.152833 0.874743 4.49807
-0.166673 0.0109844 3.73091
1.60717 0.526758 4.20981
-0.742228 0.211905 3.81074
-0.318806 0.350412 3.86495
-0.218464 0.378313 3.88861
1.73331 0.716953 4.32988
1.39802 0.695453 4.3757
-0.331448 0.488579 3.98855
-0.0778897 0.752596 4.3702
0.0810657 0.883736 4.48953
-0.292632 0.67806 4.32847
0.422448 -0.0536377 3.55587
0.906511 0.0961116 3.8964
0.221252 0.958824 4.56979
1.56008 0.575631 4.2249
1.7125 0.709105 4.3343
-0.166384 0.340263 3.88513
0.276952 0.896817 4.58294
-0.585557 0.323653 3.86965
-0.326947 0.333738 3.84379
-0.918167 0.39979 3.75695
-0.338333 0.395011 3.88589
-1.15348 0.366218 3.60069
-1.03926 0.303003 3.61052
-0.260246 0.687867 4.33598
1.44329 0.654524 4.28892
-0.400705 0.402671 3.86068
1.56198 0.681607 4.27624
0.234148 0.72932 4.46657
-0.393402 0.226893 3.74987
1.49411 0.297614 4.21562
0.525225 0.0154357 3.64305
-0.900273 0.369347 3.70002
1.69508 0.690277 4.30528
-0.669359 0.303301 3.82318
-0.684338 0.279181 3.82
1.44519 0.495658 4.2815
-0.777091 0.157615 3.76128
0.0311428 0.273431 3.83086
0.0527174 0.949708 4.55063
0.111858 0.716932 4.29106
1.38067 0.683826 4.403
-0.243603 0.468243 3.99388
-0.0338251 0.496878 3.92918
1.74567 0.690338 4.30696
-0.338119 0.362143 3.8586
-0.737309 0.229511 3.81849
-1.01496 0.28551 3.62829
1.50488 0.592721 4.22946
1.5264 0.532272 4.19547
1.43586 0.393632 4.265
1.56152 0.500429 4.1834
-0.796487 0.108648 3.7367
1.50225 0.283015 4.20636
0.502199 0.824075 4.61721
1.95254 0.900348 4.75282
-1.11683 0.421817 3.6382
1.4336 0.663763 4.36198
1.5764 0.675401 4.27431
-0.279324 0.35021 3.85363
1.50624 0.575773 4.21252
-1.06308 0.274258 3.5846
-0.769923 0.158481 3.77187
1.43045 0.411943 4.27748
1.68304 0.469547 4.17777
1.95179 0.511274 4.1957
1.50256 0.752494 4.32959
1.67833 0.796359 4.60303
0.695261 0.681159 4.24604
1.2155 0.678188 4.3059
1.41803 0.394498 4.88585
-0.458717 0.60275 4.33899
0.0631642 0.764058 4.30896
1.58037 0.76936 4.32574
-0.313051 0.587588 4.46187
1.46624 0.731842 4.47305
1.70661 0.717537 4.36918
2.52932 -0.398093 2.92817
1.81545 0.314172 5.4963
-0.42094 0.609267 4.36622
-0.756633 0.393417 3.93263
-0.475495 0.536534 3.98295
0.295452 0.0609011 3.61313
1.42674 0.720453 4.69479
1.63436 0.779499 4.65767
-0.857171 0.329082 3.85893
-0.00960429 0.957004 4.55861
-0.289488 0.666794 4.3297
0.835589 0.640827 4.27549
-1.16168 0.42949 3.7598
-1.12742 0.457569 3.69012
0.608845 0.0530675 3.67895
0.240275 0.107536 3.62593
0.242962 0.0727237 3.59545
2.54669 -1.02244 3.14948
2.57088 -0.942554 3.1449
2.58083 -0.995581 3.00927
2.63068 -1.1248 2.94801
2.57649 -0.77691 3.04945
2.59579 -0.788332 3.0184
2.71956 -1.54767 2.64469
2.64386 -1.09627 2.853
2.56686 -0.642769 3.03231
2.68966 -1.09136 2.74767
2.69384 -1.16648 2.69981
2.72467 -1.40045 2.57095
2.68656 -1.07851 2.71303
2.72051 -1.20704 2.58752
2.76582 -1.41516 2.47679
-0.353872 0.619273 4.40919
0.142647 0.963191 4.55164
-0.782646 0.459503 4.02509
-0.542405 0.559693 4.09428
-0.599004 0.552967 4.0584
1.4492 0.646295 4.26098
1.52564 0.456555 4.18452
0.792528 0.124851 3.78414
0.682366 0.105793 3.7101
2.53733 -0.954782 3.22318
2.58634 -1.02074 3.06086
2.5939 -1.05613 3.03021
2.65558 -1.25986 2.84222
2.72668 -1.58715 2.691
2.56564 -0.812888 3.03392
2.6015 -0.838668 2.94698
2.62286 -0.647396 3.01273
1.70798 0.703151 4.93373
1.71037 0.692919 4.85871
1.34552 0.578902 4.7245
1.72832 0.790275 4.813
1.66537 0.786599 4.51674
0.121208 0.577087 4.07136
0.861321 0.599932 4.19692
1.16665 0.678455 4.27557
0.399333 0.571776 4.03936
1.49682 0.585465 4.21225
0.497544 0.0559637 3.64839
0.0743981 0.971802 4.59244
1.34231 0.529392 4.79866
-0.747441 0.417988 4.22995
-0.0390609 0.897436 4.46083
-0.0549288 0.804575 4.39016
1.41254 0.713651 4.72407
1.31241 0.639007 4.67366
1.24768 0.601817 4.58331
1.36637 0.672966 4.61849
1.92656 0.502855 4.14362
0.362131 -0.0167621 3.54934
2.7291 -1.73089 2.6512
1.4718 0.517331 4.2538
1.46146 0.439982 4.2603
0.551616 0.0361361 3.71231
0.153336 0.895253 4.51325
1.40428 0.63881 4.3358
1.67644 0.691988 4.31094
-1.08268 0.421146 3.65118
-0.279957 0.380702 3.87755
-0.392029 0.233295 3.76371
1.75366 0.72501 4.32354
-0.296452 0.447698 3.92613
-0.33666 0.665921 4.30699
-0.576161 0.555038 4.09468
-0.704968 0.363553 3.88109
-1.1178 0.432958 3.64575
-0.112665 0.415169 3.87437
0.146797 0.979188 4.58959
1.50848 0.683056 4.26808
0.0387519 0.891615 4.49781
1.49681 0.468069 4.24181
-0.902545 0.250762 3.7214
-0.346543 0.224755 3.75696
0.550443 0.000280514 3.63239
1.34549 0.662213 4.38662
-0.357479 0.443192 3.91197
-0.733605 0.352342 3.87469
-0.582463 0.25314 3.76347
1.51832 0.472263 4.22583
-1.07893 0.358881 3.61268
-0.679722 0.308536 3.83178
-0.679264 0.265059 3.82202
-0.718733 0.385448 3.90615
0.077317 0.884372 4.49364
0.117708 0.82295 4.4788
1.72811 0.691851 4.3137
1.52271 0.548796 4.20157
1.51749 0.490339 4.23319
1.47879 0.441582 4.25299
-0.304737 0.31847 3.85735
-0.691387 0.304575 3.82483
0.469155 0.30315 3.98186
1.47049 0.0523967 4.34291
0.178346 0.936396 4.52918
0.156834 0.834222 4.51662
0.0703075 0.657768 4.2011
1.50793 0.642032 4.23509
-1.1583 0.446138 3.6628
-1.1647 0.431185 3.64843
-0.241415 0.398552 3.88429
-0.241977 0.3848 3.87156
1.57472 0.402208 4.2105
-0.751069 0.219482 3.82021
-0.780901 0.156093 3.76691
1.53148 0.105347 4.24077
-0.522827 0.397605 3.84458
-1.1087 0.367522 3.61296
-0.310564 0.3815 3.89058
-0.68943 0.366496 3.86933
-0.72972 0.291489 3.86689
-0.798287 0.285691 3.87187
-0.999619 0.234606 3.62877
1.18576 0.509636 4.73037
0.156203 0.674739 4.3671
-0.29404 0.395935 3.86722
1.472 0.589876 4.22409
2.0916 0.536312 4.20669
0.516538 -0.0212492 3.60158
1.76017 0.512958 4.99323
0.0307798 0.841825 4.45615
-0.0556464 0.801507 4.39478
-0.76737 0.247604 3.85882
-0.703152 0.264285 3.82365
-1.12195 0.455605 3.67934
-0.0534605 0.794463 4.42731
-0.512523 0.54213 3.97471
-0.371567 0.636118 4.32089
-0.301713 0.644074 4.29772
1.42821 0.706273 4.57117
-0.317059 0.489705 4.04418
-0.350969 0.484799 3.9507
-0.964515 0.428997 3.73253
0.762481 0.12048 3.78624
0.679866 0.0807405 3.70004
1.41065 0.390258 4.93765
-0.268069 0.654432 4.30154
1.43402 0.724212 4.60816
-0.723576 0.382159 3.89355
0.363016 0.057022 3.63755
-0.0210415 0.937122 4.54764
1.35812 0.567751 4.77952
1.71189 0.710193 4.33016
1.85752 0.677451 4.2562
0.00903559 0.95473 4.53319
0.020647 0.95618 4.53101
1.32879 0.435815 4.82943
-0.270973 0.704829 4.36844
-0.258592 0.451591 3.91155
-0.385221 0.265759 3.76844
0.518694 0.0244343 3.62881
0.441185 -0.01165 3.59987
0.548936 -0.00164261 3.60777
2.69211 -0.993191 2.73206
2.76324 -0.985723 2.70314
-0.101464 0.841878 4.49206
1.25503 0.583395 4.5759
-0.199758 0.495833 4.00964
-0.379635 0.479883 3.93419
1.80664 0.765063 4.40489
1.45376 0.487888 4.25472
-1.09049 0.438772 3.68515
-0.721873 0.318814 3.83938
-0.787711 0.274689 3.87388
-0.678326 0.365721 3.85447
-0.681823 0.416639 3.89186
-0.780964 0.309081 3.88001
0.258089 0.614128 4.20217
0.183169 0.883589 4.52208
1.25068 0.595883 4.55556
0.0434545 0.955191 4.56536
0.388198 -0.0201045 3.58594
1.14229 0.695096 4.27914
-0.132216 0.823495 4.47113
0.804882 0.583519 4.4952
0.625547 0.0756594 3.71548
0.562745 0.0695233 3.73038
-0.961752 0.418721 3.75813
-1.05944 0.473484 3.74628
-0.138902 0.824289 4.48437
2.59059 -1.08386 2.99866
1.45031 0.741031 4.42441
1.40521 0.715099 4.66088
0.0770082 0.0409776 3.65116
-0.724971 0.42052 4.23428
1.47889 0.72871 4.49658
-0.101914 0.763773 4.36527
-0.475783 0.617179 4.23124
-0.213295 0.412012 3.90834
1.57092 0.571961 4.21366
0.273881 0.081838 3.67694
1.68186 1.18142 6.07739
-0.886244 0.359798 3.72469
-0.248522 0.597898 4.10493
0.97858 0.112833 3.90575
-0.884348 0.458026 4.03233
-0.310997 0.483797 3.95773
-0.220385 0.414297 3.92023
0.824846 0.11986 3.80741
-0.850409 0.405761 3.98451
-0.118992 0.835833 4.47011
1.67643 0.529451 4.20599
-1.0259 0.290719 3.60781
-0.470038 0.414732 3.84953
1.52932 0.618484 4.22646
-0.3107 0.452325 3.93215
-0.692527 0.489012 3.98137
-0.310809 0.232229 4.06449
0.514003 0.0325886 3.68914
2.83766 -1.0119 2.46886
1.31169 0.531447 4.77511
-0.294891 0.672816 4.31979
1.67432 0.416944 5.03817
1.40848 0.410387 4.90898
0.797666 0.578604 4.48242
1.44538 0.710727 4.59807
0.0446096 0.903883 4.50768
1.48476 0.737518 4.28108
1.51655 0.800439 4.31827
-0.727358 0.40686 3.92607
1.43 0.715861 4.51883
-0.21946 0.691605 4.33635
-0.444477 0.448024 3.87349
1.17664 0.638769 4.52387
0.736398 0.0899169 3.72646
1.3922 0.717262 4.41076
-0.920826 0.471903 3.9905
-0.262018 0.478671 4.00021
-0.620544 0.550671 4.10126
1.36266 0.38723 4.94137
0.373869 0.0925348 3.78129
0.104084 0.708619 4.26852
0.179737 0.962008 4.57634
-0.271314 0.46713 3.93164
-0.793023 0.444394 4.02842
1.50468 0.215476 4.17982
-0.787232 0.208015 3.84955
0.480922 0.304414 3.9815
-0.0572988 0.323488 3.85749
-0.270279 0.340514 3.85341
-1.03857 0.320548 3.61869
-0.861081 0.339633 3.74228
-0.719037 0.429275 3.94754
-0.0884007 0.509149 3.96959
1.45707 0.0809839 4.3301
-0.324068 0.470084 3.95664
1.39139 0.673682 4.36162
0.0979962 0.869019 4.48545
-0.330297 0.473603 3.9606
1.14672 0.692368 4.28425
0.229649 -0.0242216 3.60754
1.33589 0.660564 4.36291
-1.26982 0.338561 3.7432
0.356982 0.638651 4.21489
-0.177755 0.748148 4.3526
-0.470346 0.546934 4.01195
-0.800053 0.435484 4.1615
0.0481236 0.646183 4.19434
-1.12037 0.460075 3.68045
-0.899302 0.417077 3.71809
-1.22039 0.356432 3.6594
0.18378 0.930642 4.5347
-0.857678 0.297264 4.1144
-0.712048 0.244929 3.79874
-0.767408 0.310376 3.87317
1.53545 0.586807 4.18986
2.28735 1.18231 3.48861
-0.990521 0.320103 3.63773
2.20507 1.37404 3.74636
-0.156626 0.246326 3.80295
1.47482 0.597309 4.24266
0.221939 0.95684 4.57095
-0.733262 0.16307 3.78344
-0.307256 0.392944 3.88686
1.51529 0.72872 4.42301
-0.941974 0.295152 3.68577
-0.842017 0.435525 4.10101
1.37314 0.723151 4.43259
1.09917 0.632644 4.49726
-0.391633 0.211107 3.75594
-0.093514 0.261157 3.85371
-0.419114 0.239037 3.75966
1.70674 0.688548 4.93751
2.91814 -2.07066 2.01523
2.56658 -0.725833 3.06005
1.64988 0.818861 4.60501
-0.692018 0.222717 3.7768
-0.422373 0.495842 3.92153
-0.302397 0.386065 3.87035
0.99483 0.0969221 3.91183
-0.839195 0.437928 4.02235
-1.05649 0.451927 3.76665
-0.631949 0.154817 3.72834
-0.56564 0.572544 4.04429
1.72007 0.747523 4.78003
-0.0487039 0.797881 4.40224
-0.164914 0.745971 4.36499
0.0763298 0.917161 4.51798
1.4625 0.412506 4.2242
1.35695 0.469194 4.84131
1.8599 0.655557 4.27245
-1.01362 0.418387 3.66536
-1.10974 0.452931 3.67531
-0.0956237 0.864357 4.48742
-0.97849 0.326627 3.66446
-1.07922 0.465361 3.72994
0.135188 0.983404 4.56527
-1.06103 0.461145 3.7363
1.43857 0.41805 4.22655
-0.996997 0.420454 3.70116
-0.696744 0.440683 3.9443
2.65791 -0.642954 2.92301
-0.71332 0.260107 3.79928
-0.331431 0.477643 3.95855
0.155339 0.884045 4.5071
1.52397 0.406406 4.16888
1.71035 0.719982 4.87141
1.42724 0.196489 4.20333
1.48056 0.766707 4.6283
-1.17067 0.391052 3.60717
-0.158885 0.208593 3.79157
1.36733 0.509323 4.81352
0.282506 0.961867 4.59672
-0.24423 0.409121 3.88896
2.35965 1.02785 3.27275
1.70145 0.674155 4.95523
1.43405 0.09344 4.32817
2.61846 -0.848855 2.83494
2.56991 -0.709119 2.96132
2.61934 -1.01784 2.97226
0.402519 -0.0262046 3.56701
0.46903 -0.00270034 3.6201
-0.157833 0.461874 3.92184
0.632291 0.102857 3.86297
0.31165 0.584316 4.08026
-0.113972 0.0572905 3.72812
-1.01513 0.413409 3.65665
1.40541 0.434863 4.28774
-1.01816 0.431941 3.68796
1.50441 0.486747 4.21749
1.87765 0.59103 4.23904
0.0547506 0.920495 4.52109
1.59034 0.385739 4.17423
-1.09093 0.436951 3.67976
0.149767 0.973866 4.55912
-0.752877 0.234921 3.82667
-0.860561 0.412213 3.98257
-1.02502 0.435987 3.83665
-1.1395 0.461028 3.69892
0.142559 0.0569977 3.62915
0.053054 0.568872 4.07007
1.3571 0.456346 4.83848
-0.988243 0.284975 3.6521
2.79648 -1.17294 2.64028
0.165186 0.0731181 3.67687
0.965253 0.635053 4.34883
0.288399 0.148985 3.72414
-0.292412 0.476286 3.94745
-0.706909 0.501734 4.0296
-1.11018 0.342618 3.57328
-0.437247 0.357457 3.80781
1.51491 0.75732 4.64215
1.67176 0.834176 4.5708
1.48878 0.592625 4.22699
-0.818514 0.452366 4.06942
-0.27733 0.486546 3.95998
-1.09077 0.472118 3.75794
1.41328 0.751055 4.54128
-0.253819 0.353509 3.85128
1.47017 0.614384 4.23352
-0.334491 0.355651 3.85488
2.78095 -0.844877 2.62271
2.62718 -0.912739 2.88412
-0.700985 0.369425 3.88258
-0.816579 0.441155 4.0876
0.517217 0.0396883 3.66608
-0.396918 0.400356 3.83736
-0.776599 0.191938 3.78642
1.47668 0.7359 4.28251
1.92538 0.560999 4.18415
-0.805272 0.320217 3.89625
1.74194 0.733477 4.36101
-0.0151503 0.57094 4.11112
-0.309597 0.677531 4.31297
1.44251 0.726543 4.70456
-0.961283 0.320928 3.66715
0.492657 -0.00658317 3.62287
1.52042 0.293988 4.18681
1.40392 0.712124 4.41382
-0.818703 0.425697 4.04375
0.4814 0.033904 3.64733
-0.37003 0.582391 4.39635
1.46475 0.405319 4.96766
-1.01752 0.394724 3.63966
0.407263 0.0215125 3.62003
-0.337805 0.0168443 3.70305
0.236355 -0.00995419 3.57274
1.48835 0.234001 4.16122
0.0743894 0.766933 4.39899
-0.746338 0.255297 3.8267
0.458931 0.0455405 3.69852
2.80182 -0.613075 2.46436
-0.257072 0.269019 3.85686
-0.986496 0.405612 3.74549
-0.95194 0.458525 3.9642
-0.280736 0.679808 4.33909
1.82613 0.838166 4.43984
2.83258 -1.16602 2.52939
1.89888 0.64159 4.23219
-0.31589 0.653121 4.25488
1.47038 0.387348 4.20605
1.52029 0.784929 4.30887
-0.67871 0.346679 3.84847
1.46367 0.701424 4.561
-0.00654315 0.391478 3.866
1.89077 0.656141 4.25587
-0.750622 0.184466 3.77899
-0.935085 0.459905 3.98357
2.55206 -1.28703 3.17778
2.56857 -0.814782 2.93978
-0.503436 0.594366 4.29343
1.39703 0.704721 4.41011
2.69514 -2.18504 2.78094
2.26591 0.519297 3.68829
2.5089 -0.895055 3.25751
0.144631 0.975139 4.57511
