-4.80002 -21.9461 308.303
3.12617 -21.344 299.042
23.9749 -18.3759 273.3
24.8184 -11.4664 276.726
22.6685 -18.7594 274.269
-1.13953 -27.4279 300.523
-3.68677 -47.7269 288.393
237.182 -152.785 398.065
15.382 -4.59455 294.507
31.5931 -8.7938 268.859
15.7944 -5.27325 293.326
38.101 8.66298 273.485
11.6332 -9.85786 295.955
16.5077 -16.6947 283.516
-47.3423 -47.7282 355.609
20.8719 -24.0446 274.061
294.761 -91.3571 343.242
31.6998 -2.11676 274.036
27.5812 -2.33079 279.149
-1.06683 -39.9278 292.69
19.5951 -27.7971 272.552
15.6584 -37.3301 273.84
26.0666 -31.8769 264.622
38.7995 -25.0131 253.922
172.285 -165.353 450.893
23.2759 -14.6156 276.273
23.0658 -21.7731 272.432
34.4885 -15.9435 260.918
32.1184 -25.4322 259.242
31.1714 -26.2799 260.462
31.5064 -29.1175 260.52
240.595 -125.656 396.611
297.927 -94.4174 348.578
3.80113 -10.9327 305.337
22.4134 -1.0937 288.283
13.1691 -6.26734 295.902
21.403 -6.0942 285.214
40.2814 3.84948 268.748
20.1683 -15.0166 280.341
40.6619 -3.80592 260.961
241.622 -145.606 390.022
12.6334 -22.1669 285.673
7.93014 -50.8444 288.352
21.2472 -17.8937 276.989
162.849 -176.053 456.173
35.8964 -17.5908 259.297
20.9042 -20.3527 275.907
24.1498 -18.485 272.492
15.5088 -23.9782 280.791
26.0151 -32.1018 264.452
8.29344 -28.4423 286.061
12.8994 -26.7548 282.754
21.3616 -20.8572 273.82
11.188 -36.5376 278.333
27.6782 -12.562 272.41
40.449 -6.47505 261.934
2.66106 -43.7253 284.504
144.168 -177.673 465.443
16.7442 -3.73498 294.363
154.038 -179.031 457.45
32.5033 -2.94968 273.043
1.4986 -18.7313 302.603
-1.11806 -44.7382 287.16
-4.31282 -41.3157 293.923
48.6072 -44.1961 272.333
-3.6549 -41.6623 292.89
93.0884 -45.5104 283.209
174.276 -171.314 439.696
25.8912 -18.9483 270.317
182.946 -169.362 436.662
15.5533 -14.8007 286.81
244.648 -147.857 386.028
185.807 -166.212 433.708
243.491 -144.662 388.087
150.659 -179.341 460.101
55.2687 -34.2046 265.407
157.468 -174.398 455.914
9.06018 -32.891 282.457
161.343 -174.097 454.572
150.127 -174.6 463.247
152.089 -172.971 460.405
8.85938 -41.3028 280.279
3.03467 -18.3954 301.756
-2.04974 -45.2804 291.59
166.438 -194.662 439.848
12.348 -36.5117 278.078
181.275 -185.451 430.318
0.294163 -42.999 290.81
110.921 -202.025 476.716
8.77454 -32.4858 284.039
152.665 -188.425 448.377
15.2947 -27.1683 279.058
163.08 -183.724 443.459
19.5263 -22.926 275.924
243.517 -126.579 399.26
21.016 -21.7827 274.735
20.4623 -60.3701 296.917
24.6934 -19.3323 271.367
81.0981 -56.9142 295.615
22.0134 -20.7983 273.826
12.1995 -55.5758 291.117
19.9316 -20.9856 276.542
-1.97955 -51.0016 286.901
24.3184 -17.3711 273.567
17.7419 -20.6713 281.277
215.569 -160 412.249
170.897 -174.004 445.655
63.8006 -36.3651 268.312
244.299 -133.319 393.586
9.94151 -38.7536 277.677
32.9365 -10.9691 268.023
30.3505 3.91964 282.133
-4.68064 -52.0208 291.562
40.2215 12.3296 276.05
138.982 -203.082 451.267
171.586 -193.756 431.313
165.734 -194.78 440.804
33.0605 4.33504 277.105
205.848 -179.371 410.647
179.931 -184.465 431.397
156.417 -191.755 452.216
192.623 -177.716 420.716
247.826 -124.565 393.13
132.752 -193.088 462.6
34.2572 -24.5794 257.941
189.003 -161.621 434.104
26.3949 -62.303 299.424
19.1783 -3.0799 290.537
29.5334 -58.3254 294.919
83.4105 -54.8736 293.504
25.6098 -52.7254 286.306
60.2938 -50.5613 284.983
-1.00928 -37.2564 299.962
61.0784 -49.7631 284.528
39.9397 -9.38412 260.802
-3.22377 -50.6115 286.845
-6.12637 -45.8001 292.713
63.0149 -39.7117 273.188
12.1258 -40.9328 275.477
1.16966 -38.9934 287.595
179.333 -189.222 427.071
20.5092 -34.3271 268.617
54.1254 -32.2153 262.811
170.163 -179.58 443.721
-6.05931 -34.803 300.518
30.8798 -25.201 261.552
-2.53494 -29.0427 298.429
17.2076 -25.7489 276.701
16.7599 -24.3027 278.641
6.863 -36.7013 282.896
21.9217 -21.8024 273.48
166.179 -192.476 435.509
41.2193 1.67088 265.909
12.3432 -22.1668 285.435
166.929 -167.666 452.973
14.7096 -21.6522 283.62
18.7306 -26.5613 275.635
7.70814 -19.48 293.582
24.5696 -15.9608 274.833
58.4247 -43.3925 276.309
17.1717 -16.1027 282.802
160.105 -171.645 457.3
8.29671 -16.3723 295.734
38.894 -19.3604 255.27
20.1777 -15.0489 280.447
16.2548 -27.3671 278.228
24.1581 -11.8596 277.85
222 -171.546 404.352
18.2178 -11.9997 285.616
16.6112 -11.1786 288.381
15.2849 -9.49261 291.221
21.7775 -8.2925 283.479
16.666 -4.46987 293.274
36.2782 1.58472 272.13
34.5193 6.70447 278.702
170.592 -200.377 428.676
124.148 -212.622 459.95
104.44 -216.456 473.688
160.405 -197.375 445.697
105.595 -207.364 476.041
218.596 -169.977 400.229
232.345 -171.429 392.529
179.293 -194.434 427.742
26.3385 -11.3539 274.054
18.3935 -9.18051 287.86
118.449 -201.11 470.772
215.237 -166.012 405.412
31.1426 -7.55264 270.936
23.478 -8.23489 281.308
157.898 -190.791 451.077
94.0589 25.1856 256.909
23.5564 -3.19635 285.284
163.199 -184.365 439.678
164.261 -177.23 455.521
4.10396 -27.6029 296.247
171.985 -183.563 436.637
288.166 -99.0335 356.514
29.9227 1.30691 279.348
179.028 -180.475 434.186
-2.00371 -48.7555 290.101
26.2638 1.9169 285.299
135.569 -191.103 461.612
1.91306 -29.4654 293.787
11.6342 -26.4134 282.865
6.33009 -26.8906 290.257
8.72447 -23.1498 288.829
152.184 -192.966 448.63
276.658 -127.304 360.107
15.3127 -21.0353 282.089
-1.70892 -22.6428 304.422
37.5396 -14.1324 258.847
152.252 -202.164 442.276
25.5513 -7.00763 278.759
114.941 -211.286 468.72
25.7634 -2.70948 282.489
12.6639 -40.8802 276.81
27.2129 -52.4185 286.586
167.693 -179.042 446.926
35.9974 8.0785 276.897
103.256 -212.506 474.833
35.2121 8.85629 280.084
39.6904 10.9096 275.363
273.785 -109.505 376.994
37.1443 -31.717 262.012
10.301 -31.6973 282.942
237.572 -151.165 392.099
-2.726 -44.2078 289.049
98.2203 -219.525 476.109
9.39696 -28.6831 285.668
11.0473 -41.7127 276.178
191.644 -192.052 416.163
52.6913 -37.1045 268.704
43.2137 -1.91883 261.069
232.792 -161.927 393.025
-2.59661 -30.1949 298.968
171.391 -180.861 442.574
37.0922 0.776928 270.686
243.762 -135.899 395.249
-2.23322 -49.2333 286.213
107.025 -210.384 474.491
248.276 -147.886 379.751
33.1311 -27.5681 258.659
184.222 -188.724 422.92
274.661 -115.853 367.464
36.966 -25.0334 255.401
-1.81458 -16.5858 309.439
166.43 -172.958 453.311
130.957 -68.8289 313.94
175.361 -190.588 429.103
198.333 -168.627 421.417
-6.41001 -31.5055 304.292
25.4958 -9.63082 277.592
170.914 -171.295 451.125
29.0321 -55.477 290.186
158.845 -198.075 446.739
10.2885 -28.0985 282.885
1.96195 -40.4312 288.704
40.3471 5.65421 270.287
21.4941 -20.0578 275.076
67.7042 -40.8556 274.928
23.638 -18.6037 272.984
4.5632 -42.1419 283.018
6.87827 -20.7113 293.804
256.303 -142.46 373.534
3.38953 -26.0385 294.268
23.765 0.0241499 287.976
143.982 -206.598 447.307
5.62507 -42.2678 280.871
203.752 -162.66 419.795
29.7701 -1.85837 276.898
251.949 -152.518 387.31
261.8 -140.164 369.032
173.189 -172.341 444.398
110.157 -207.188 474.301
30.4557 -1.32955 276.084
177.358 -181.707 436.177
33.1507 -28.9343 259.738
273.394 -118.517 367.344
163.452 -169.63 458.417
12.1074 -12.1155 293.181
180.293 -181.543 432.947
264.941 -129.883 371.118
28.7203 -7.76857 274.171
-6.67773 -21.3584 313.004
219.876 -162.06 403.515
155.841 -183.544 457.905
245.549 -127.67 397.391
42.7277 1.26977 264.205
165.723 -182.069 447.978
162.485 -176.034 458.03
194.65 -185.676 416.63
219.605 -138.447 415.858
207.564 -166.446 413.436
5.68398 -43.7396 282.295
43.3938 -44.5104 277.217
32.6799 -22.835 259.817
6.17071 -45.6191 280.722
182.757 -158.453 442.948
112.913 -210.253 468.91
40.6157 -0.474266 263.905
181.845 -191.459 426.816
28.6119 -24.2886 264.016
208.547 -162.096 414.61
-5.18768 -46.071 291.271
18.8363 -15.535 281.804
262.204 -134.312 372.143
1.06863 -23.469 299.394
35.1075 -4.83585 268.032
252.393 -166.104 379.987
274.116 -115.804 364.264
106.043 -204.75 478.843
181.849 -176.033 434.378
141.472 -76.1877 322.055
32.8557 -61.8377 297.969
83.6134 -59.7639 299.032
95.3047 -58.8612 299.094
3.98453 -52.312 286.554
5.29991 -34.6437 284.76
84.9716 -49.0043 286.942
-2.33655 -33.1669 299.401
-1.62759 -50.5979 285.948
9.05022 -49.7124 283.683
-1.04275 -50.0247 285.764
3.79859 -48.7338 283.127
9.31817 -15.9061 294.444
3.19849 -48.195 283.073
-2.80074 -47.763 287.327
8.0399 -15.1045 296.626
57.9237 -42.0405 274.843
-3.46564 -20.6997 307.732
-1.23142 -43.2052 287.638
37.5147 7.61061 273.62
36.6235 -30.3751 260.377
-6.26738 -50.0933 295.017
59.9274 -28.5647 259.113
15.7378 -30.3558 275.103
29.7318 -27.0026 261.186
12.2636 -27.9738 281.144
18.0678 -25.2093 275.957
2.248 -24.0775 298.412
17.5376 -24.3862 277.032
31.7149 -5.60028 271.952
11.1486 -24.7307 285.973
10.6549 -24.2336 286.095
23.2991 -20.3257 272.682
40.6955 -13.9416 255.787
41.5458 -11.8831 255.315
98.6949 -94.1857 321.703
11.0197 -15.0895 293.334
126.982 -81.1373 325.204
40.8919 -11.8015 257.053
27.9711 -11.1046 273.434
34.6391 -28.8012 259.122
35.7453 -27.6812 258.522
-4.40299 -31.0318 301.732
37.276 -16.1739 258.691
42.0278 -13.7407 253.289
-6.03505 -18.1363 313.725
27.6607 -12.5661 272.558
15.5369 -12.9121 288.436
29.6593 -8.52705 272.826
43.9483 4.42065 265.416
45.0078 6.56436 267.452
43.8145 7.84318 268.463
-20.0599 -251.596 556.193
109.971 -207.609 474.559
178.112 -187.466 432.539
181.675 -158.265 440.927
190.994 -154.81 436.618
198.922 -150.304 431.036
90.8215 -79.4087 318.394
14.4839 -57.6698 293.682
5.39621 -54.4399 290.081
-4.09212 -49.559 289.914
42.3249 -21.543 250.929
164.842 -179.468 448.709
207.063 -147.506 423.401
174.018 -193.512 433.749
185.091 -177.668 430.104
154.581 -187.31 454.893
197.32 -169.816 421.592
-0.145758 -43.6813 289.08
-3.69781 -42.6243 295.375
26.5332 -18.3322 270.017
13.8049 -22.6675 282.312
10.3223 -24.7427 287.094
12.4799 -14.3504 290.81
42.4893 -10.6399 255.205
18.143 -22.4329 278.086
26.4652 -13.915 273.155
26.733 -12.6843 273.548
41.2731 -0.637589 264.031
31.4331 5.10678 280.826
0.965904 -13.007 305.053
11.2023 -6.73787 300.03
2.0904 -11.7338 305.609
14.5718 -4.2769 295.273
273.434 -106.509 374.75
13.1276 -43.2344 278.16
27.7684 -31.9103 263.658
7.92886 -37.8516 282.131
38.5819 -16.9486 256.313
24.7858 -14.9377 274.496
258.807 -137.498 373.899
232.794 -153.654 393.395
184.323 -182.789 429.125
205.425 -170.425 413.902
172.068 -196.561 435.131
175.42 -180.049 440.126
275.057 -122.799 363.464
165.625 -177.088 450.529
204.227 -150.235 424.449
181.922 -167.062 439.435
164.771 -181.715 450.588
161.431 -184.209 451.516
181.852 -170.196 437.827
263.687 -112.847 381.006
164.589 -183.638 449.873
186.687 -179.66 428.089
202.591 -168.895 416.885
183.29 -184.973 428.658
215.471 -163.517 406.373
177.972 -171.71 440.267
10.3884 -43.4797 279.693
17.7403 1.66473 289.089
-1.12623 -31.0468 299.635
6.45044 -39.3913 283.143
14.9039 -30.6158 277.188
27.2816 -28.1988 264.581
-1.11648 -27.9582 300.071
278.446 -107.687 373.86
268.003 -112.089 378.063
38.8862 13.1877 279.195
32.4786 1.91249 277.627
16.8284 -13.499 285.438
15.7112 -24.4576 280.025
2.75896 -41.1522 286.747
0.659072 -29.6094 297.174
1.16212 -43.9251 286.62
36.3932 -23.7227 255.576
46.8884 -28.1612 257.224
84.9458 -60.0004 298.937
17.3783 -11.7232 286.962
15.9395 -22.1621 280.802
18.8507 -22.1791 277.422
18.8789 -24.7759 275.511
7.08524 -47.0851 283.458
15.5281 -46.3523 280.727
16.8301 -47.3298 282.049
24.4161 -5.51436 281.61
6.99885 -18.8548 294.792
99.192 26.9166 257.606
35.0072 7.32004 278.826
31.5297 5.80607 282.488
34.783 1.90558 273.33
42.5932 3.98733 266.126
29.3896 -1.66934 278.424
12.606 -7.26067 296.507
39.8977 4.39514 269.381
27.5102 -10.764 274.219
31.0857 -11.0518 268.838
197.807 -172.243 420.561
206.274 -146.843 422.159
25.2318 -18.9169 270.917
171.965 -178.989 438.371
45.6744 -65.8542 289.852
19.4897 -21.845 276.693
143.571 -185.146 457.503
24.616 -24.0047 268.394
13.7922 -24.4978 282.879
212.838 -147.107 417.597
176.06 -174.256 442.075
26.6378 -54.2322 289.786
174.272 -196.705 433.751
5.4647 -44.7448 280.05
186.237 -157.528 442.04
-0.623963 -42.5917 290.781
31.7779 -24.5109 260.482
218.187 -161.689 405.378
176.73 -166.66 446.118
168.507 -168.064 451.461
291.792 -94.7461 353.988
184.869 -162.395 437.974
15.7925 -43.2678 277.936
8.79332 -25.2413 287.845
-0.362026 -48.3987 288.308
22.7375 -10.2571 281.025
4.21931 -36.308 288.05
28.5054 -3.62772 278.894
19.5281 -18.914 278.548
37.9764 0.372081 269.272
36.1133 3.08635 273.842
117.713 -213.578 463.957
144.463 -203.748 449.385
248.866 -172.943 377.1
-0.11776 -241.618 544.06
154.108 -198.536 442.71
4.37308 -239.676 541.338
19.8267 -232.342 531.877
203.011 -179.243 411.542
107.632 -204.308 478.101
169.058 -187.904 440.977
207.936 -173.805 409.744
112.582 -199.174 475.724
192.873 -174.444 422.617
201.295 -168.564 419.083
212.361 -165.898 412.063
257.793 -117.735 385.537
144.071 -183.89 459.658
12.3676 -38.4215 277.5
169.367 -177.3 446.199
213.434 -163.39 409.559
243.796 -155.665 391.547
130.706 -184.182 475.39
22.9603 -107.714 272.1
238.374 -152.835 397.658
179.268 -165.643 438.269
9.46562 -8.51906 299.541
29.2434 -15.8157 268.606
214.102 -141.582 419.499
6.90574 -53.9673 289.061
161.426 -184.215 451.526
14.8289 -53.5464 288.375
125.695 -80.2417 326.921
69.5685 -42.0024 276.464
100.315 -60.1548 300.705
18.7989 -57.1683 293.138
26.9219 -32.7835 263.96
51.0383 -46.8052 280.593
44.7379 -43.9029 275.426
33.7417 -38.7001 270.026
34.8874 -37.5444 268.05
8.45611 -39.5312 280.043
50.5343 -36.2807 267.22
242.402 -142.901 388.963
12.6218 -36.4002 276.596
47.0065 -31.2705 261.141
31.4704 -30.463 261.412
31.0731 -27.7564 260.415
207.643 -168.964 412.215
11.5757 -15.3235 290.597
180.121 -162.446 448.51
35.0399 -30.4676 260.492
150.258 -203.006 442.652
235.587 -163.94 393.886
44.526 9.28499 269.798
12.7161 -37.2036 277.516
275.165 -117.925 365.134
-0.334012 -40.4011 288.598
174.724 -197.352 430.965
151.025 -182.681 454.136
26.7155 -26.1945 265.516
199.377 -167.143 421.222
165.935 -175.303 451.228
223.454 -175.328 397.693
29.7003 -7.26842 274.472
210.883 -166.772 412.928
170.037 -172.517 448.723
190.233 -168.669 429.665
3.76965 -38.891 285.078
203.944 -166.058 416.383
29.4932 -6.50722 273.711
84.8034 -52.6402 290.429
16.2366 -23.1781 279.59
21.193 -14.7651 279.404
212.138 -147.723 421.453
11.1638 -20.899 286.868
13.3064 -23.1558 283.941
218.982 -165.412 401.813
205.518 -159.971 419.029
33.874 6.19676 277.032
82.4406 -90.2326 319.002
18.5326 -16.4923 283.732
171.078 -195.962 436.66
244.615 -142.417 388.487
165.391 -177.921 451.905
97.0676 -84.4186 325.137
94.6741 25.6019 256.129
208.491 -144.486 423.368
273.701 -111.532 370.272
-3.18097 -34.6062 297.271
117.089 -205.672 469.34
36.0333 -15.8406 260.074
174.772 -178.209 439.975
168.083 -183.325 444.129
250.727 -154.336 385.528
45.0731 14.295 273.291
133.879 -190.825 462.713
170.623 -194.053 431.939
27.3163 -24.5382 265.214
171.125 -188.692 439.915
56.5924 -35.8696 267.855
188.62 -191.325 417.202
27.1068 -10.049 275.143
29.4763 -28.4086 261.693
35.253 2.44368 272.344
172.645 -190.119 433.001
26.5966 -9.13692 276.866
36.4492 -16.4096 257.866
10.4385 -23.5592 288.211
211.129 -142.876 421.432
23.3999 -56.9204 292.864
198.761 -184.047 415.592
222.557 -137.445 413.276
25.1381 -19.6634 270.454
172.855 -168.472 445.901
16.9689 -50.1803 284.115
-4.47732 -22.9943 307.843
126.083 -207.613 457.615
181.597 -177.912 433.551
25.7499 -111.361 272.193
17.3374 -25.8607 276.74
192.592 -169.294 426.511
2.13042 -38.8145 286.611
237.543 -171.993 387.049
176.434 -178.495 438.365
185.962 -155.854 438.389
16.1281 -25.6932 278.18
194.527 -152.002 433.164
8.30575 -21.4838 291.427
