-113.48 11.4655 484.682
-168.881 53.8691 469.502
-103.145 -73.4414 468.322
-115.67 11.5392 492.062
-105.089 -122.46 497.223
-115.691 -122.7 501.74
-59.4662 -44.8989 465.132
-69.386 -55.3326 461.449
-89.415 6.6415 473.613
-97.0894 -38.5773 460.937
-110.157 -25.6291 499.404
-31.8331 80.6615 411.282
-102.182 -13.9851 500.397
-103.832 -8.56461 493.972
-69.1675 -59.8052 461.64
-108.722 1.91705 486.128
-172.184 26.3155 475.424
-96.9054 5.51838 480.631
-88.5563 -19.0068 495.744
-116.595 8.99082 494.802
-35.7237 36.9805 462.812
-102.701 33.2727 475.767
-110.446 -124.506 497.409
-105.217 34.2301 477.769
-172.129 42.5533 471.412
-183.788 45.9097 474.3
-180.369 71.1397 479.342
-189.55 50.3889 481.747
-187.779 50.9487 478.289
-109.807 -128.82 500.436
-104.933 25.8615 477.008
-105.02 -124.04 497.666
-103.749 26.1845 476.149
-114.284 -101.157 508.246
-135.369 18.1783 490.553
-122.845 -100.132 516.232
-142.09 23.5044 492.66
-119.748 -97.8211 515.122
-101.094 -75.0103 466.88
-92.36 -50.4475 460.534
-129.367 -108.978 514.32
-36.6033 -8.01725 484.503
-183.084 44.8456 474.308
-104.727 18.3398 478.755
-186.676 68.6224 485.548
-135.563 20.3704 490.243
-182.059 16.5877 482.838
-136.436 21.4919 490.013
-100.845 -76.2661 465.724
-165.394 18.3614 481.686
-90.9821 -20.1931 495.399
-113.441 25.1956 486.883
-109.239 0.979054 486.864
-102.7 25.606 475.263
-54.1202 84.4792 425.98
-170.843 19.8417 480.633
-25.1965 52.1755 415.753
-165.494 20.4578 480.293
-187.364 18.9828 484.449
-172.63 19.8509 480.119
-91.917 50.8854 473.514
-36.7186 61.26 414.55
-104.691 28.2003 476.926
-92.9967 55.1289 477.357
-143.04 30.2275 493.544
-186.501 26.9142 480.126
-118.817 35.8657 497.775
-184.073 67.5222 484.56
-108.942 40.9138 481.953
-90.7778 -12.3103 491.392
-26.4282 44.7934 421.243
-180.804 22.1157 478.795
-104.964 41.6807 478.529
-27.6972 71.0071 408.843
-53.8675 65.9409 423.86
-196.188 67.0702 499.448
-46.109 76.845 416.964
-189.766 67.3941 487.867
-189.379 73.6663 491.297
-176.264 40.4493 472.191
-170.056 54.8675 471.656
-58.7143 76.723 427.165
-119.629 -110.936 505.843
-106.171 -121.223 497.501
-108.906 -65.7921 476.621
-92.7124 -29.318 468.08
-103.62 -63.5095 473.683
-181.29 1.9751 493.215
-61.0241 -33.5075 467.551
-173.258 6.37982 486.724
-34.7166 19.2028 460.062
-88.6094 16.9049 468.024
-145.117 15.3557 497.821
-165.778 13.3524 483.945
-93.8046 21.9028 470.276
-45.4737 55.6966 424.621
-188.668 13.125 490.522
-90.3539 -27.8364 468.378
-136.794 19.9166 490.786
-101.44 24.9359 474.323
-99.1023 31.2677 471.193
-50.7938 -83.7249 455.65
-87.0709 43.4225 469.914
-170.068 47.4486 470.631
-47.1145 56.2932 423.578
-61.377 67.3444 429.699
-105.838 -119.364 499.579
-110.834 -58.8144 482.814
-29.0294 20.5465 458.334
-10.5981 36.2831 417.586
-173.115 9.29387 486.863
-108.599 43.6737 482.352
-71.927 -16.7267 487.629
-40.2562 53.5756 422.815
-169.707 48.9991 470.569
-31.2348 41.9142 462.724
-107.661 -62.3969 476.913
-182.518 55.876 476.029
-8.3236 50.5037 411.182
-102.81 -125.152 497.735
-81.7694 -73.4205 458.498
-73.4574 -12.81 488.943
-121.232 20.1827 493.534
-34.9189 37.4367 462.476
-106.331 27.0407 479.281
-11.6638 -28.095 478.546
-77.7895 -14.1536 490.888
-73.45 -17.9024 489.586
-67.0118 -12.1346 478.216
-73.7358 -9.89677 486.922
-37.5701 72.982 412.695
-24.4306 43.5757 420.562
-14.055 50.7093 411.548
-96.9229 48.9228 475.182
-194.88 57.9876 489.073
-101.516 -127.99 496.064
-183.714 39.4558 475.173
-24.0594 -24.2236 479.873
-110.064 9.26059 485.812
-198.544 32.1363 493.509
-7.98987 53.9193 410.945
-53.004 -82.4465 455.439
-191.77 43.6182 482.647
-58.1257 -81.753 455.066
-88.5768 -75.1117 460.678
-98.2225 -69.004 467.264
-84.0291 -54.3019 458.866
-44.9359 55.3274 423.089
-109.691 -59.2508 481.569
-56.0597 -41.3658 466.275
-5.34592 -35.906 480.68
-118.221 -123.047 506.949
-81.1282 -60.2417 462.53
-94.3052 -65.9991 464.104
-171.43 17.9573 481.465
-126.628 -100.512 513.625
-61.1845 -22.4562 485.537
-99.4905 16.3202 475.316
-91.7596 -31.1947 465.674
-25.1181 29.8448 456.795
-57.0028 85.343 426.73
-85.3933 -16.0577 491.303
-179.627 50.6256 473.384
-186.31 38.7569 476.136
-193.723 35.9684 482.963
-28.1727 35.7602 458.325
-137.768 21.6556 490.653
-172.78 65.0065 471.889
-182.04 27.1099 477.655
-187.663 61.8748 484.865
-48.1796 60.94 421.895
-56.0853 -78.1678 455.465
-46.4904 60.7833 421.345
-82.1953 -62.2315 460.27
-127.738 -106.754 513.144
-10.6658 38.6922 419.171
-88.1524 -20.4521 496.611
-7.57872 49.7256 410.63
-43.6281 19.9521 476.227
-171.666 58.8974 471.937
-122.798 -121.17 508.299
-34.4438 48.2202 421.478
-111.632 -126.996 499.255
-42.151 77.8979 413.656
-113.422 -126.978 501.365
-48.2633 89.331 422.507
-58.1369 -33.8517 469.122
-193.674 68.0213 496.406
-103.859 -117.76 497.532
-124.606 -118.715 508.804
-116.742 -101.739 508.848
-115.725 -74.2481 484.85
-103.285 -41.5958 461.119
-38.4637 60.0213 417.203
-11.4724 39.2843 418.612
-109.305 -38.3181 501.948
-15.3777 -98.1308 474.497
-110.148 -20.6935 497.862
-55.4815 68.488 424.805
-113.137 11.9198 483.633
-142.022 16.2582 494.702
-41.2094 -84.9038 459.263
-33.0789 49.3051 421.797
-139.481 25.3302 491.188
-38.1738 62.3527 413.285
-95.6791 -74.1449 463.948
-184.651 50.2049 475.952
-47.5256 71.1116 417.095
-188.476 38.6005 479.658
-82.5141 -80.4388 459.397
-178.221 67.8065 479.783
-30.8282 -79.9514 463.059
-98.9938 -123.427 496.221
-122.86 -122.659 507.329
-128.567 -112.573 511.394
-127.888 -108.638 511.788
-126.744 -103.082 513.721
-120.856 -97.7443 515.97
-105.647 -79.8533 470.097
-113.38 -77.8677 480.433
-115.506 -71.6849 485.198
-105.35 -68.3838 469.872
-94.8052 -63.9589 464.176
-66.9217 -55.4018 463.993
-91.3434 -15.577 496.035
-179.412 29.2822 475.73
-32.4792 19.5511 459.374
-34.7374 -49.6645 469.5
-182.325 19.054 480.161
-111.288 -111.651 503.847
-116.945 12.6366 489.698
-46.7488 -48.1122 465.817
-181.339 3.0676 493.02
-110.768 22.9641 484.13
-109.827 44.5287 484.444
-31.3241 43.5935 465.308
-132.257 17.7495 489.219
-101.439 25.923 472.752
-116.333 29.7715 490.307
-76.5024 -35.9131 456.929
-139.086 23.6963 490.786
-74.6837 -35.3019 458.662
-139.043 33.3833 494.013
-44.7335 -29.6645 479.164
-195.508 20.6016 493.079
-61.4473 -28.9287 469.347
-166.166 41.1755 471.902
-83.525 -10.8002 489.232
-178.434 5.3578 489.8
-59.0025 65.619 425.466
-176.607 66.8789 477.684
-102.152 23.5687 474.368
-116.235 -122.862 501.003
-117.824 -107.923 505.963
-83.2915 -79.2355 456.927
-68.14 5.07895 477.525
-117.674 -90.7372 514.663
-107.288 10.1063 483.878
-132.807 20.2107 489.216
-54.8356 -67.3055 456.169
-93.8733 -69.2518 461.848
-30.2143 18.8017 462.521
-137.915 21.8725 491.17
-96.9386 -69.2301 467.691
-114.481 -72.6031 482.931
-20.5373 23.1948 461.411
-115.151 -70.4967 482.452
-53.1993 25.4522 480.753
-113.963 -70.114 481.664
-20.0616 28.7798 461.439
-66.7172 -56.3181 461.155
-171.244 47.4108 470.986
-111.846 -48.3668 493.226
-23.0838 42.3968 420.75
-85.0574 -31.2861 458.239
-29.4029 46.4227 423.591
-181.898 56.1719 475.761
-71.5894 -55.4573 463.087
-110.352 -25.4348 499.225
-177.77 59.7586 474.557
-58.5773 -48.1942 463.555
-113.377 -20.9313 512.755
-54.8081 73.5769 423.168
-173.82 -4.14599 489.07
-112.063 -16.9664 513.019
-175.29 65.9541 476.681
-88.9336 -9.53362 486.273
-43.2657 78.4511 414.287
-165.189 24.6786 477.082
-41.4897 8.51914 479.893
-49.3707 87.2222 422.688
-91.7559 6.50481 473.157
-104.76 -128.564 499.407
-168.823 45.521 469.965
-91.2399 10.0569 471.029
-181.877 2.86251 495.18
-104.455 -121.29 498.221
-94.3726 -14.444 495.51
-28.4483 44.8498 421.773
-103.333 27.2605 474.908
-69.8985 -115.62 468.074
-124.513 -101.361 515.447
-111.131 29.1671 483.323
-70.3879 -114.279 466.55
-119.786 -100.248 513.348
-112.036 29.7876 484.293
-7.40407 -107.414 473.603
-44.0597 51.9832 423.97
-53.7174 -99.233 458.231
-115.167 -65.2064 484.526
-195.099 19.4167 493.228
-82.2441 -61.1972 461.441
-109.25 47.7237 484.458
-127.431 -101.473 512.95
-107.456 -61.6748 477.76
-109.205 49.7131 485.016
-32.4405 -89.4237 462.02
-62.6576 -52.4686 462.175
-181.047 33.8556 474.991
-183.439 31.0681 477.631
-97.7269 -44.5664 458.839
-19.5813 43.8993 418.541
-184.893 32.5757 478.636
-14.8256 -39.1153 471.829
-7.51663 54.3789 411.313
-64.6486 70.5379 438.161
-109.647 -60.7907 480.585
-90.9758 -50.1775 460.429
-166.515 45.7025 471.194
-40.1736 -80.6625 459.881
-105.635 27.0724 478.152
-110.359 -50.6418 491.525
-62.3994 83.1284 431.075
-55.1008 -79.4652 455.287
-182.97 72.1451 484.481
-57.2175 -74.91 457.091
-107.175 -81.6134 471.514
-67.88 -73.8893 455.89
-98.3311 -74.1019 463.576
-10.7623 -75.3431 476.328
-83.556 -69.2748 458.759
-94.5008 6.99785 477.439
-87.9223 -19.8875 495.553
-94.0678 -68.4681 463.714
-99.1556 10.0337 477.674
-179.632 68.8791 481.334
-85.6879 19.5009 467.105
-101.356 13.0086 478.213
-110.708 -64.5739 475.927
-95.4786 13.5153 472.768
-130.675 20.2551 489.719
-114.914 -65.2138 482.217
-109.043 -60.4339 478.527
-87.3694 -61.4048 463.509
-65.4417 -53.7641 460.875
-27.8764 -59.5825 467.272
-116.101 -54.1135 498.612
-109.798 -60.1329 480.409
-71.4663 -12.3469 487.6
-63.6371 -54.5507 464.833
-100.451 14.5143 475.231
-33.7851 47.8503 421.118
-140.686 10.6487 497.021
-55.6319 -41.6264 467.95
-184.688 2.70062 497.515
-171.428 43.3548 471.173
-181.632 20.7451 480.212
-186.94 5.65377 500.167
-166.871 13.3891 485.533
-169.771 13.1137 485.302
-93.2209 -51.3887 461.418
-176.052 48.5524 471.089
-30.9059 54.1062 415.623
-57.0783 -27.9284 475.289
-91.7674 39.9714 469.96
-35.3203 56.7608 414.17
-177.709 30.6095 475.117
-95.6945 57.0215 478.723
-58.8617 67.7022 425.362
-53.088 74.473 421.581
-41.2427 55.3315 422.073
-52.741 92.1628 426.914
-117.436 -13.313 509.31
-35.0343 99.6087 421.688
-85.9252 -45.7623 457.42
-29.2272 21.7019 461.676
-113.117 -129.855 496.6
-178.542 38.1387 473.334
-89.0093 -4.799 485.157
2.68877 62.8128 415.697
-86.0084 34.1957 466.184
-92.5297 39.1089 471.891
-34.3608 -72.9707 461.863
-44.5387 54.2246 423.767
-173.817 18.6788 479.75
-112.962 -123.723 498.923
-26.6021 30.4551 457.105
-92.9069 66.6791 484.975
-44.9617 -82.8213 457.366
-60.4272 -49.367 464.585
-85.901 -20.3192 492.531
-23.295 41.5426 421.799
-143.183 14.6372 498.234
-62.6617 -65.4346 458.24
-27.1555 62.7789 410.742
-54.1014 87.1958 424.745
-20.9796 68.9716 409.557
-93.2752 13.3638 471.18
-169.946 13.4619 484.787
2.78286 45.7847 414.493
-83.3831 -59.7956 462.753
-114.936 -106.066 505.792
-118.069 -92.8801 516.516
-168.789 42.5099 471.248
-6.49064 -41.1377 471.861
-77.5974 18.4323 468.792
-115.463 -96.8766 507.872
-110.54 -119.614 497.209
-99.1768 -15.4697 498.605
-51.3096 24.7766 481.871
-127.254 47.6768 507.289
-90.1871 19.3451 469.125
-100.517 -66.0835 470.631
-89.9184 -8.10371 487.878
-35.6346 53.9281 418.646
0.670432 50.5107 414.354
-34.0386 71.8582 410.84
-174.331 1.24284 487.204
-72.847 49.6692 476.237
-89.7985 -30.6518 465.564
-92.8111 59.7441 479.54
-92.4391 42.7328 472.346
-189.959 75.6518 492.968
-3.34433 51.1769 411.939
-167.83 27.0132 476.526
-61.98 -4.42976 470.67
-71.965 -38.1265 459.3
-89.2098 -8.14555 486.257
-49.652 80.0875 420.025
-76.598 -33.805 457.999
-125.557 -115.749 505.885
-63.144 10.7803 474.627
-98.3077 -69.7668 467.855
-101.521 4.86284 483.27
-49.2781 89.4096 422.755
-49.7114 -90.2985 457.902
-31.5011 -59.3331 464.842
-174.409 64.5798 473.669
-189.635 25.8835 482.18
-94.1625 -46.8752 457.232
-27.8621 -86.9174 464.092
-177.378 1.33382 493.696
2.1355 70.84 422.016
-60.6265 -17.8675 484.735
-117.418 21.8528 491.305
-181.91 54.955 472.107
-48.5829 80.3089 419.416
-4.80016 41.8224 417.807
-16.2956 75.6621 412.449
-33.5901 -66.673 462.299
-13.2201 -107.162 471.43
4.75417 49.3131 414.699
-28.6813 -89.4256 462.085
-70.2077 -69.7391 455.496
-127.932 31.8746 496.317
-116.131 -68.4536 486.107
-87.5327 -33.6926 457.92
-180.09 65.6235 478.175
-36.9329 99.0867 423.833
-91.9062 62.2356 482.185
-33.9185 -65.38 461.194
-31.5481 -57.196 465.357
-69.6282 -28.4731 466.896
-56.8391 82.9924 426.7
-90.8066 -17.9967 497.041
-178.181 41.0934 472.604
-110.353 21.4713 485.348
-14.3448 -87.0716 474.067
-186.544 61.2044 481.465
-181.43 48.8513 473.392
1.447 45.1955 415.029
-87.8634 6.77491 473.014
-74.1977 -16.7408 491.093
-55.0258 -53.4207 462.187
-56.0295 73.0304 426.253
-128.203 -111.428 508.052
-120.212 64.8463 502.501
-44.1024 -28.7891 479.123
-88.3937 72.5793 491.881
-105.619 -124.703 496.677
-22.8953 43.9513 422.189
-194.673 27.0078 487.175
-29.0113 -90.0564 464.483
-90.3026 49.9342 472.68
-55.639 -28.5296 477.211
-103.809 -67.6372 470.227
-114.155 -61.4307 483.149
-50.1697 90.0683 424.139
-50.0835 86.6083 424.963
-95.5506 -73.1615 463.574
-94.9022 -67.508 465.249
-180.38 61.318 476.623
-17.2714 64.8035 409.259
-114.778 -11.0881 510.665
-128.703 -102.333 513.139
-15.4346 78.4745 413.849
-29.0797 -23.9552 481.225
-80.5953 -61.8717 461.81
-53.8041 -39.3578 468.644
-30.2226 61.0288 411.7
-43.0691 66.5029 416.816
-11.9555 -79.6219 477.946
-56.789 67.4245 425.177
-43.022 -31.2231 480.3
-74.0879 -64.4716 458.314
-107.051 -36.1095 501.531
-85.99 -9.14216 489.141
-79.272 22.7296 468.2
-174.441 45.1056 471.13
-60.1589 -20.7316 483.318
-29.4036 -26.6764 478.458
-179.271 56.6635 474.728
-116.991 -91.3941 511.316
-176.165 16.916 481.834
-40.261 52.5122 420.957
-79.2261 -2.70413 481.331
-88.2666 -9.3125 486.87
-86.0156 -18.2481 493.477
-94.4298 -69.0817 465.317
-99.1168 51.104 476.682
-90.8578 16.5695 469.703
-181.5 51.2675 474.325
-95.9659 31.4668 469.55
-86.8254 39.4229 468.05
-139.388 19.3582 491.942
-185.629 16.5899 484.923
-85.113 22.193 467.016
-58.1463 -47.3534 464.481
-184.997 21.8735 479.354
-28.0183 34.1837 458.325
-89.7544 -48.0896 458.854
-44.3571 56.6883 423.593
2.05863 42.4095 416.321
-91.7834 46.5803 471.482
-50.0007 62.1622 424.299
-38.7646 51.0794 421.33
-177.844 2.95538 491.136
-54.64 -41.5509 468.217
-179.033 16.0216 482.98
-65.0216 -33.1666 466.594
-84.0849 74.6799 491.125
-108.661 89.4765 491.889
-189.162 76.8216 491.615
-29.8538 -69.5924 463.136
-182.156 64.3711 479.174
-56.3192 -18.2742 484.574
-193.386 36.8648 485.873
-169.385 55.8944 470.029
-34.9452 50.3219 422.087
-167.786 36.1557 472.594
-25.0136 -24.3239 485.457
-34.7549 93.1525 418.706
-132.689 12.5376 487.444
-87.7917 20.2012 466.559
-105.809 -64.0777 475.109
-54.6995 -43.776 465.919
-16.5918 -87.5327 476.367
-94.5306 -11.671 490.318
-49.0389 -11.0409 493.943
-35.4809 -34.4323 479.124
-108.203 20.0242 481.383
-20.7111 -95.8698 474.681
-116.126 -78.9445 484.912
-65.1597 17.4002 471.337
-37.9641 -40.6468 476.256
-48.8584 76.8069 419.478
-40.686 91.215 421.47
-98.7453 1.93841 484.64
-33.0787 -1.48768 483.448
-31.3871 60.0175 412.606
-79.286 -2.11448 482.152
-96.3484 -48.0678 457.9
-15.5259 78.7452 412.873
-166.46 16.3007 483.785
-117.8 -94.1372 516.114
-26.8826 43.023 423.31
-54.734 -68.5189 456.225
-70.4044 97.9404 480.148
-176.864 17.3847 481.601
-80.797 -79.1988 460.009
-105.726 -34.0022 518.921
-16.4703 -91.7769 473.381
-52.6838 62.8143 423.806
-74.8405 -18.6122 490.176
-91.1231 -62.772 464.404
-110.621 -47.0043 492.659
-62.87 -26.1172 472.525
-2.63763 43.2988 414.426
-166.604 -104.55 653.645
-91.6076 17.3537 469.849
-172.854 15.5116 480.667
-48.1296 92.513 422.304
-164.301 41.3406 470.784
-32.9695 -23.3109 485.217
-98.5367 -62.6292 469.571
-5.20275 68.3038 418.726
-195.426 52.9366 498.454
-186.101 44.5349 476.274
-39.484 -63.434 462.938
-35.6118 0.165785 480.899
-45.048 91.2791 421.966
-169.867 11.0979 486.378
-86.1469 38.402 468.605
-56.2039 75.6139 426.666
-25.3468 86.6113 416.223
-81.6305 -26.7361 467.726
-31.903 -54.5486 466.312
9.46471 63.8459 419.427
-48.1632 46.4191 467.75
-56.2744 -9.86831 475.33
7.04357 58.9066 415.861
-173.605 10.5892 486.821
-56.072 -28.31 473.258
-51.4461 -89.4042 455.489
-105.486 1.4053 483.194
-92.1294 -64.0153 462.968
-98.8403 8.75345 478.53
-93.4063 8.49071 474.662
-84.6271 6.46798 471.194
-65.0745 -8.60455 475.716
-90.1583 -18.4406 497.158
-110.224 -28.8368 499.844
-114.092 -55.0577 490.085
-100.932 -65.1133 471.194
-93.9705 -71.6473 468.419
-14.32 -89.8874 468.707
-119.31 -123.652 507.615
-103.895 -122.381 497.97
-114.85 -126.65 502.488
-188.176 70.6043 488.467
-45.6795 56.6661 421.034
-28.2083 49.8621 416.321
-115.776 33.3425 491.032
-100.167 31.4804 471.623
-113.775 26.5418 488.017
-90.9534 21.4147 468.065
-107.551 19.4102 481.612
-104.927 17.3095 479.139
-187.348 4.26118 497.951
-182.585 2.97717 496.219
-105.955 -8.55876 496.193
-81.3395 -60.5039 462.439
-82.8704 -61.1985 463.151
-30.6115 -63.9166 463.597
-31.4856 -67.0039 463.57
-91.6251 -75.2281 461.089
-5.97925 -79.2014 476.746
-23.1191 -78.408 469.163
-54.4638 -77.8674 456.32
-25.5087 -79.0936 465.522
-26.9785 -79.6496 464.19
-44.9364 -80.1858 458.122
-45.6125 -80.7658 458.084
-53.1107 -81.6636 455.899
-6.44205 -85.3934 474.508
-72.8471 -91.2313 457.192
-69.5567 -99.0453 458.971
-39.6879 -99.4595 461.222
-20.3016 -102.078 475.151
-6.48613 -101.875 473.905
-6.771 -106.995 474.706
-121.193 -121.061 509.988
-114.422 -125.29 500.275
-27.2339 91.6118 419.116
-26.4549 84.3868 412.838
-20.7717 83.3834 413.36
-24.7796 74.2709 408.87
-25.9996 65.1712 410.039
-13.9326 61.6067 409.803
-46.7439 57.6349 424.421
-4.97754 50.6037 412.409
-164.836 40.8356 468.433
-77.1899 32.4152 466.677
-86.0749 20.5556 467.526
-82.9138 10.0355 471.402
-73.0575 6.82862 474.538
-56.9119 3.88087 483.33
-67.0013 1.13388 481.974
-95.7921 1.58999 483.524
-87.5952 -8.28671 485.736
-39.6945 -15.9515 497.466
-52.5995 -21.6954 484.266
-58.553 -26.0037 472.21
-38.1646 -29.2093 479.733
-7.64138 -30.5436 483.383
-66.1213 -30.8375 467.902
-66.7752 -31.0213 467.344
-72.8292 -31.1307 461.226
-73.3504 -31.5711 461.367
-76.4018 -31.9546 459.18
-45.2614 -34.2154 474.073
-14.4803 -39.886 477.243
-68.6501 -39.7152 460.289
-64.8962 -40.8507 462.334
-71.9955 -41.7706 457.296
-82.0416 -41.6103 455.461
-56.1771 -43.6643 467.034
-68.7462 -46.4895 461.048
-97.1278 -46.8337 459.49
-95.9152 -49.2295 459.239
-49.8264 -59.3151 460.685
-45.8239 -61.3343 461.191
-50.2219 -62.3879 459.764
-101.932 -64.7184 473.5
-2.08457 -79.9079 476.923
-64.669 -83.3188 455.201
-80.3374 -89.1246 459.699
-73.5969 -90.4244 457.579
-21.5459 -94.1637 472.549
33.3935 -118.725 576.906
-74.5003 -99.4439 460.364
-15.8059 -101.581 473.622
-6.67964 -103.045 474.051
-69.8121 -101.786 458.624
-67.3769 -101.959 459.117
-120.012 -123.537 506.794
-171.621 15.0411 481.069
-176.786 27.7858 475.694
-166.644 45.3134 470.314
-72.7238 -67.5332 457.389
-12.9259 -95.9078 471.662
-30.1764 62.1168 411.846
-178.235 25.6984 476.525
-181.966 21.5905 478.593
-98.1745 -20.9811 494.214
-151.283 19.0265 485.302
-104.377 -21.1929 498.511
-29.8 53.9232 416.52
-186.734 29.862 477.607
-54.4303 -72.9774 455.937
-184.304 33.8766 476.27
-163.671 22.7416 477.855
-87.411 -73.172 460.229
-43.4767 -75.5765 458.499
-21.5319 64.0823 409.582
-187.277 62.5928 484.081
-103.154 -12.9288 500.994
-118.835 -98.2234 514.382
-45.5492 56.2448 423.038
-41.7791 52.1311 422.235
-115.185 -121.175 500.738
89.4054 108.277 434.74
-61.0737 -9.97002 476.836
-17.7495 -102.944 471.349
-52.5058 -35.5531 471.745
3.4463 71.2131 421.868
-171.161 57.254 470.015
-182.714 48.4811 471.942
-22.9922 26.8768 460.588
-21.3924 26.6186 460.661
-53.4053 -68.0002 455.832
-38.537 -44.2645 469.939
-11.8975 -83.766 475.602
-35.3669 -45.3771 470.419
-41.6555 -38.4575 472.538
-122.312 6.07718 500.629
-4.24507 39.8359 417.413
5.74383 52.7764 415.021
-182.704 12.6429 485.466
-182.267 14.8509 483.41
-106.664 -124.305 497.56
-171.397 31.7727 474.326
-67.4082 8.19414 474.658
-172.242 43.1996 470.72
-171.567 58.769 472.041
-40.9643 59.6934 418.711
-14.4535 -89.567 472.668
-92.029 -21.6134 495.458
-93.3732 -19.9247 495.465
-88.7191 -10.6137 488.198
-65.6223 -7.62166 474.596
-77.081 17.8647 468.55
-178.268 24.4131 477.209
-184.894 30.9758 476.759
-170.638 56.3546 471.301
-37.5684 96.6739 423.312
-56.9138 -43.946 466.109
-90.8142 12.5106 471.493
-185.709 28.8368 477.364
-183.976 31.0145 476.461
-183.434 43.4696 474.047
-55.5624 -54.2266 462.401
-90.4801 -49.1653 459.903
-83.9676 -46.0021 458.235
-70.1747 -39.7936 459.501
-69.77 -39.1623 459.407
-71.2965 -38.7319 458.956
-77.5569 -38.0022 455.621
-52.568 -38.5791 469.476
-33.9408 -37.6765 478.206
-80.3534 -10.0213 489.299
-79.4781 -6.11919 484.266
-69.3911 1.45629 479.374
-177.7 3.20099 488.03
-18.1132 34.3861 463.429
-10.895 40.4916 419.854
-28.9481 46.9004 423.286
-4.44457 47.3071 413.568
-8.34877 49.5395 412.754
1.97253 50.5617 413.595
-22.0641 56.6368 412.168
-9.99873 60.4167 410.812
-51.1547 64.3057 423.669
-11.129 60.8227 409.942
-43.7677 91.7935 422.56
-6.16388 -100.834 474.06
-2.93003 -97.353 474.265
-50.5118 -82.723 455.297
-2.36083 -84.6114 475.885
-3.04644 -83.6043 474.174
-52.2557 -80.8663 455.295
-60.2648 -76.7579 456.291
-53.8575 -76.0942 455.297
-35.41 -73.8047 459.59
-34.0591 -69.6584 461.853
-44.9675 -66.9311 460.491
-49.142 -65.9629 459.259
-57.8233 28.4615 476.144
-25.9368 30.8906 459.599
-46.6884 35.5611 487.186
-19.0425 33.1021 462.394
-72.3804 35.5431 468.426
-30.8454 46.9741 422.362
2.47845 49.0964 415.363
-38.3606 52.984 421.284
-51.9918 -102.61 459.934
-26.5098 -99.2688 469.888
-43.5372 -95.3092 460.142
-77.8379 -88.0352 459.763
-80.2734 -87.4416 460.198
-51.4293 -84.6422 456.151
-37.9186 -80.1147 460.785
-49.9876 -73.4787 457.836
-15.3579 -70.8963 480.349
-6.15561 -69.6926 480.736
-4.22817 -68.8385 482.559
-71.6362 -65.5855 457.454
-31.6027 -42.8288 475.714
-33.9662 -42.4602 474.377
-34.5993 -38.3155 476.577
-53.6494 -31.4739 476.189
-53.0092 -28.6888 476.14
-34.4722 -18.5977 492.335
-98.5133 -16.1288 500.995
-44.7638 -5.92301 496.046
-123.068 8.96832 494.88
-91.7143 15.0192 470.554
-95.3449 31.7962 468.527
-132.732 41.118 504.259
-7.80661 50.8611 412.032
-149.275 65.792 474.805
-16.3336 87.6015 421.329
-247.052 -156.168 643.793
-34.3127 -98.8499 462.648
-13.2326 -72.122 480.7
-85.4662 -41.3019 454.823
-31.1398 -39.1535 480.512
-54.793 -36.1236 470.755
-120.692 -7.2904 507.106
-189.606 6.50932 495.944
-60.7201 10.9764 476.466
-92.0512 35.3189 467.697
-190.97 45.9502 478.24
4.89016 56.2341 414.432
-121.309 78.9222 512.404
5.77724 67.7899 421.773
-9.95747 72.9494 412.641
-165.459 36.4262 469.143
-14.7718 54.396 411.159
-23.6896 96.6676 423.924
-122.108 -23.8171 517.611
-96.2239 -21.1143 497.393
-83.8399 -17.0082 495.598
-123.152 37.3562 499.546
-117.075 -115.651 499.574
-46.2675 -84.1888 458.541
-36.6088 -32.1852 477.555
-33.6197 72.3235 410.94
-172.571 41.6362 468.444
-98.2238 -11.4348 491.963
-102.505 -42.5298 462.536
-101.802 -65.5774 470.358
-46.6333 82.3819 418.192
-176.831 8.95812 486.416
1.817 18.461 488.268
-7.79015 -91.4077 476.647
-40.3908 86.3497 418.356
-85.4327 86.7275 461.342
-109.842 10.1127 483.496
-58.712 0.580567 479.873
-28.8711 -21.3316 488.71
-4.61931 -75.1071 480.042
3.25445 52.7265 414.787
-90.1933 50.4468 472.511
-141.05 46.9511 496.377
-177.04 5.28564 480.948
-51.229 -20.2847 487.129
-242.149 -127.318 647.352
-89.0279 20.3041 468.023
-185.657 2.05306 494.936
-49.1773 -15.5747 494.935
-24.4007 -19.2601 494.724
-70.6201 -27.2109 467.253
-57.729 -29.3601 472.69
-29.9909 -49.8197 471.633
-83.8344 -60.1706 462.736
-15.787 -75.0156 475.721
-24.8234 -80.7828 465.677
-28.0628 84.8842 414.008
-12.6817 73.4449 411.283
-29.9793 26.6977 462.466
-61.3923 20.1164 472.773
-62.1522 15.897 473.751
-180.87 16.2055 477.202
-58.4226 10.2083 478.082
-108.378 6.07037 482.13
-96.3985 -3.56111 484.373
-45.5731 -15.3823 491.998
-37.8563 -16.629 495.114
-72.7686 -32.6985 460.683
-39.97 -43.4967 470.918
-84.1755 -44.5419 455.588
-40.0407 -47.4382 468.07
-39.4816 -51.2077 467.287
-62.614 -51.2468 464.148
-64.5536 -53.6661 464.685
-28.7179 -59.145 466.776
-46.7425 -62.9786 461.68
-36.686 -63.7318 462.735
-27.0751 -64.8977 467.279
-48.8869 -67.4531 458.605
-30.5932 -68.263 464.397
-52.2337 -72.0522 456.61
-14.5537 -83.2542 476.677
-48.9375 -83.7903 455.621
-25.1383 -85.9477 466.012
-25.5032 90.4497 417.14
-46.3905 90.3172 422.541
-20.3497 85.2854 415.421
-53.5307 80.7055 423.969
-48.9944 75.1946 418.947
-14.7697 70.3276 409.714
-15.7201 68.9025 409.202
-53.813 67.9527 424.696
-50.8287 61.3113 424.025
-78.2286 71.1889 487.536
-0.686701 47.2316 414.935
-132.616 56.8448 489.134
-5.33067 44.017 415.558
-0.919191 42.9437 416.864
-14.5672 41.2561 423.082
-48.0926 44.995 489.252
-141.658 39.2143 493.391
-71.5999 34.2968 469.057
-14.8966 26.4612 467.54
-31.3472 26.0618 461.204
-76.1228 26.0262 467.75
-92.0878 23.2237 469.313
-125.536 23.9083 487.623
-18.8808 16.8713 465.797
-123.603 19.2066 491.268
-162.281 17.6178 479.801
-165.451 15.2703 480.233
-121.223 9.65344 496.265
-109.063 1.60763 486.043
-121.259 -3.39023 505.232
-39.6183 -14.2757 494.523
-91.8386 -16.5988 496.44
-110.336 -26.8278 498.368
-80.1263 -31.3082 459.482
-51.3374 -38.8284 468.79
-54.6475 -43.9291 466.341
-27.5323 -48.0532 473.81
-25.6494 -64.3508 467.906
-27.2142 -82.3999 464.445
-45.1274 -84.2579 457.808
-27.7848 -88.3824 464.324
-35.5478 -91.5253 460.196
-43.3755 -92.9903 459.111
-117.285 -124.122 502.492
-17.1355 80.5649 412.643
-29.4664 73.1499 409.651
5.23749 60.2414 416.847
-19.6173 53.248 412.953
2.24595 46.866 414.872
-71.0802 39.9981 470.512
-68.6375 37.154 470.797
-19.5147 29.5101 462.284
-53.2604 24.3766 478.265
-25.0637 21.7804 462.727
-19.4895 21.2296 464.336
-65.0584 22.5952 470.998
-62.3568 13.359 473.301
-61.6373 11.6413 473.935
-83.1554 9.13469 470.436
-123.507 6.84605 498.11
-73.6682 1.00554 478.509
-64.3252 -8.37178 476.989
-26.4812 -12.3913 490.14
-31.4551 -18.3129 494.406
-89.8099 -18.8028 498.51
-66.8834 -25.8448 469.38
-58.9116 -27.4224 472.291
-35.3793 -33.0687 483.473
-83.3083 -33.0743 457.384
-5.26708 -34.818 480.911
-30.9694 -37.4243 482.313
-23.2775 -51.1234 477.791
-90.5879 -50.1513 459.987
-44.5557 -54.0637 462.901
-18.6259 -62.8504 475.31
-31.9746 -63.5942 463.775
-30.3364 -26.4763 476.729
-120.469 22.1749 491.741
-93.1978 45.5024 473.088
-58.293 39.8111 475.897
-38.8871 52.3808 420.396
-86.7526 -6.51395 486.615
-91.1012 -32.3449 462.742
-66.4297 33.2284 471.672
-44.188 93.9553 421.501
-11.9444 40.9368 421.19
-37.9146 -11.8921 491.229
-9.82371 49.0264 410.24
-181.566 67.0173 481.062
1.03394 50.9599 412.959
-186.338 71.1047 487.223
-35.7632 101.906 425.566
3.64538 51.2817 414.7
-22.8089 57.8075 411.617
-94.7837 23.9077 469.69
6.26197 59.8796 416.966
-119.608 18.0285 493.064
-14.6624 69.396 409.998
-42.0401 51.2226 422.699
-19.2031 85.6638 416.68
-57.0468 71.8931 424.021
-168.833 17.4334 480.385
-192.729 75.9353 492.883
-44.9972 -96.5801 459.66
-114.431 13.9449 484.536
-19.8932 25.1677 461.699
-91.8346 15.2182 470.33
-3.99067 -78.4382 476.936
-43.6412 96.3417 422.753
-177.49 68.662 477.329
-95.4492 31.5707 470.42
-116.585 -124.731 503.953
-95.9321 19.3531 470.386
-13.3515 42.418 420.586
-52.272 -63.3818 459.223
-15.9573 55.6409 411.254
-50.3483 85.5783 424.045
-89.2597 -35.9623 457.235
-112.233 -67.8702 479.645
-115.082 -130.536 507.951
-110.49 -120.306 498.09
-68.4128 -72.7527 456.489
-110.675 -63.489 479.156
-27.032 -58.6063 468.532
-125.416 -114.93 508.084
-105.469 -62.5118 475.165
-32.8243 -55.989 467.01
-107.437 -109.876 501.654
-111.785 -62.4617 480.669
-99.714 -40.1731 460.131
-28.4957 48.0065 419.52
-55.4785 -73.6952 456.081
-90.6545 -29.3902 465.918
-86.2086 35.416 466.21
-92.51 26.1897 468.633
-186.638 29.9234 479.026
-112.143 -15.202 512.458
-35.1148 -71.7522 463.298
-19.8708 50.4296 414.194
-192.006 18.6107 489.587
-25.2414 -27.6412 480.225
-34.907 64.4542 413.084
-10.8827 87.1444 421.953
-99.0927 51.0836 477.047
-63.7439 -52.6386 463.893
-71.0447 -10.7075 486.18
-19.685 26.3968 461.934
-16.123 36.727 422.322
-52.9523 -72.884 456.977
-52.0094 78.39 421.085
-175.344 62.1129 474.157
-104.041 7.93587 483.287
-81.3439 -17.2026 493.456
-173.414 10.7577 487.046
-39.3085 -17.3801 493.26
-184.321 21.9017 481.698
-22.0887 -98.5835 472.619
-53.775 69.7287 420.767
-34.0882 51.2621 420.571
-26.0044 48.5339 421.846
-49.3599 92.2598 422.418
-140.402 14.3029 494.554
-65.6704 -9.22112 477.235
-24.7003 53.381 414.97
-69.4834 -67.5775 455.868
-80.1482 -7.53216 487.915
-118.252 21.9003 489.969
-85.2377 -26.9893 481.392
-131.761 53.0042 497.48
-181.204 6.89546 493.333
-44.3386 58.7682 421.911
-90.749 22.0743 468.109
-120.114 -101.169 509.641
-118.002 -109.596 505.727
-66.4063 -7.95259 475.801
-95.2544 -10.1144 489.786
-85.0725 38.4634 467.785
-3.91809 50.6294 412.285
-121.488 -100.262 501.39
-102.82 42.0729 474.821
-128.485 -108.702 510.933
-166.865 28.808 477.25
-92.7044 -63.4012 465.447
-54.9377 -39.5628 468.043
-185.034 29.9555 477.088
-103.755 44.6958 476.646
-39.6068 -27.2392 478.447
6.1578 54.9856 414.837
-85.4118 -61.5488 463.009
-24.3501 53.7438 414.607
-52.7628 87.996 423.39
-50.4534 -69.478 458.891
-113.493 60.8648 508.095
-54.7661 -52.3425 462.329
-111.586 13.6571 483.008
-44.4626 55.1414 424.666
-166.926 14.7265 484.009
-83.5715 38.2916 468.048
-42.424 60.3458 418.776
-37.4911 -7.31946 486.902
-86.6261 39.5853 469.074
-80.7007 -7.27123 485.02
-86.9006 40.7037 468.931
-177.684 35.2208 473.596
-91.5122 8.35212 473.439
-17.22 41.9433 421.884
0.163482 44.0392 415.349
-183.898 4.14099 497.369
-68.0947 -65.7777 457.915
-171.439 58.1498 471.926
-32.9415 17.7151 460.735
-74.3379 -97.9279 460.185
-27.6705 -64.441 464.817
-109.684 -124.949 497.631
-185.862 5.78773 496.885
-61.8334 -69.6938 456.96
-197.647 28.5432 492.96
-33.741 48.6132 423.049
-18.2422 117.281 428.118
-102 -64.9717 471.766
-5.85828 -35.4314 475.925
-65.1685 -69.0113 457.858
-92.0942 -16.6928 496.807
-110.071 5.46882 485.287
-37.276 -65.4065 461.938
-120.117 11.4741 496.408
-6.04563 41.112 417.151
-53.0173 -40.7797 467.77
-49.9601 -73.3244 456.949
-45.1823 83.5298 417.812
-143.194 24.4297 491.95
-6.50543 41.9828 418.656
-59.1338 78.7159 426.297
-193.896 23.5061 487.558
-69.8976 31.0779 469.722
-118.611 -106.317 507.339
-107.831 -60.6133 478.826
-138.229 34.1812 493.542
0.970914 43.1826 416.155
-182.966 48.7501 474.442
0.886998 47.1818 414.06
-172.336 49.2217 469.021
-193.792 57.8381 487.982
-53.6466 63.1851 424.509
-57.0805 -45.8205 464.567
-95.5001 4.27168 479.757
-54.3874 -71.4131 456.08
-44.3319 -1.29717 494.106
156.03 17.452 578.438
-91.7703 10.4077 472.613
-62.3545 -63.4803 459.67
-12.8519 -40.1885 477.27
-88.6722 -62.9475 463.276
-102.434 -67.6256 469.63
-113.652 -126.611 500.847
-91.1674 13.7981 469.089
-45.3166 -36.1941 473.277
-95.603 -38.4148 461.711
-56.8441 -20.9995 487.691
-112.05 -129.746 498.358
-51.6855 -31.2939 474.14
-59.6429 -11.8229 492.336
-108.246 -27.1354 497.482
-81.1256 -11.9358 490.795
-32.0958 -19.2715 493.57
-100.585 -12.418 499.128
-117.692 -7.81549 508.502
-105.33 47.4279 479.636
-64.2718 -60.6062 460.461
-58.8417 -23.8284 477.045
-87.5141 2.22011 475.761
-111.722 -17.162 509.961
-167.135 7.6671 484.195
-103.638 -126.717 496.899
-93.0722 13.548 471.744
-165.533 15.6559 482.915
-92.3523 22.8402 468.87
-115.714 -13.8096 509.725
-28.1363 33.9038 458.859
-87.5422 -7.97461 487.263
-63.5279 37.653 471.721
-24.9058 66.2082 409.353
-81.0175 36.7151 466.971
-44.7259 42.6831 485.509
-195.025 67.718 496.125
-15.0075 41.0392 421.235
-92.5827 42.034 471.522
-43.3572 -63.728 461.565
-120.725 16.5708 495.255
2.45946 49.0311 415.391
-93.2271 51.0914 476.455
-73.9956 15.5089 469.776
-19.2686 41.7467 421.916
-58.3234 66.0866 424.22
-43.5895 83.129 417.227
-23.6773 56.5991 411.348
-82.5458 -61.2873 463.548
-49.3275 91.9755 423.415
-65.3209 -63.4398 458.726
-171.537 7.62362 485.116
-54.9853 -36.6181 468.735
-185.607 13.0245 487.778
-84.331 -31.8829 459.294
-124.082 26.7622 494.963
-170.329 11.2051 484.326
-119.39 15.0622 495.524
-183.385 66.4971 478.837
-65.4696 38.883 471.861
-8.22062 -106.829 471.868
-53.4647 68.2064 424.967
-84.3721 -62.9593 461.541
-195.962 24.4208 489.304
-9.73245 -26.0792 486.547
-90.4955 22.0385 468.659
-114.688 -68.0665 481.764
-81.2242 38.334 468.993
-46.9148 -29.421 477.763
-28.4921 53.2326 415.84
-181.714 69.3407 482.027
-124.474 -17.5975 511.926
-129.4 20.3699 489.379
-30.5576 20.2721 459.91
-38.4693 95.6492 424.03
-55.549 43.1713 480.666
-41.576 -96.9951 459.689
-102.336 -35.2245 467.881
-63.8607 -19.0369 481.802
-63.5444 2.98781 479.052
-68.3072 -116.406 466.006
-17.4035 68.3209 409.26
-43.2852 -85.6654 458.589
-112.426 12.0949 482.624
-53.1689 67.754 423.257
-78.2734 -19.1594 494.154
-63.7953 -58.6536 461.366
-117.62 14.5125 492.282
-51.83 -69.0438 456.93
-140.004 33.596 494.445
-189.241 7.56256 501.475
-86.6089 -12.3435 489.842
-94.3694 -49.2805 458.88
-64.2491 -11.7295 479.948
-105.044 48.9778 479.549
-47.4775 68.7292 417.629
-186.737 60.4497 481.049
-102.121 -32.8052 470.347
-136.503 40.4579 500.185
-59.565 26.1183 473.434
-179.203 51.4946 472.477
-62.3252 -37.1718 465.564
-26.6369 41.0326 423.398
-165.331 41.4303 471.287
-23.4413 73.1826 410.595
-15.5167 47.5837 416.277
-117.734 -127.792 502.838
-8.58737 -35.444 475.555
-22.3544 -100.797 474.277
-102.946 -121.769 496.125
-42.8704 -29.2136 479.018
-71.4887 -55.7107 462.992
-28.8206 94.4625 422.447
-188.064 64.6617 486.518
-39.4751 96.5398 422.694
-13.1621 60.8425 409.732
-63.5555 70.8044 430.111
-46.006 77.5979 417.575
-178.581 18.1246 480.117
-89.0831 -39.0459 455.689
-13.8644 48.006 414.826
-115.08 -123.136 499.704
-6.02261 -33.2003 480.425
-24.084 63.3171 410.193
-49.5701 75.1032 418.841
-64.5136 42.2122 473.969
-34.8287 -72.2358 461.3
-190.375 27.6209 478.09
-34.9699 -20.6149 483.506
-92.023 -42.6241 457.097
-17.6937 40.1675 419.848
-142.657 41.7233 498.812
-14.1729 39.1644 419.485
-53.6293 -78.6732 455.74
-26.6158 57.5532 412.855
-75.951 19.9174 467.963
-111.676 -13.903 511.42
-185.588 1.66435 496.412
-60.8832 22.0896 473.383
-53.963 -103.497 458.676
-19.3054 46.7592 417.515
-174.28 4.27692 487.988
-12.5196 -75.5835 478.507
-146.684 20.3649 495.425
-173.242 8.93219 488.718
-185.854 12.6369 486.542
-47.8314 -37.6393 470.466
-180.305 9.68513 491.788
-118.884 -119.963 501.433
-12.4078 88.1471 420.734
-33.6327 96.8968 422.154
-94.7013 -14.3774 495.408
-57.5737 -104.052 458.82
-60.0819 3.6584 480.778
-19.3849 50.536 414.989
-29.1884 57.4683 413.955
-53.4096 -47.2659 465.375
-16.438 37.6714 420.625
-31.7835 23.5034 462.639
-116.912 -1.77783 507.147
-86.6457 -35.6114 457.891
-128.732 -103.958 511.077
-176.744 65.3272 476.9
-71.1447 -38.1595 461.316
-35.4796 -20.1385 487.395
-84.2747 -6.01743 487.222
-112.05 22.9938 484.611
-42.302 -24.1072 480.322
1.09696 72.5742 421.034
-7.93468 39.2064 417.844
-97.9812 -38.7746 460.947
-134.11 27.2851 491.355
-116.952 10.4524 496.377
-179.027 22.4162 478.213
-111.067 -21.5095 503.562
-102.768 4.00685 484.037
-129.104 -108.264 512.231
-184.197 51.352 476.966
-18.1485 89.7898 419.196
-114.376 1.85268 495.712
-96.5342 27.9278 471.324
-93.8965 33.6104 469.891
-192.324 42.4738 482.006
-90.3575 13.6013 470.55
-116.08 -81.8314 485.179
-75.276 -99.8393 459.303
-103.774 17.9909 478.389
-71.5217 -65.9627 457.952
-29.4445 -62.6895 463.632
-32.2604 43.9714 468.073
-65.0569 -3.71445 468.606
-51.3592 90.6761 423.549
-28.4357 35.8642 457.653
-11.5512 -25.0261 488.028
-194.939 59.1651 494.097
-39.4614 -97.8281 460.446
-98.3328 -10.6431 490.682
-181.644 39.9335 473.938
-167.118 40.7192 472.804
-114.774 -7.68495 507.783
-54.0679 69.8255 424.95
-111.718 -56.4072 483.937
-174.429 29.2935 475.184
-104.596 77.2539 517.375
-111.682 -53.6373 487.227
-188.285 10.0933 495.114
-102.199 -63.7783 472.371
-24.6215 83.8474 412.839
-54.6348 12.5598 481.447
-105.459 -80.4485 468.824
-16.2925 -107.07 472.474
-98.8666 13.6987 475.127
-35.2602 54.2197 418.175
-55.706 78.1904 427.171
-49.3569 92.2063 422.616
-114.623 -125.994 500.554
-7.08931 -100.243 473.435
-90.7807 -22.6338 490.239
-41.9735 -14.7127 492.509
2.52471 72.0374 421.084
-108.607 13.0292 483.586
-116.24 48.1488 496.521
-8.42323 -75.2603 480.07
-94.3189 -33.4708 464.375
-183.229 15.3478 483.591
-15.9212 56.9808 411.694
-37.8765 -35.2308 478.007
-147.215 25.1331 493.314
