-81.7351 -73.4466 458.624
-109.043 49.637 485.194
-128.196 -102.743 513.727
-54.8208 -68.7403 457.057
-98.8441 31.2335 471.624
-73.8459 -10.1053 486.596
-141.043 46.518 497.62
-196.347 67.1128 499.33
-63.0882 -10.3253 482.469
-105.144 -124.076 497.248
-103.723 -126.728 496.626
-123.781 -99.3759 515.147
-85.9624 -18.0457 493.811
-4.87843 41.4958 417.13
-183.661 45.9101 474.512
-92.2836 23.1614 468.918
-80.4367 -87.4932 459.559
-27.2248 91.7753 418.873
-113.967 -55.1192 490.158
-106.668 -124.305 497.549
-25.2764 87.043 415.463
-48.2885 34.527 479.143
-33.9044 48.3236 422.721
-179.912 17.8859 480.734
-164.378 41.1777 470.129
-8.35181 -106.94 473.4
-165.494 20.3014 480.002
-19.7131 26.4068 462.188
-24.2149 -25.7472 482.092
-111.256 13.7459 483.444
-45.8674 55.3346 423.993
-27.6628 50.9408 417.605
-107.611 -81.5468 471.106
-90.8814 -19.4214 495.348
-54.9593 -39.5882 468.099
-115.096 -65.2264 484.568
-145.208 15.3324 497.557
-30.1103 -49.9453 471.82
-10.5409 39.047 419.778
-116.796 -91.6351 516.342
-105.064 -80.5513 469.252
-101.553 -65.7156 470.672
-90.9641 16.4853 469.449
-168.764 45.5552 470.49
-87.6481 20.4745 467.74
-103.132 -125.037 496.788
-93.8062 51.5476 475.433
-113.637 -126.985 500.903
-24.1769 -15.4232 488.539
-117.878 14.3567 491.933
-139.08 33.4395 493.835
-169.944 13.4896 484.839
3.25311 71.0962 422.242
-48.1619 -10.832 491.849
-5.3525 -35.1046 478.644
-77.75 -14.02 491.103
-104.776 -121.118 497.313
-84.5215 6.88528 471.893
-35.1395 49.9582 421.725
-51.2199 64.2694 423.551
-61.1214 -33.6116 467.738
4.75235 49.3145 414.705
-81.8425 -62.6965 461.927
-91.6833 35.204 468.592
-142.115 16.2206 494.327
-54.7638 -52.4488 462.632
-188.712 13.0804 490.476
-44.9928 -82.8216 457.47
-30.4341 20.3835 460.543
-30.8463 -79.9523 463.103
-59.495 26.1164 473.262
-44.5505 58.5873 421.627
-173.541 -4.1222 489.384
-48.4723 89.4457 422.15
-73.4284 -31.6791 461.54
-108.915 40.908 481.982
-52.424 74.4439 422.458
-94.0329 -14.0631 496.025
-19.0257 16.7406 465.055
-116.111 -122.795 501.031
-190.131 25.6369 481.603
-73.0539 -31.5467 461.745
-71.3252 -11.1596 485.603
-25.1202 -64.1867 467.297
-120.363 -100.941 509.23
-40.1162 -47.559 468.269
-179.123 15.4598 482.27
-62.1646 15.9084 473.788
-93.2719 45.5497 472.939
-95.9309 31.4607 469.616
-6.64229 -103.014 473.615
-6.75575 -42.6928 476.248
-87.3359 2.66792 476.291
-67.0362 -26.0499 469.639
-138.067 33.9325 494.331
-26.9182 -58.5117 468.318
-114.943 -126.671 502.331
-52.2893 -80.8778 455.489
-3.45716 -83.9089 475.583
-84.0891 -53.6504 461.088
-23.4341 57.0594 412.529
-34.4687 -71.5829 461.484
-64.1552 -6.47847 478.174
-75.9939 19.9798 468.301
-111.607 23.0341 485.142
-15.2076 78.7631 413.206
-106.125 -121.233 497.663
-171.513 8.11837 486.275
-62.3611 -63.2551 459.099
-116.332 48.1673 496.352
-92.7588 -29.2083 467.993
-5.272 -34.2186 479.388
-56.0927 -78.1824 455.582
-94.201 -49.1245 459.487
-53.0473 -30.5744 474.993
-57.236 28.4847 474.95
-88.3409 -20.4041 494.353
-75.1249 -99.6423 460.549
-170.477 11.8912 485.79
-11.7468 -75.7622 478.064
-178.301 41.0395 472.196
-168.911 42.4566 470.56
-189.619 76.9899 491.221
-56.7732 72.9912 425.156
-42.8053 78.2159 415.156
-113.874 -15.1794 510.477
-39.8189 -27.9314 479.856
-81.0205 36.6935 467.08
-136.515 41.2098 498.026
-89.0243 20.311 468.053
-12.2183 40.1979 419.962
-118.412 -119.993 502.105
-118.579 21.7725 489.748
-120.654 36.4764 494.569
-190.617 75.894 492.401
-128.646 -108.611 510.715
-93.1865 39.4633 470.543
-95.8796 31.6455 469.611
-39.227 -15.6791 491.076
-41.1525 -84.9143 459.097
-52.3848 -35.3617 471.436
-85.412 -61.5489 463.008
-126.499 -102.225 514.029
-166.608 45.6483 470.363
-139.257 25.2705 491.679
-117.134 -124.081 502.724
-92.6212 66.4811 485.411
-189.855 6.95833 500.878
-12.8613 73.3029 411.945
-171.492 43.3252 470.869
-143.226 30.2768 493.164
-186.124 60.9962 481.902
-57.8817 -29.5597 472.965
-3.94213 50.6624 412.393
-56.6135 85.2059 427.264
-85.0975 22.2248 467.188
-50.86 -19.4599 486.333
-80.6385 -61.8115 461.626
-69.0522 -39.9304 460.943
-30.8625 -38.2047 478.272
-57.9817 67.9027 426.422
-184.184 33.9509 476.62
-184.781 22.1082 479.836
-30.0183 53.4339 415.912
-165.203 37.1561 471.614
-187.461 62.6774 483.901
-15.9556 -89.5664 472.889
-37.1936 -8.6283 490.719
-88.1969 -8.80685 487.456
-53.6324 -78.6754 455.757
-96.8011 48.8437 475.391
-165.28 16.2409 481.96
-125.207 -100.801 514.643
-193.867 36.8024 485.352
-35.6604 36.7566 464.502
-88.6085 -10.0174 488.922
-114.735 -13.8224 510.845
-107.515 -27.3436 498.6
-19.9512 25.1884 462.222
-6.46608 -101.858 473.671
-81.421 -60.4484 461.954
-55.2374 41.9674 475.398
-166.538 15.813 482.899
-36.999 99.2607 423.484
-163.673 22.8288 478.016
0.108401 44.1941 415.699
-114.803 -123.072 500.24
-162.262 17.7169 479.993
-119.263 -6.39577 508.448
-120.474 -23.8399 519.358
-179.805 65.456 478.556
-178.316 1.1211 492.573
-3.88377 69.0856 415.931
-81.1637 -79.1962 458.528
-87.9048 6.69194 472.897
-26.9306 42.9388 423.204
-40.5807 53.1893 422.341
-185.458 32.3115 477.399
-108.958 -25.817 500.932
-63.7951 -58.7517 461.659
-93.3706 -69.5339 462.76
-115.036 -72.5121 482.504
-76.3998 -31.9486 459.171
-31.2012 41.7952 463.622
-29.0388 21.6347 459.977
-25.9577 30.9646 459.041
-95.2673 4.63898 480.235
-170.829 56.4288 470.653
-187.589 50.8948 478.492
-178.109 2.83651 490.823
-28.8685 -90.1292 464.212
-98.0338 -38.7406 460.841
-91.7624 39.9689 469.97
-182.085 65.8051 480.263
-85.2876 -41.3971 455.877
-4.9393 50.5151 412.167
-99.0436 1.45015 483.931
-110.014 10.051 483.233
-176.823 8.98209 486.467
-111.236 8.62547 484.093
-4.24877 -78.6064 477.748
-84.1478 -44.5258 456.145
-69.5699 -99.0689 458.839
-134.071 27.2023 491.707
-25.5617 90.1843 417.551
6.00875 54.9629 415.209
-191.751 75.5752 493.727
-88.7726 -8.7446 487.298
-181.042 3.33383 493.371
-115.307 -7.92183 507.211
-92.7647 42.9486 471.663
-33.1292 49.2156 421.703
-73.533 -90.3769 458.048
-52.6412 -21.7947 484.364
-105.066 -122.468 497.292
-10.9433 40.3545 419.619
-44.2802 -6.98355 492.756
-25.3799 29.9381 459.156
-38.4747 52.8401 421.101
-50.5152 90.258 423.549
1.02932 43.0184 415.783
-46.2529 76.8679 416.767
-142.12 23.5083 492.598
-27.4339 -79.6818 465.156
-35.3797 54.0649 417.968
-89.7105 49.9511 473.662
-194.172 68.1476 496.013
-83.4066 -59.8755 462.363
-181.241 8.23668 490.151
-104.31 -68.8544 471.132
-29.1155 -24.8772 482.589
-26.0185 65.1452 409.912
2.2256 46.9101 414.98
-34.7379 98.782 423.318
-14.2404 -87.0591 473.771
-5.34148 44.2423 415.927
-90.6537 22.1041 468.379
-40.4979 86.4913 418.038
-109.698 -64.8548 476.847
-91.5874 -75.243 461.185
-35.8151 -45.8989 471.18
-71.842 -38.0458 459.017
-114.202 -125.24 500.699
-23.679 96.8585 423.641
-41.9662 -96.7501 460.852
-179.176 51.4873 472.549
-171.843 59.0204 471.49
-13.5592 41.8503 419.768
-113.581 -77.8363 480.279
-87.5882 -8.30795 486.876
-94.1826 -66.0733 464.315
-172.216 42.5138 471.01
-47.7139 61.2782 422.661
-173.507 10.2438 485.684
-8.29696 50.6713 411.563
-181.754 67.1293 480.838
-54.1544 67.9919 423.784
-59.4631 -44.8935 465.116
-103.952 -21.1368 499.895
-86.2217 38.508 467.957
-51.5422 -39.1374 469.4
-120.625 -97.0172 513.676
-103.401 -7.77128 495.038
-61.2736 67.368 429.824
-181.962 69.4643 481.752
-98.7539 -123.556 496.9
-182.269 19.1537 480.333
-186.869 26.6253 479.383
-95.9442 -74.0234 463.487
-11.2292 39.9752 419.794
-62.5538 11.9837 476.177
-81.5951 -25.5744 467.117
-93.0769 13.4933 471.513
-170.936 57.128 470.753
-167.354 40.2159 470.998
-129.757 -107.885 511.241
-172.633 19.8852 480.177
-46.3973 60.8527 421.464
-30.2403 62.0274 411.582
-184.735 67.8449 483.815
-106.381 -119.135 497.818
-39.7946 -13.7598 492.768
-184.865 30.0621 477.527
0.700318 47.4476 414.751
-11.2332 60.808 410.55
-101.268 -74.9461 466.64
-92.9084 -63.214 465.092
-95.3965 19.547 471.302
-99.8811 16.1265 474.811
-83.8503 -60.2116 462.448
-71.5584 -55.4906 462.357
-34.7596 57.454 415.267
-118.293 -93.6856 515.302
-46.3327 82.2353 418.655
-83.1692 9.03584 470.198
-138.954 23.6989 491.211
2.35781 70.9803 421.585
-138.044 21.8718 490.639
-103.267 -41.6078 461.159
-111.743 29.7774 484.651
-55.4814 -73.7012 456.113
-194.709 67.6333 496.359
-176.005 48.5489 471.267
-115.634 -12.9188 511.02
-85.9501 34.1696 466.566
-102.802 3.96858 483.96
-29.4242 73.1214 409.986
-177.458 68.6485 477.37
-61.2003 -10.0332 476.71
-109.469 -65.6354 476.108
-91.9012 15.1632 470.182
-25.8042 -79.1159 465.991
-44.5258 54.2375 423.787
-169.325 55.8813 470.28
-66.9242 -54.9897 462.732
-110.197 -124.436 498.222
-43.8249 -3.85608 488.369
-37.8126 72.9628 412.078
-32.6135 -55.7428 466.511
-65.6275 38.8325 472.359
-103.651 -117.876 498.273
-107.697 -61.5904 477.526
9.49015 63.8711 419.338
-129.105 -112.253 510.368
-74.0785 -64.5015 458.386
-44.8254 57.4677 422.181
-181.985 64.2781 479.377
-35.2099 1.17177 482.832
-22.0248 56.7112 412.359
-14.3971 -70.535 478.838
-38.4722 52.9041 421.06
-170.84 19.6339 480.273
-7.60625 -91.1144 473.768
-62.6715 -52.683 462.943
-55.1397 -79.4926 455.626
-55.9548 3.5762 482.313
-188.363 7.70158 497.106
-187.866 70.4902 488.734
-72.974 6.52925 473.709
-65.2569 17.4635 471.591
-80.5045 -6.49192 486.198
-48.6222 80.3244 419.359
-85.3019 -15.302 492.368
-13.1484 60.8828 410.087
-136.405 21.4921 490.141
-171.645 58.2801 471.358
-120.616 22.1298 491.353
-105.063 41.7095 478.392
-76.0895 26.0175 467.491
-100.559 -76.3748 466.133
-50.2792 -62.4924 460.112
-85.0822 38.4795 467.681
-33.5325 -9.69902 490.87
-63.1919 13.5572 474.969
-15.278 39.8813 420.749
-116.849 12.6572 489.786
-92.123 -16.9791 495.925
-90.9412 -20.1221 495.492
-177.005 65.5002 476.474
-49.4891 -90.4332 456.886
5.32531 60.3282 416.539
-47.958 -37.8507 470.8
-35.3948 -34.2984 478.791
-91.5362 50.534 474.339
-108.092 20.0371 481.515
-65.4409 70.4797 437.216
-118.268 -103.407 506.743
-83.1068 -60.9374 462.17
-43.3066 -63.6836 461.355
-39.9922 -80.6465 459.353
-115.159 -97.2217 508.464
-72.7447 -67.4641 457.219
-30.586 -28.4691 480.342
-44.7663 -80.1325 457.558
-64.9069 22.5563 470.64
-42.3137 -30.0469 477.914
-91.6721 -16.0251 495.342
-77.6404 -38.1879 456.205
-72.8628 -32.8288 460.891
-108.286 2.3692 486.769
-27.165 62.7655 410.694
-22.4875 -49.6387 474.824
-18.1059 34.3978 463.283
-4.43074 47.245 413.446
-90.5193 13.4646 470.188
-43.5876 -75.6298 458.846
-184.436 2.94444 497.794
-62.6649 -65.4657 458.332
-86.9707 -21.4297 479.057
-195.415 52.9338 498.461
-88.8127 -62.9147 462.815
-182.847 2.72396 495.929
-48.9446 91.95 423.219
-86.9154 40.7365 468.826
-111.835 -62.4435 480.626
-82.7652 -79.2532 459.043
0.921042 72.4506 421.367
-91.7257 17.2602 469.566
-43.7395 52.3217 424.483
-108.64 1.68163 487.864
-13.9341 47.7991 414.507
-51.8686 -31.5762 474.541
-176.934 3.57842 489.058
-95.9184 1.34312 483.185
-31.7657 -57.4173 465.883
-182.139 56.3007 475.386
-90.0004 -8.48676 487.414
-106.278 -21.5983 501.943
-29.3234 57.2543 413.515
-104.989 47.2888 480.066
-95.2622 -10.1282 489.769
-100.006 14.7486 475.794
-70.7083 -27.3486 467.425
-120.086 -123.561 506.714
-54.28 67.8075 423.895
-58.1809 -0.160826 477.793
-108.434 2.25983 486.967
-118.317 21.8584 489.844
-52.5539 -38.5578 469.434
-18.4527 -62.7971 475.104
-135.646 20.37 489.902
-177.163 67.2058 476.859
-38.1809 -29.2333 479.804
-41.7822 77.7304 414.461
-32.7627 17.8763 461.651
-41.5189 55.0179 421.655
-15.1819 40.613 420.59
-101.218 -64.9414 470.827
-97.249 -38.4742 460.615
-22.681 43.1499 421.751
-53.07 -40.8597 467.939
-57.5959 -103.879 459.469
-172.375 64.6803 472.756
2.64385 48.7685 414.709
-16.1619 38.2054 421.531
-174.43 29.2912 475.177
-129.168 50.2977 502.521
-3.56325 51.4134 412.768
-55.2013 -27.7082 476.41
-56.1156 -17.9887 484.284
-69.2091 -59.6524 461.237
-92.1719 62.4449 481.716
-6.02659 -33.0695 480.17
-71.187 -15.1707 489.774
-64.2743 -60.5774 460.394
-165.439 41.2009 470.364
-165.818 13.1018 483.49
-39.2682 -50.848 466.565
-19.4748 29.4959 461.924
-85.6346 -19.6365 493.899
-28.0681 85.0773 413.628
-19.1139 85.8866 416.292
-44.8195 -54.4824 463.978
-50.8475 -83.7402 455.868
-24.8677 -86.0073 465.527
-117.706 -100.732 506.951
-192.229 43.6177 482.2
-132.207 14.3268 490.997
-45.8648 -61.3977 461.391
-20.0727 28.7838 461.539
-165.554 15.5257 482.679
-28.8468 95.0902 421.47
-53.3975 -46.9542 464.65
-105.437 -124.68 497.261
-167.834 26.9027 476.294
-143.469 14.437 497.142
-166.856 28.1721 475.848
-97.8649 -9.96515 491.503
3.67565 51.2723 414.603
-121.829 19.4301 491.406
-172.183 43.2267 470.998
-52.3268 87.7707 424.125
-50.6416 -82.7599 455.824
-124.701 -118.724 508.688
-79.2327 22.6553 467.523
-34.9094 -72.2556 461.534
-104.858 28.1839 476.749
-35.001 -21.2506 484.314
-59.9421 2.04413 476.232
-119.572 -122.94 504.79
-30.7851 47.0793 422.489
-95.4604 13.5271 472.799
-176.16 16.7585 481.608
-195.115 19.4051 493.214
-44.8664 83.3485 418.357
-177.724 30.5837 475.029
-46.423 77.6936 417.032
-62.5952 -1.15156 477.179
-121.473 -97.1792 514.953
-193.812 23.5529 487.64
-112.572 -67.8053 479.357
-54.7249 69.6634 423.865
-27.5613 70.9858 409.746
-90.632 -29.4685 465.968
-108.015 -60.5164 478.65
-10.2221 72.7695 413.223
-184.333 3.72067 496.888
-11.6739 -29.5476 481.539
-28.4635 53.2964 415.917
-4.33372 39.811 417.154
-115.604 -81.9083 485.533
-104.492 48.6936 480.261
-102.078 23.5872 474.463
-58.0076 65.8457 426.665
-171.328 47.3838 470.467
-34.5696 -49.4838 469.211
-26.8615 -99.1281 470.792
-49.3556 89.4521 422.623
-69.7865 31.0916 469.312
-108.945 -25.9613 500.888
-57.153 -46.0655 465.231
-112.405 -17.1531 509.18
-49.0243 91.9582 423.257
-187.447 18.901 484.345
-41.973 -14.6343 492.36
-34.3404 -65.6807 462.629
-16.0652 56.7445 410.977
-182.126 27.0233 477.382
-82.1148 -61.3676 462.048
-137.792 21.6555 490.555
-42.5016 -25.6386 481.818
-90.7649 -50.3851 459.243
-178.229 24.5363 477.555
-89.1738 -36.0569 457.48
-25.2704 52.0353 415.572
-54.428 -71.5042 456.53
-60.3502 -49.2186 464.022
-37.2438 -65.3768 461.822
-14.8316 70.2936 409.984
-62.5956 -51.0394 463.377
-44.9484 -66.914 460.414
-43.6158 96.3008 422.838
-178.548 5.27647 489.651
-106.62 27.0248 478.981
-169.719 49.0028 470.393
-26.8195 30.5326 459.066
-84.4201 -6.83023 486.099
-7.48426 54.2031 410.745
-43.4654 83.0578 417.441
-132.794 42.8862 499.806
-186.522 71.1818 487.04
-65.7223 -30.4322 467.274
-186.313 68.4703 485.909
-103.855 26.1679 476.035
-112.066 -111.167 502.095
-5.85251 -36.1341 477.711
-78.0221 -88.097 458.896
-35.6454 53.914 418.626
-114.202 -70.0783 481.464
-11.4698 -79.4227 476.828
-188.192 62.1118 484.344
-166.966 14.4781 483.558
-44.9491 -96.6087 459.5
-64.5506 42.1908 474.064
-174.464 45.096 471.024
-182.29 14.8039 483.355
-44.9033 56.1648 422.825
-13.938 -107.25 473.821
-182.183 16.1228 482.331
-91.8145 -64.28 463.734
-189.528 73.7212 491.168
-62.4037 -37.2446 465.715
-53.901 80.8037 423.515
-64.8151 -32.9741 466.253
-96.2545 -37.9758 460.246
-54.3641 -77.7964 455.772
-71.071 40.0076 470.473
-53.1312 -28.9627 476.474
-52.9053 -72.8239 456.646
5.72782 52.7776 415.065
-102.325 -14.1287 499.95
-114.154 -65.406 482.797
-63.3318 -11.1178 481.142
-51.9752 -102.694 459.615
-186.751 4.85476 498.525
-94.3125 -64.3548 465.085
-7.83023 -75.047 478.936
-87.9357 -20.2909 494.08
-22.9364 26.8569 460.085
-99.8408 31.4313 472.156
-46.8803 -29.3454 477.666
-33.5962 96.7675 422.392
-37.5338 -40.0647 475.216
-92.1308 -21.7735 495.199
-7.56245 50.1908 411.718
-58.1414 -81.7706 455.383
-15.1708 -98.1092 473.746
-183.106 44.8444 474.269
-42.8221 -29.0719 478.797
-29.2327 20.619 460.168
-35.1288 64.2627 412.515
-92.1591 -30.4312 464.87
-31.7833 -43.2044 476.439
-99.112 10.0784 477.744
-169.832 10.9396 486.003
-9.73369 -26.124 486.611
-175.251 4.32824 486.808
-105.636 -62.4369 474.982
-70.4152 -114.367 466.098
-121.057 10.5053 494.929
-34.2718 50.8786 420.171
-28.1172 35.564 459.806
-58.693 -48.4247 464.374
-120.168 -2.63514 506.152
-108.566 -60.6845 478.982
-69.4264 -68.0252 457.224
-53.9481 -76.1841 455.94
-166.969 12.6856 484.231
-54.5685 73.591 423.507
-18.29 89.4152 419.758
-69.5191 -28.3028 466.683
-99.1306 -16.845 499.248
-29.6607 26.5841 459.592
-84.4203 -31.5119 458.724
-81.1322 -11.9873 490.715
-30.5441 18.5043 460.832
-110.89 -63.4291 478.96
-114.457 -20.8247 511.418
-6.13621 -100.811 473.737
-104.893 25.8678 477.051
-15.9806 76.0265 411.343
-182.04 2.7047 494.999
-110.742 -46.9619 492.592
-51.0994 90.5334 423.993
-86.8167 -6.85224 486.15
-46.5891 -62.7512 460.894
2.35985 62.5759 416.506
-70.0941 -70.008 456.71
-179.301 29.386 476.125
-34.0704 71.8617 410.723
-47.0957 68.8792 418.216
-48.3417 -13.6643 492.299
-58.8993 -23.8731 477.106
-116.159 -92.2455 512.907
-88.7753 -75.0546 460.088
-45.0398 -84.2704 457.51
-57.1439 -74.7182 455.981
-195.462 20.6329 493.117
-34.8996 -16.9709 490.164
-80.4093 -10.2951 488.928
-58.5989 10.2545 478.525
-104.404 7.57437 482.46
0.755755 50.427 414.048
-39.7466 53.1325 421.725
-173.796 6.37997 485.872
-43.4033 -92.9775 459.2
-56.2495 -41.5946 466.927
-56.5653 -29.0783 474.162
-175.206 62.0063 474.443
-102.475 -35.0957 467.555
-46.7399 90.5778 421.867
-96.3116 -21.1354 497.121
-13.9326 61.6166 409.897
-68.9081 -46.474 461.472
-30.8455 54.223 415.777
-33.8491 -37.5475 477.948
-90.8005 21.4745 468.487
-24.4541 53.5306 414.266
-121.59 9.31653 495.79
-125.851 -101.14 514.525
-146.864 25.0325 494.017
-60.257 -76.6876 455.746
-53.3403 92.6099 425.758
-53.0307 -81.6362 455.438
-19.7215 -95.8305 472.124
-19.5826 53.3166 413.114
-71.5925 34.2984 469.028
-19.4552 50.3768 414.751
-52.2636 -63.3551 459.141
-107.673 -62.3926 476.901
-186.072 5.56198 496.664
-95.7662 -49.0972 459.755
-27.8486 -59.5598 467.218
-82.5916 -80.4362 459.085
-113.078 -123.759 498.63
-65.4652 -54.3536 462.863
-176.527 8.67383 486.824
-122.988 -121.189 508.07
-50.2566 -69.2796 457.997
-33.2415 48.8189 422.132
-129.403 20.3241 489.23
-95.8281 -47.9345 459.138
-181.695 51.3183 473.903
-17.2735 64.8111 409.379
-173.695 10.1918 485.789
-101.459 12.9404 478.054
-55.5679 -54.0922 462.002
-124.81 -115.849 507.044
-192.804 57.5185 488.665
-107.488 -109.812 501.458
-141.765 38.35 495.704
-16.2252 36.5293 421.987
-181.918 21.6443 478.703
-12.5102 88.0226 420.917
-115.832 0.791335 494.453
-185.602 13.0334 487.787
-21.4202 26.6285 460.912
-77.0695 17.8409 468.446
-51.7324 78.3479 421.403
-49.1245 75.1923 418.782
-84.0534 -63.1747 462.676
-64.189 -11.9306 477.664
-37.6864 62.7365 414.225
-13.0879 -96.0444 473.555
-45.5281 -34.6643 474.803
-104.881 17.3253 479.203
-180.814 54.3679 474.174
-90.7472 14.131 470.095
-31.7721 80.5131 411.631
-86.562 -12.082 490.183
-109.249 47.7232 484.46
-57.5061 -15.3072 483.346
-107.69 6.69324 483.551
-24.7852 74.1385 409.529
-76.5942 -33.7979 457.985
-64.6365 -83.3046 455.614
-87.5078 -33.7444 458.013
-13.8886 39.8592 420.536
-44.0367 93.762 421.902
-7.80242 50.6728 411.557
-36.8397 61.1617 414.331
-55.0258 -53.4261 462.203
-82.8833 -60.9144 462.148
-125.586 -114.871 507.788
-169.785 12.9481 484.99
-109.694 -29.1082 500.55
-55.9764 -43.3749 466.252
-183.721 30.8968 476.844
-54.476 -73.0464 456.32
-49.8765 -59.4301 461.044
-110.711 -21.5875 504.028
-179.869 50.6704 472.717
-189.12 38.5524 478.859
-146.566 20.8687 493.176
-17.3084 80.2278 413.367
-27.9513 -64.5714 465.318
-49.8422 -73.3823 457.277
-66.2167 33.2701 471.05
-0.61375 47.1001 414.63
-72.8605 -16.7199 491.257
-105.577 -8.1024 496.675
-122.491 9.64536 495.77
-53.7554 65.9837 424.045
-80.3127 -89.1173 459.805
-24.6639 83.6585 413.218
-126.853 -111.719 509.73
-1.94582 -79.805 476.447
-120.016 -97.1409 512.435
-28.0474 -88.2758 464.856
-176.886 17.004 481.074
-52.4751 62.9346 424.147
-188.14 64.6908 486.448
-32.1484 23.1744 460.77
-72.5062 35.5087 468.955
-172.013 41.8902 471.029
-113.521 14.1078 485.461
-102.321 -64.7913 471.368
-31.3601 60.0544 412.687
-189.689 45.8796 479.629
-32.1358 19.8608 461.133
-53.8976 12.3516 479.776
-190.23 50.5379 481.1
-192.356 18.2686 489.191
-109.885 -59.1592 481.408
-176.338 40.3919 471.877
-24.9116 66.2007 409.29
-41.2524 59.4368 418.29
-45.2384 91.4737 421.502
-183.225 43.4947 474.407
-67.5038 4.32689 474.509
-19.6167 -102.016 473.164
-11.8258 -83.7349 475.428
-6.66817 -106.908 473.505
-92.3085 22.8541 468.959
-33.6518 -66.7035 462.492
-6.33528 -69.7642 481.027
-101.715 24.8671 473.969
-90.3052 19.2159 468.659
-129.051 48.9721 501.976
-116.109 -71.557 484.782
-179.89 70.9056 479.904
-94.7368 6.73941 477.064
-77.5512 18.3158 468.22
-66.7203 -56.7145 462.342
-176.771 27.819 475.803
-7.39118 -107.403 473.452
-53.7246 -99.2192 458.301
-100.912 -12.971 498.192
-59.8926 -16.6384 484.224
-7.84934 39.4375 418.281
-173.224 8.96844 485.925
-61.823 -69.6418 456.779
-102.982 33.3239 475.412
-115.974 -78.9691 485.025
-13.8635 51.0969 412.535
-39.8661 -43.3398 470.67
-52.2732 -72.0958 456.837
-140.159 33.8346 493.689
-84.2845 -17.9253 493.67
-48.9298 -67.4981 458.805
-62.0498 -29.631 470.3
-57.0418 66.3786 425.764
-110.339 -119.557 497.866
3.37799 52.6969 414.408
-86.7919 39.3684 468.275
-116.301 -68.4087 486.01
-44.2216 92.3734 421.356
-93.0991 55.2096 477.176
-15.9827 55.5921 411.122
-28.732 -59.1565 466.803
-194.784 59.1226 494.205
-21.5289 64.0879 409.609
-120.301 -110.803 504.618
-98.9155 8.67638 478.412
-12.2347 -75.4622 478.005
-76.6186 -36.0788 457.329
-69.7188 -101.588 459.695
-27.2364 -82.3985 464.484
-6.4645 -85.4563 474.787
-74.3902 -98.0072 459.705
-103.573 -13.0338 500.213
-108.723 43.7126 482.217
-91.37 46.2781 472.403
-94.0332 21.8301 469.846
-34.3654 -42.9009 475.139
-24.0714 44.2435 421.432
-20.9718 68.9852 409.322
-14.9945 -41.0785 476.571
-32.8524 -22.4018 483.84
-42.4463 60.3277 418.745
-80.2269 -7.84471 487.443
-45.5743 -15.393 492.012
-57.0016 -27.8134 475.16
-185.455 29.0014 478.022
-43.3968 -95.3927 459.674
-171.43 17.9516 481.457
-33.4648 44.4498 466.356
-110.415 -128.857 498.864
-22.3766 -78.2694 468.188
-54.5942 -43.8523 466.133
-171.799 58.9302 471.456
-19.2294 44.5634 419.418
-90.6828 -49.4189 459.028
-111.503 12.3436 483.844
-98.0476 -68.6726 466.032
-93.5928 -51.8217 459.817
-55.6055 68.4574 424.6
2.67559 46.0171 415.06
-139.498 19.3576 491.489
-178.569 18.1959 480.225
-31.3989 -66.9719 463.329
-94.7099 23.933 469.826
-36.5592 -63.5938 462.274
-118.755 -107.157 504.311
-91.3256 -32.006 462.112
-33.6356 -1.9456 482.626
-106.369 -63.8907 474.511
-115.147 -54.5049 499.14
-89.7988 -48.1454 458.626
-97.7847 -74.3126 464.402
-20.9053 83.0871 413.95
-122.048 -122.58 508.309
-179.13 68.2075 478.623
-16.6446 -107.033 473.618
-92.4675 -17.192 496.131
-87.5511 -73.0796 459.762
-71.6263 -55.2409 462.165
-90.5896 22.0017 468.399
-21.7585 -100.818 472.619
-26.461 84.182 413.229
-58.1941 -47.4289 464.719
-30.2281 -36.3617 479.61
-86.1027 -9.75674 488.365
-97.2678 -46.844 459.163
-62.8793 -26.1286 472.538
-68.671 0.807272 478.03
-91.3953 -62.6679 463.656
-130.682 20.1296 489.31
-29.3472 46.2059 422.44
-15.9806 88.4406 420.025
-167.861 35.9561 471.911
-95.654 -73.1141 463.394
-83.9858 -46.1817 456.647
-58.1184 -17.1072 480.447
-34.7888 -38.5847 477.119
2.72078 48.9114 414.571
-132.785 20.2172 489.423
-184.913 51.549 476.073
-111.35 -129.724 499.864
-109.686 -60.1735 480.505
-29.724 45.8639 422.91
-84.9452 -31.6663 458.807
-42.9482 20.3366 477.787
-116.236 -115.888 501.029
-111.477 21.4291 484.171
-113.055 11.5629 485.124
-102.814 25.5828 475.121
-87.4455 -7.6081 486.63
-7.98664 53.8729 410.8
1.39753 45.3027 415.291
-70.5128 -37.7279 459.969
-80.1031 -31.0619 459.17
-6.69445 41.4397 417.672
-53.8337 -39.3979 468.725
-181.904 20.3524 479.443
-54.753 -43.8532 466.128
-7.66585 -29.9889 482.353
-184.749 50.2182 475.795
-168.713 53.8227 470.147
-71.5683 -65.7927 457.552
-12.819 -40.0003 476.655
-189.035 28.2981 480.191
-110.111 44.6114 484.147
-128.548 -108.255 510.787
-47.8456 92.3012 422.852
-7.11249 -100.263 473.706
-120.594 14.043 493.127
-54.4356 -41.2241 467.486
-21.8839 -98.5892 472.121
-98.3963 -62.7103 469.75
-51.3502 -84.6267 455.803
-19.7449 50.7146 414.619
-172.177 49.2188 470.009
-78.8985 -20.0494 491.957
-102.215 -67.7413 469.907
-67.8761 -73.8959 455.94
-43.1713 -85.6782 458.225
-113.7 -126.613 500.744
-185.893 38.824 476.777
-193.07 36.0583 483.674
-41.8986 -38.8174 473.105
-94.219 -68.3806 463.452
-81.53 -17.5377 492.74
-35.833 102.084 425.218
-56.4339 71.9254 424.925
-28.0042 -86.8694 464.368
-167.094 7.78999 484.544
-62.3677 70.8917 431.528
-73.9604 15.4392 469.547
-98.9948 -15.2585 499.12
-116.174 -122.848 501.106
-50.8861 61.2707 423.928
-112.213 -36.6582 498.54
-110.724 29.1577 483.731
-13.6934 -83.0526 474.822
-26.7079 47.3161 420.332
-33.6829 72.3362 410.669
-185.868 16.3293 484.62
-114.227 -68.1645 482.082
-55.0435 -17.7191 484.47
-0.869988 42.5791 416.08
-31.2275 26.0191 460.125
-63.4104 10.8426 475.207
-2.34285 -84.561 475.661
-68.4544 -72.6652 455.953
-182.496 12.9719 485.856
-71.3583 -38.7724 459.098
-19.2723 46.8252 417.599
-93.017 -19.4783 496.317
-125.084 24.7436 490.628
-111.53 -50.1236 490.824
-86.0504 35.3331 467.146
-183.837 31.099 476.849
-186.416 30.0105 478.302
-15.6611 47.2442 415.784
-32.4751 -89.4145 462.097
-164.633 41.2677 470.171
-54.6777 84.6755 425.216
-113.935 -16.9419 510.877
-3.59676 -68.5869 481.497
-180.927 33.93 475.342
-79.3322 -5.48605 485.067
-31.9452 -63.5653 463.679
-93.6203 -46.63 458.848
-142.336 42.8253 495.396
-53.0057 -82.4471 455.448
-89.0781 -39.0496 455.707
-15.5669 78.693 412.989
-179.46 56.7715 474.375
-49.3323 91.9791 423.406
-15.7605 68.8881 409.391
6.1476 67.992 421.018
-49.1254 -83.8145 456.296
-29.9341 -63.0098 464.733
-30.1269 61.1529 412.024
-180.782 2.33317 493.843
-23.4242 73.3706 409.502
-60.2706 -2.99946 476.888
-33.9922 49.0298 422.314
-174.242 1.28485 487.351
-110.087 5.45691 485.262
-49.1376 -65.9583 459.239
-74.1124 -16.5058 491.436
-72.7529 -91.1486 457.976
-178.135 25.8326 476.964
-186.871 29.8058 478.518
-115.366 -11.3496 510.033
-54.6337 -35.9053 470.386
-103.963 17.9307 478.152
-26.684 -11.3928 487.862
-32.8357 -16.455 489.812
-170.119 47.4321 470.313
-79.2459 -2.09708 482.036
-180.97 21.8618 478.26
-107.792 19.3681 481.309
-195.559 24.6369 489.706
-101.641 4.72516 483.009
-101.04 26.0185 473.313
-93.173 13.4822 471.575
-127.499 -104.869 512.595
-183.773 39.4463 475.066
-28.1158 33.8313 459.406
-193.491 57.5383 490.033
-38.144 -14.3829 491.306
-91.4802 -18.8976 495.82
-19.0363 33.1121 462.27
-64.5458 -53.0934 462.784
-5.97895 41.3036 417.498
-71.5999 -12.6003 487.339
-10.0127 60.4175 410.913
-16.3173 -91.7822 473.02
-185.269 13.4672 487.487
-117.422 -7.66316 508.776
-168.764 18.2116 481.649
-50.3747 61.8979 423.665
