20.6763 -50.6277 386.816
81.5716 7.54194 343.474
51.3879 -117.105 325.01
110.994 -43.8903 348.417
74.0115 28.8172 339.517
73.6158 -124.743 307.733
119.764 -68.2314 339.377
60.4207 -141.386 320.623
46.4929 -41.4379 364.542
50.2211 -105.562 338.438
108.213 -52.5195 346.574
131.144 -41.0186 356.365
58.3572 -48.257 353.63
51.6123 -123.636 322.488
117.415 -5.44646 339.402
43.3023 -120.105 354.53
58.5842 -49.0726 353.063
35.2666 -78.6472 367.607
42.1602 -131.681 342.785
42.1816 -125.682 355.577
55.2435 -97.3399 349.698
38.9549 -49.7038 362.595
60.7759 -141.343 320.36
47.7048 -147.525 346.194
51.4306 -133.501 325.003
46.7881 -146.551 348.652
19.6689 -48.7085 388.544
84.7758 -44.9118 348.622
44.6955 -116.761 360.877
129.085 -101.78 332.784
44.5907 -44.8637 362.778
66.4646 -82.4937 345.598
115.383 -46.453 349.64
152.61 -54.7928 362.51
77.5877 -28.9023 343.746
43.5581 -119.305 355.962
118.136 -44.9291 350.806
172.195 -56.0485 368.084
49.6265 -112.278 332.605
113.712 -50.0711 348.243
55.6722 -116.11 320.254
113.216 -53.7291 347.098
71.9523 -45.1433 351.048
139.998 -53.3362 361.226
62.0069 -82.0148 344.96
49.0766 -108.938 363.666
122.932 -134.585 328.417
65.3252 -117.473 313.544
115.91 -90.8272 338.363
21.6357 -52.0107 384.963
152.38 -49.6236 364.901
67.6833 -118.299 312.068
89.8071 -83.364 342.477
41.7766 -127.067 351.103
50.1531 -106.63 356.688
84.8912 -44.63 348.598
160.211 -48.5221 365.407
52.4889 -102.842 354.606
51.8664 -145.569 333.651
19.7432 -36.4241 387.012
50.3419 -110.48 331.904
92.8497 -51.6025 346.617
48.788 -107.46 344.185
73.6401 -37.1981 348.905
104.795 25.748 330.707
140.987 -47.9943 363.235
96.2988 18.3339 333.9
52.4629 -101.374 335.167
54.2056 -103.786 366.846
82.7471 -49.9291 348.6
50.7629 -120.786 324.314
39.4892 -63.6116 357.642
46.5989 -112.008 348.346
74.0615 -34.8409 348.159
99.0071 19.2334 333.185
75.157 -149.078 317.93
65.495 -131.592 312.121
48.1482 -131.068 328.629
21.8074 -48.6744 381.199
125.856 -84.3102 334.767
88.552 -78.1295 342.871
42.9926 -73.5632 351.813
57.2516 -40.7939 359.319
49.2753 -113.33 332.589
33.0059 -44.5801 367.528
48.4647 -127.026 327.253
142.264 -65.5142 354.097
86.5833 -132.983 303.562
93.2056 -58.5152 345.164
99.6927 -60.1044 344.624
132.706 -117.79 335.731
51.6576 -129.928 322.849
111.978 25.5193 327.346
42.6415 -123.531 358.289
80.8033 -134.344 304.348
83.8983 -40.0102 347.869
51.1602 -113.68 326.996
93.686 -52.4796 346.253
29.0647 -61.1248 380.183
82.1309 -49.5384 348.733
91.4955 19.9185 335.874
169.094 -57.362 366.337
97.6566 -61.6612 344.314
28.057 -38.9716 372.97
50.2371 -70.9906 347.793
75.6949 -132.394 305.74
50.2475 -110.055 332.264
161.39 -65.8302 362.525
46.9665 -133.156 331.298
49.86 -128.183 324.977
157.183 -47.8739 365.504
146.187 -75.8713 353.847
176.146 -61.6288 372.073
49.3011 -107.484 358.669
19.0172 -45.1121 388.144
52.7943 -63.8852 347.987
45.3421 -115.226 346.903
45.3918 -115.256 361.774
59.831 -125.172 314.648
49.5589 -71.3181 347.94
26.6045 -58.9259 382.89
47.7641 -109.58 344.359
33.2662 -64.1255 371.224
150.859 -54.9136 362.718
42.8918 -122.198 358.74
26.8645 -38.7219 373.968
83.2382 -29.7572 343.411
71.5908 -63.5411 345.593
159.389 -65.2731 361.521
80.1633 -35.2065 346.616
61.3023 -67.9039 346.626
131.185 -69.6463 341.545
51.2101 -103.419 344.81
102.066 -48.7595 346.207
55.7831 -56.7867 350.964
20.2473 -49.1569 386.455
164.91 -62.5137 364.174
75.6065 -40.1073 349.193
124.96 -87.2567 334.634
43.5525 -119.665 359.396
18.5334 -37.7323 389.815
127.278 -40.3736 354.227
117.769 10.6245 331.059
50.2048 -119.049 326.268
119.872 -40.9606 351.112
131.662 2.59515 328.458
119.37 -50.5954 350.013
68.4217 -1.59612 346.64
58.413 -54.7264 350.53
52.3969 -133.472 323.582
88.3786 -83.1132 342.741
46.4188 -65.6527 350.497
48.2059 -123.137 328.097
50.937 5.22231 348.563
100.917 -45.8333 346.704
105.49 14.0997 331.724
69.1019 -124.736 309.633
42.2884 -125.131 356.731
164.036 -63.6591 363.835
114.925 -54.0469 346.949
49.2624 -119.158 327.881
42.6361 -127.277 360.097
48.8427 -71.126 348.31
46.826 -57.3644 352.491
54.6076 -134.669 321.75
115.815 -48.4739 349.605
49.7068 -66.0085 348.403
51.3102 -134.556 325.681
49.3509 -121.036 326.692
61.7146 -48.141 352.261
134.673 -81.6315 340.26
42.3969 -124.985 357.549
61.3788 -43.4866 354.729
95.2239 -133.605 304.016
105.363 -36.7163 345.368
78.2347 -35.3705 346.8
42.0823 -134.78 345.324
50.2145 -51.3352 354.123
104.203 -3.81588 342.092
23.9609 -31.3774 381.837
89.4563 -54.455 347.281
53.9633 -116.011 321.84
49.4313 -115.195 373.201
140.508 -53.0179 361.372
133.515 -59.5452 352.63
56.5155 -106.903 323.15
130.322 2.63913 328.697
50.8009 -58.0399 351.042
34.515 -56.0223 365.747
164.472 -60.1227 363.922
56.5708 -34.523 362.45
71.3562 -122.028 309.424
52.8595 -144.796 331.375
56.9276 -4.12516 351.078
21.595 -52.0709 385.179
55.1755 -43.6548 358.466
100.178 -83.7448 343.057
30.9322 -63.6766 378.689
36.7089 -52.5387 363.698
47.0253 -146.911 349.157
85.512 -133.842 303.555
152.333 -67.6262 358.596
67.7862 -118.205 312.068
23.9796 -55.3265 382.975
37.0612 -50.9224 363.826
34.2851 -58.1242 366.478
23.4489 -41.4725 377.046
131.123 -117.863 333.706
128.426 -90.666 333.903
29.3571 -39.1625 371.682
51.2728 -119.476 324.138
52.7446 -47.4136 355.992
82.2094 -114.852 312.985
49.4928 -107.745 357.464
66.9053 -54.0721 348.869
67.3859 -40.8873 351.823
45.3512 -117.305 342.37
34.722 -60.7343 367.738
52.7886 -101.424 333.09
87.2743 -88.3344 342.256
62.7964 -43.4388 353.582
93.3125 2.48548 342.016
67.7576 -117.402 312.446
116.79 13.5754 329.85
104.159 -53.5505 345.685
28.3368 -44.0026 371.275
79.9099 -44.6466 349.175
21.8827 -28.6929 388.188
65.9608 6.44635 346.077
52.6322 -152.566 341.1
74.3255 -1.15412 345.539
26.0013 -37.2632 375.704
89.7362 -63.0233 345.021
21.534 -50.555 383.516
129.337 -98.6987 333.232
76.4479 -27.8943 343.498
35.4362 -53.8673 364.786
27.7253 -36.385 374.698
93.6271 -35.7258 344.328
88.0125 -36.343 345.73
101.605 -40.3356 346.622
130.853 -122.336 331.134
43.467 -119.586 358.647
151.843 -64.2594 359.298
77.1436 -116.3 311.215
61.2611 -115.853 316.658
19.3274 -33.5618 389.255
78.9974 -132.078 304.816
31.2259 -48.7244 368.672
24.9824 -45.7003 375.452
52.0044 -134.059 324.587
85.9623 -52.4708 347.934
80.6134 -126.069 305.766
107.446 -46.9009 347.604
63.0542 -37.4207 355.862
51.5881 -121.169 322.899
74.0422 -123.786 307.879
168.146 -67.8767 367.981
110.393 5.30758 336.929
86.9872 -43.0729 347.803
121.165 -67.2024 339.705
158.064 -56.3676 362.265
144.859 -60.9426 358.239
51.2066 -103.204 342.056
106.901 -48.9081 347.055
21.327 -49.6452 382.788
86.8068 -25.1064 338.282
71.7378 4.63953 345.913
72.7794 4.13844 345.824
18.4784 -42.3867 389.141
111.278 -80.4745 341.333
60.0706 -111.087 318.505
38.6349 -69.9844 357.78
60.1793 -136.366 317.549
144.408 -76.8589 353.429
68.1296 10.9902 345.043
46.3981 -145.955 349.969
25.1357 -41.5529 375.079
96.7008 -51.4614 345.787
49.2477 -133.924 328.194
152.67 -60.134 360.499
83.9495 -134.015 303.725
52.7791 -64.1592 347.901
73.1343 -154.256 326.721
21.8198 -51.1073 383.336
51.1554 -103.312 341.097
120.56 -74.5157 337.723
158.886 -49.1912 364.967
42.4809 -123.422 356.448
49.2727 -112.147 334.049
105.888 -43.0053 347.62
36.753 -57.5993 363.217
32.34 -32.2069 374.475
64.9211 -112.27 315.893
42.8978 -121.664 354.494
146.064 -56.7158 361.134
61.8722 -43.0943 354.606
121.944 -38.4323 350.827
33.8193 -50.903 366.21
47.5407 -127.396 329.026
75.3916 -53.718 348.323
27.7627 -39.3125 373.043
54.3568 -104.614 326.654
42.3781 -124.427 356.873
70.0845 -127.734 308.672
55.8978 -130.558 318.965
32.9737 -58.2732 368.242
151.139 -69.484 357.945
25.7006 -35.6922 376.973
107.469 15.6339 330.466
142.698 -68.1018 352.845
102.014 -48.8052 346.197
100.287 2.36732 340.346
109.47 30.4038 329.102
43.3631 -119.942 352.714
89.5261 -86.7166 342.432
48.1412 -132.974 329.281
102.723 -86.2414 341.944
91.2705 -40.9801 346.659
115.187 13.8207 330.609
105.405 -50.0515 346.668
48.392 -109.775 362.334
123.192 -118.202 329.146
46.873 -64.1447 350.775
151.626 -60.3999 360.196
58.5508 -68.1213 347.221
47.6228 -123.901 329.16
18.8446 -46.6776 399.403
40.7463 -48.5328 362.173
84.0642 -52.5332 348.195
87.7586 -83.1086 342.809
96.9819 1.04527 341.219
18.3342 -45.4916 393.945
51.4958 -103.414 345.831
114.06 -33.0667 343.602
47.6284 -58.5978 352.196
164.503 -57.3763 364.1
83.1028 -46.7845 348.65
60.1501 19.4674 342.381
96.1223 19.4036 334.32
49.5466 -63.0471 349.691
31.1333 -66.8638 380.306
18.8732 -33.2292 390.391
97.2067 -79.9468 343.133
48.6792 -110.468 365.449
45.5381 -67.3033 350.659
27.9478 -48.0585 372.174
97.9201 -61.3931 344.344
91.5002 -83.4127 342.519
163.395 -53.1429 364.448
111.926 -48.3052 348.141
59.6374 -109.136 319.604
58.252 -88.6237 344.709
60.9225 -67.422 346.875
74.1897 -150.137 320.524
70.4728 -148.75 320.726
111.724 -50.174 347.843
165.261 -57.8106 364.397
47.7504 -68.6489 348.756
149.72 -51.2139 364.656
55.8409 -134.947 320.665
48.5042 -63.3648 350.197
85.1162 -47.4064 348.49
88.5671 -135.349 303.464
69.0915 -120.625 310.623
143.136 -61.259 357.331
154.519 -72.9248 359.648
31.9405 -51.7602 367.942
70.3745 -30.2893 350.283
32.5411 -62.1284 371.795
48.6594 -72.2028 348.322
120.075 -68.6165 339.244
77.7151 -137.954 305.446
77.3328 -124.489 306.769
77.436 27.1008 338.802
29.0873 -40.5024 371.364
98.9473 -54.1034 345.472
126.176 -38.8974 352.787
71.4891 -31.5803 347.999
72.5963 2.99941 345.58
104.315 -66.5388 343.706
152.873 -61.715 360.009
82.1135 -116.454 311.626
78.0536 -136.117 305.032
47.332 -111.561 343.149
53.8115 -127.651 319.897
56.3006 -53.37 351.909
23.9577 -45.5794 376.928
54.6866 -57.9639 350.925
34.6202 -53.3098 365.536
51.0183 -131.737 324.774
97.6838 -40.8083 346.374
95.5206 -130.579 305.046
41.8779 -126.067 352.581
84.7758 -134.644 303.618
101.892 -47.6706 346.363
122.461 -119.454 328.584
78.3811 -24.5024 343.25
113.962 -6.57036 341.062
46.0587 -113.162 348.05
30.8668 -45.872 368.834
24.3328 -44.0142 375.823
45.5503 -114.872 350.191
45.339 -122.433 334.195
79.8864 -116.593 311.219
51.0608 -104.071 336.867
50.0982 -132.367 326.235
71.5364 -147.836 318.961
109.794 -34.9895 344.841
56.5739 -129.804 318.128
65.4891 8.15401 345.704
128.856 -64.4875 341.035
81.0117 21.3627 337.948
61.5372 -53.2125 350.306
52.2773 -102.933 332.901
52.5685 -120.46 321.963
86.5593 -35.8257 345.863
45.4382 -132.163 368.266
73.5679 -122.11 308.583
52.9635 -101.93 332.597
130.546 -119.894 331.521
135.947 -61.0491 353.306
91.0095 -38.6223 345.905
45.1966 -117.034 363.665
66.5671 -117.045 313.099
66.3569 1.53415 346.705
45.4784 -70.3871 349.97
66.9426 -146.609 321.123
52.3759 -101.214 343.535
65.1173 -142.413 318.702
110.761 -7.36554 342.104
105.799 -111.017 328.882
104.538 -30.5196 339.094
45.7465 -134.828 367.36
45.3859 -115.042 351.251
78.518 24.9819 338.441
92.5069 -139.376 304.304
146.003 -49.6063 364.813
51.0217 -38.3891 364.893
57.0142 -59.5519 350.089
67.1324 -115.872 313.402
128.87 -66.6494 340.751
144.594 -53.2081 362.95
49.3545 -107.044 341.642
113.474 -52.2782 347.981
45.4299 -141.961 359.545
101.585 -54.4364 345.526
64.6866 -65.1728 346.701
42.4805 -123.452 356.489
24.2591 -39.5378 376.87
104.278 -35.9136 344.783
62.96 -110.043 317.572
95.4335 -41.0532 346.235
52.3512 -129.459 321.902
147.805 -61.827 358.914
84.9614 -52.5281 348.137
46.0972 -38.5674 367.312
79.8301 -125.324 306.151
106.966 -40.1959 347.167
37.2853 -76.0855 359.909
90.5125 -136.874 303.688
50.784 -135.832 326.863
151.508 -77.2172 358.17
105.505 -43.7661 347.37
55.2556 -116.909 320.526
79.6147 -138.021 305.146
80.5826 -40.278 348.278
44.4036 -117.141 350.818
66.3837 -57.9403 347.791
49.919 -108.124 336.062
47.9045 -110.417 342.628
76.9974 -31.7478 345.552
82.8709 -44.1811 348.783
50.3953 -119.931 325.496
43.9513 -32.9491 371.791
77.5111 -37.5603 347.812
116.647 -51.4078 348.635
24.3771 -41.6498 376.08
60.2685 -140.884 320.423
57.2738 -108.458 321.95
83.686 -117.72 310.725
58.6445 -106.654 321.446
45.9796 -43.6633 363.295
66.433 -117.641 312.85
26.307 -38.9183 374.531
111.537 23.6788 327.537
151.343 -66.9087 358.372
153.387 -48.2127 365.559
22.1441 -52.1247 383.572
125.656 -125.241 327.788
63.9268 -57.7734 348.32
90.462 -35.1991 344.479
146.283 -71.6596 354.034
26.9663 -57.5607 378.985
81.9577 -39.3839 347.961
126.995 -81.9545 335.888
18.6938 -46.2672 399.583
26.43 -41.6757 373.488
35.4561 -57.0377 364.861
89.6698 -81.0701 343.041
92.5793 -36.4821 344.945
52.0169 -68.0044 347.17
33.2726 -55.4866 366.995
50.1571 -106.946 361.356
60.4754 -65.4245 347.468
51.0224 -122.096 323.62
70.5177 -126.779 308.698
123.469 -1.50178 335.418
24.0481 -56.5182 386.926
98.0254 -58.4107 344.93
95.7181 -39.0589 346.064
25.0822 -57.1166 383.47
62.3023 -51.6429 350.71
104.58 -36.2422 345.019
156.25 -57.5259 361.689
77.2068 21.4139 338.618
80.5309 -61.3296 346.284
80.5722 -62.8211 346.391
