78.0399 -43.3075 346.766
40.6638 -122.131 341.51
126.825 -63.7783 342.77
99.8335 -71.0048 343.554
80.051 25.9849 339.593
131.524 -121.628 329.317
153.436 -30.2421 374.855
123.947 -130.524 328.22
92.6207 -139.289 304.771
93.3635 6.18979 345.671
89.0359 -36.3124 345.563
98.7176 -101.617 329.744
89.9562 -42.4772 348.357
77.593 -50.1353 351.035
159.082 -39.6499 379.642
157.831 -56.1798 360.802
164.575 -62.5502 362.931
161.174 -68.7662 364.119
141.319 -54.8791 360.939
88.7232 -108.822 325.325
135.539 -55.7674 357.957
59.9854 -106.756 319.826
132.978 -116.471 330.522
130.582 -117.18 329.663
55.489 -118.019 318.741
129.414 -121.486 329.74
131.4 -124.404 330.441
78.7091 -136.618 305.377
95.9794 1.5334 343.293
75.7844 -33.3354 346.988
114.155 -1.91484 349.208
100.862 -37.1359 345.738
152.849 -48.8466 364.368
177.85 -58.4227 373.232
143.055 -55.4059 362.976
104.506 -66.7459 345.037
170.736 -68.984 370.965
133.664 -121.428 329.418
109.697 -36.7238 347.256
102.852 -38.9352 346.282
111.893 -48.3004 348.312
71.0058 -120.248 309.438
150.752 -54.87 363.183
102.975 -142.479 308.871
135.607 -118.278 329.762
50.9076 -58.1818 351.484
153.749 -75.1081 357.213
111.2 -117.138 359.384
148.321 -47.6843 366.246
91.3298 -137.636 305.494
108.068 -49.8163 347.542
155.699 -56.0394 362.398
149.922 -69.2424 357.806
153.63 -73.6875 357.774
102.653 -34.5808 343.771
143.557 -97.605 357.321
85.275 -107.346 324.169
58.2969 -109.133 319.539
98.3957 -112.945 329.865
50.0804 -120.451 324.967
64.9308 -45.9223 351.59
166.242 -48.2548 369.241
140.913 -49.1121 366.3
156.964 -58.9085 361.147
141.809 -57.8983 361.447
55.7481 -54.0607 352.529
99.6891 -60.1898 345.296
152.615 -62.2094 361.396
152.055 -68.5082 358.284
100.789 -66.2086 345.088
147.213 -69.7569 356.339
45.5689 -63.1067 348.221
77.3615 26.0857 338.643
152.273 -70.4516 357.991
100.354 21.3189 329.434
151.315 -70.9834 357.587
69.5338 22.5142 336.761
149.043 -78.8875 355.434
89.8363 -78.1446 344.786
154.379 -81.2339 379.497
77.1412 -39.6908 347.604
89.3082 -54.3415 346.05
155.809 -53.4895 362.029
101.453 -45.9951 347.209
80.5886 -115.417 312.003
129.716 -70.4978 338.113
142.069 -65.6884 354.355
97.171 -87.7504 339.089
63.9481 -97.614 352.074
112.996 4.75876 341.072
95.1391 -96.8756 327.935
125.644 -132.35 328.258
108.695 -49.5413 346.953
70.115 21.6824 337.601
154.826 -51.522 364.213
94.0606 17.2911 329.949
147.755 -66.0862 358.082
83.979 -45.6922 349.057
158.86 -68.3841 362.349
136.339 -60.6945 352.786
118.804 9.5787 325.542
94.2117 -39.6967 345.582
140.358 -67.777 351.493
123.423 -76.5068 345.136
142.622 -71.9982 351.925
85.8312 -43.8075 348.861
89.2176 -79.1457 344.557
122.979 -77.9267 344.92
48.6813 -40.4615 366.161
57.5163 0.699823 352.796
42.9039 -120.666 355.396
21.4082 -49.8263 382.964
119.833 -39.059 349.166
92.3878 -105.701 326.351
87.0931 -42.9758 348.465
113.669 -52.2391 347.069
63.3563 -130.387 312.351
57.5333 -57.768 350.706
83.9634 -51.039 348.636
86.0193 -52.4989 348.356
55.2395 -130.525 317.217
46.2638 -66.5934 348.322
53.8063 21.9871 389.922
43.3614 -17.3345 363.855
82.1906 -22.1561 339.074
42.1365 0.406056 385.242
51.2401 -105.666 336.986
152.762 -59.9057 359.921
38.2208 -3.20173 381.032
55.4977 -105.228 324.28
50.5042 -61.2394 350.011
44.2953 -75.6613 360.892
44.4832 -114.784 349.958
71.8975 -63.997 347.667
20.7333 -49.0983 384.923
43.2731 -76.9103 352.766
84.4602 -108.525 322.631
56.7887 -111.365 319.896
111.986 22.7665 328.986
53.8667 -2.19959 359.456
42.9281 -125.827 355.506
21.5277 -52.1852 385.137
22.715 -52.5826 382.727
47.9457 -61.1858 350.061
53.0774 -62.1176 349.638
49.4563 -62.9579 349.434
49.1232 -107.387 358.682
125.312 -85.3548 343.464
43.5928 -119.319 355.961
54.7632 -100.084 347.996
50.1179 -113.551 331.395
85.3821 -117.512 309.107
121.998 -126.094 323.737
74.6473 -121.074 313.532
49.9498 -111.671 330.716
60.3489 -90.019 375.173
47.4945 -30.3758 368.288
72.8487 -137.337 308.093
51.4469 -0.688213 395.862
123.26 -39.4564 352.231
80.1662 -36.0504 347.06
21.8737 -33.0305 385.933
153.373 -48.2548 365.658
17.8495 -37.7054 389.569
18.3965 -46.721 399.242
105.279 -43.7926 348.823
77.4118 -95.6522 384.056
108.423 -48.21 347.215
93.6624 -35.5563 344.811
41.1888 -136.741 345.641
58.1497 -82.8196 352.563
55.1926 -45.4937 358.454
97.1689 1.27124 342.043
136.249 -109.811 330.141
44.7619 -137.308 363.727
95.2699 -138.13 304.831
41.8088 -132.182 344.973
83.3532 -41.0253 348.081
19.1211 -46.4887 390.783
23.9169 -56.8774 391.088
50.9726 -102.463 342.621
97.6542 -61.6527 344.245
105.953 -43.0166 348.841
20.6009 -50.153 386.18
50.6012 -100.645 344.704
123.239 -113.118 341.255
50.9625 -103.214 341.941
49.1469 -108.306 362.51
77.4487 -120.535 314.222
155.293 -51.5728 364.446
162.631 -77.4123 369.53
93.3217 -43.1973 346.784
110.63 -48.7458 347.761
47.1126 -146.893 349.172
44.2408 -118.773 352.283
49.4528 -113.875 372.271
139.726 -41.8299 356.985
52.1776 -100.107 344.987
52.6096 -100.264 346.088
49.8955 -58.3009 356.378
22.1167 -53.4003 386.221
22.2549 -52.9172 384.182
19.8645 -48.2177 386.444
143.218 -41.5228 359.867
19.1742 -47.4372 388.196
48.985 -2.23655 409.105
94.9027 -130.613 303.412
45.3526 -134.845 367.424
103.237 -45.5491 347.669
52.5682 -126.096 320.211
54.6131 -43.7511 360.998
123.573 -39.3936 352.632
50.7263 -105.773 338.528
40.6303 -73.1749 348.8
141.036 0.890766 327.541
101.608 -69.0062 343.913
84.1385 -52.5606 348.715
92.6735 -138.637 303.151
71.6328 -149.939 321.432
52.1411 -65.8603 348.233
109.918 -43.6161 348.33
83.7201 -38.0517 347.18
34.8126 -53.2866 365.758
75.3921 -131.503 306.037
46.2531 -41.714 365.777
54.7935 -117.351 321.765
67.9276 -114.284 314.384
113.975 -14.0244 358.483
56.0166 -116.234 320.619
48.1254 -67.7171 347.998
42.9756 -121.385 354.654
77.5669 -115.184 312.658
104.193 -37.9178 346.222
77.0929 -31.6087 345.918
59.1074 -106.883 321.894
66.5943 -131.995 311.298
32.4114 -52.6199 367.601
63.8718 -128.365 313.898
34.9725 -52.4761 365.397
57.0139 -115.833 319.592
54.6624 -57.9207 350.778
37.2356 -55.9838 363.38
51.5733 -123.444 322.644
40.6008 -49.6378 362.741
54.1403 -108.39 326.86
30.3283 -47.2751 369.537
80.5736 -62.8244 346.412
82.9981 -53.9444 347.962
111.858 15.1311 326.757
88.9168 -48.6294 347.396
41.1631 -47.1175 363.54
58.9847 -44.2841 351.288
96.2929 -39.8395 344.603
53.2417 -64.3575 349.23
60.7572 -41.0573 355.681
118.094 -38.4411 350.221
73.0687 -26.546 343.492
47.3244 -133.093 331.504
68.2213 -119.707 311.657
61.2209 -108.533 320.047
74.0605 6.05937 336.06
102.002 -49.5885 346.061
78.1115 -118.8 313.482
131.506 2.32087 327.681
81.5341 -60.5543 346.01
75.418 13.9068 336.568
127.775 3.91526 325.323
71.3452 8.61254 341.953
111.732 30.4305 328.058
45.6236 -141.935 359.567
48.7125 -127.019 327.422
45.54 -132.164 368.246
52.8268 -103.867 332.049
49.2873 -113.334 332.593
128.915 -89.3869 329.838
18.9538 -44.5425 396.692
155.559 -55.9797 361.906
110.375 -46.1794 347.536
117.77 8.58548 325.107
77.9817 -97.3894 385.081
53.0345 -73.5903 349.325
65.5886 -65.5017 345.822
65.3584 -2.19825 353.768
35.8731 -54.0273 365.145
125.383 4.39301 324.945
30.5805 -45.7859 368.908
113.479 5.88332 340.134
64.1434 -38.006 357.485
95.8185 17.5325 331.904
67.0027 -36.0774 351.233
22.8497 -30.4935 385.887
65.1723 -82.3829 342.038
27.1103 -58.586 381.404
42.5491 -122.301 355.635
49.4715 -75.1669 356.614
47.1842 -8.63319 362.666
48.0419 -27.3464 368.071
126.731 2.5829 328.706
21.9092 -28.6958 388.199
50.4037 -67.2616 347.813
77.785 -98.6639 381.957
171.64 -66.2595 369.549
116.525 9.50759 326.188
47.5841 -66.8919 348.323
54.4957 -59.7896 350.697
32.0482 -62.2147 371.493
85.1844 -52.6152 348.163
97.7481 -50.7817 346.509
105.687 -49.5875 345.974
85.2642 -42.9373 349.03
43.1221 -122.097 357.3
62.3057 -134.437 315.04
83.3178 -55.7749 347.747
53.5842 -130.479 323.953
90.5988 -51.0517 347.044
77.5006 -37.5717 347.765
88.5033 -37.1509 345.825
78.6523 -126.226 305.43
65.9838 -116.764 313.712
24.7247 -29.5995 381.752
50.1908 -64.4216 348.447
133.599 -112.477 329.718
77.3822 -39.8511 349.982
113.943 6.31669 339.188
71.7706 -70.0105 329.573
75.0565 -53.3807 346.372
84.0533 -50.8773 348.542
49.7948 -41.947 364.702
71.0135 -32.3688 345.752
120.009 -40.9829 350.66
80.1001 -116.955 312.192
62.4962 -133.17 313.331
25.428 -41.5911 375.876
40.2826 -59.2311 362.084
45.0075 -119.384 336.893
64.4998 -64.8524 345.294
78.5939 -114.918 311.962
105.472 -1.65589 339.385
111.435 -80.6339 342.312
35.6351 -51.1086 364.408
92.8148 -40.8762 345.661
86.5113 0.0491607 341.082
58.5726 -113.305 318.287
82.4411 -33.0821 345.597
49.6603 -65.9688 348.295
101.273 -54.6169 344.435
28.978 -61.1617 380.132
83.1956 -52.2132 349.18
90.156 -52.1199 346.603
95.6488 -57.5847 344.022
21.2544 -54.1479 387.892
69.3889 -120.793 311.295
103.034 -47.3153 346.714
95.3677 -41.1142 345.112
97.9239 -96.6126 330.054
119.443 -50.5128 349.707
77.643 -126.539 305.392
68.8236 -129.603 310.529
66.9844 -8.11062 346.604
79.5969 -127.525 305.269
88.3994 -81.448 342.412
138.753 -78.7188 335.187
159.585 -52.6263 363.079
105.24 -47.0769 346.591
50.6109 -134.762 325.106
129.18 -98.6395 326.346
64.2889 -0.390845 344.853
172.739 -33.5132 375.836
62.4863 18.4347 410.423
110.14 -39.5818 346.676
181.652 -39.1796 376.63
66.6465 1.67815 348.12
69.3636 -126.562 310.756
100.436 -41.541 345.569
92.5978 -36.3881 345.2
81.5395 -0.209049 341.783
53.8159 -37.8004 364.002
34.8279 -51.7229 365.608
84.911 -132.552 304.229
86.9048 -87.8797 338.905
91.1084 -36.4653 345.454
68.3557 -130.453 311.277
87.6975 -83.0079 342.147
151.813 -76.7861 357.366
49.6151 -41.4954 365.619
89.5405 -82.6073 342.368
94.089 -53.5933 345.722
103.208 11.861 348.055
136.436 -73.0462 350.587
43.1732 -66.097 347.717
76.0099 -35.9365 347.498
147.753 -71.5101 355.675
46.7528 -63.2306 348.899
74.4256 -126.671 306.573
146.66 -67.7243 356.694
116.654 -51.4 348.604
74.2083 -146.255 318.715
56.0208 -57.5627 350.993
155.003 -64.9319 359.763
154.445 -61.3295 360.494
122.949 -61.0304 343.289
49.5695 -129.252 325.565
95.6572 -54.7399 345.321
89.5257 -139.904 302.584
141.554 -58.9519 360.943
70.3951 -127.889 309.4
133.108 -58.9551 350.826
159.657 -57.2201 361.635
139.51 -53.9065 364.011
47.8029 -123.034 327.916
93.7279 -52.5006 346.554
100.461 -51.9139 345.494
119.42 -122.408 325.457
154.114 -53.0979 362.97
88.9376 -50.3118 347.825
103.396 -50.8 345.607
96.3392 -36.7323 346.375
50.2864 -105.689 339.267
49.5025 -71.2949 347.78
80.524 20.6985 336.1
111.723 -51.1175 347.144
109.815 -35.0047 344.72
50.2935 -105.104 340.537
47.5569 -43.2488 364.423
51.3043 -110.55 333.037
105.857 -33.3302 343.437
48.5231 -110.743 368.105
118.033 -50.4972 349.453
46.4924 -110.999 347.206
114.88 -50.1344 348.506
141.401 -66.3309 351.595
103.933 -46.3573 347.406
134.881 -57.4975 352.062
99.0126 -52.2736 345.875
84.3186 -43.8741 349.606
44.2862 -116.736 363.846
82.8418 -49.9573 349.564
49.4708 -24.7852 361.15
87.5996 23.7775 315.023
54.178 -120.978 319.99
80.8427 -117.538 311.165
60.314 -59.0586 348.945
145.326 -99.7052 358.254
61.2687 -67.8344 346.308
146.073 -55.8375 362.222
62.9401 -48.1527 353.369
64.0468 -48.573 352.096
48.7056 -43.3333 364.553
146.223 -49.2272 363.916
73.8794 6.58968 340.111
66.5871 -130.822 311.998
147.152 -48.92 363.825
18.3515 -39.1711 393.467
67.8253 -42.017 354.854
65.7407 -41.1583 354.769
66.7912 8.86593 345.055
60.0099 -110.879 318.788
78.9243 -131.88 304.225
43.4687 -67.4873 347.601
55.657 -65.7897 348.205
77.8428 22.2802 341.028
153.252 -69.1695 358.966
151.458 -60.8163 361.251
97.9687 -56.3057 344.591
142.683 -61.9655 359.001
148.66 -57.6446 360.879
52.4139 -134.288 324.617
147.37 -51.5805 363.42
79.7236 -107.446 322.354
85.4071 -45.6738 349.17
108.006 -45.225 347.74
83.7866 -40.1799 347.064
115.804 -48.4737 349.641
77.2656 -36.3198 347.787
70.0875 19.2134 339.907
134.881 -67.7418 348.831
60.0458 -141.069 320.138
78.0469 -137.772 306.056
83.002 -130.93 303.99
70.279 -126.763 309.618
110.073 -84.1778 345.318
144.242 -74.4328 352.104
125.647 -61.2619 344.426
124.552 -60.1753 344.693
104.13 26.8351 331.103
125.887 -55.3999 343.169
104.311 -53.0528 345.834
107.626 -46.8749 346.595
56.9783 -47.1558 349.91
116.206 -40.6178 350.782
77.9026 -32.7783 346.689
103.607 -4.81964 338.921
88.8973 -139.403 303.973
20.4282 -47.6634 387.422
90.3297 -136.654 303.802
31.4572 -44.7949 368.697
79.226 -134.902 304.381
68.0633 -39.3632 352.879
72.9629 -148.117 321.741
157.398 -69.5555 362.037
159.296 -65.3623 361.835
78.143 -47.7515 347.066
49.4336 -68.8796 347.726
28.9316 -38.9603 371.08
68.3538 -36.5023 349.702
92.379 -131.63 305.842
90.9689 -38.6887 345.445
79.7941 -105.21 323.454
48.7955 -108.394 342.84
108.549 -38.4438 346.846
79.0525 -33.6921 346.539
76.5551 -27.73 343.912
105.26 -36.5019 346.608
116.602 -50.3581 349.813
83.2686 -132.45 303.479
70.4662 4.13951 341.196
69.3052 -116.533 311.671
104.802 16.3608 334.721
67.0362 -115.786 313.166
88.5312 -39.8194 345.819
61.5028 -110.284 318.222
41.9933 -72.6237 385.772
58.0493 -66.515 347.714
103.113 -64.8762 345.949
62.19 -60.3174 347.316
140.882 -52.7158 366.85
163.53 -66.2563 363.975
161.258 -65.9395 362.928
98.1067 -3.52503 337.48
61.6298 -75.1102 346.463
43.6692 -58.9977 344.829
84.8124 -50.1126 348.728
98.1189 -42.925 347.155
36.5792 -54.7932 364.358
69.2105 -31.5838 346.659
80.9645 7.09007 340.932
80.2764 17.1763 332.294
83.271 -107.066 323.47
81.0784 -106.487 322.844
151.077 6.94431 332.455
120.083 -68.3383 338.429
96.9433 -59.6697 344.489
31.834 -63.4053 379.235
120.36 -73.3309 334.065
88.0512 -48.0762 347.614
73.8544 -35.0488 347.428
93.771 -35.6473 345.081
65.0514 -137.328 314.335
81.9757 -42.4704 348.753
103.119 -90.9366 344.644
115.179 -38.4698 349.557
101.611 -40.495 345.313
78.4352 -24.4571 343.45
91.8643 -139.604 303.102
60.3069 -37.0267 362.136
126.234 -51.3592 348.028
128.012 -109.678 334.109
51.3684 -146.937 331.578
63.7603 -132.473 312.338
83.4823 1.63931 339.232
52.3398 -146.292 331.017
68.0395 -129.627 310.964
53.4186 -145.263 330.795
68.3566 -128.443 310.772
42.8992 -139.916 345.392
52.8544 -129.022 320.493
71.2945 -128.986 308.049
49.767 -133.241 326.956
75.8295 -124.584 306.08
49.1015 -133.283 327.869
50.8384 -132.975 325.953
77.5583 -43.0653 347.265
75.7716 -132.43 305.979
51.5415 -66.9228 347.874
51.5754 -120.915 323.733
54.4595 -147.768 327.603
45.5786 -119.766 334.349
48.4992 -108.389 363.324
42.043 -125.083 356.761
133.628 -88.7645 329.928
42.4011 -124.431 356.87
51.1022 -116.902 327.051
43.1181 -123.654 358.227
43.0194 -122.286 363.954
51.6035 -113.83 327.253
59.6314 -113.072 320.238
81.9997 -42.1979 348.873
47.9348 -111.207 338.643
112.919 -48.2272 348.623
80.7145 -130.799 303.193
50.0206 -108.656 336.238
49.9307 -107.413 337.374
49.452 -108.282 344.251
49.8353 -52.1061 353.106
89.9735 -40.4586 344.735
49.917 -107.627 341.861
97.6506 -40.8954 345.454
66.1966 -57.6504 346.777
49.6773 -107.603 342.964
74.9433 -38.6796 349.603
63.1027 -55.7546 350.216
50.3076 -106.333 340.532
50.4229 -106.588 341.702
50.8016 -105.231 340.601
27.3833 -35.8712 374.709
49.2032 -111.615 369.657
50.4992 -107.924 358.75
124.246 31.272 336.954
50.014 -108.321 361.473
56.2382 -134.791 321.059
50.6918 -102.456 343.994
50.7828 -100.635 344.111
32.3622 -57.9016 369.178
69.3401 -110.198 384.02
48.1802 -75.5681 358.41
48.8892 -66.5934 355.335
65.2841 -49.0603 351.569
60.4198 -65.3024 346.94
64.9372 -59.4618 346.132
42.044 -45.2712 365.788
92.293 -58.175 344.209
94.9298 -48.2013 346.282
50.1597 -56.0767 357.256
98.9888 -53.9867 343.864
34.4319 -55.5793 366.372
75.5819 -36.2699 348.115
33.7933 -50.9018 366.174
31.8322 -51.1433 368.446
21.9901 -53.9828 386.139
33.6208 -50.0463 366.178
21.9774 -54.1099 388.593
21.5458 -53.2008 387.11
45.8621 -121.031 335.78
30.5521 -48.3524 368.972
116.644 5.57087 334.074
22.2705 -48.6451 379.624
149.367 -50.7345 358.127
79.0774 -136.575 304.465
36.8313 -52.5621 363.851
20.4507 -49.4635 387.116
77.0636 27.7737 343.304
95.3494 -133.569 304.285
38.1175 -51.2524 363.317
28.3326 -44.0028 371.271
50.2352 -133.745 326.88
32.244 -47.2962 367.857
97.849 -37.5406 344.152
51.5554 -131.674 325.508
102.492 -39.5742 345.329
29.1447 -41.7429 370.455
28.153 -40.5593 372.029
18.8012 -41.3837 389.673
47.8423 20.6513 334.663
44.5633 -67.5534 348.413
105.63 14.2292 331.714
73.0721 -152.62 323.614
46.2858 -66.1837 349.593
88.3826 -136.834 302.403
25.5671 -44.7947 374.472
55.5632 -146.565 325.081
59.0523 -145.765 323.041
45.6657 -143.626 356.299
33.1274 -59.3646 367.848
49.8513 -134.341 327.157
77.4879 -39.8427 348.835
30.6847 -43.4014 369.399
41.6769 -133.294 341.966
41.8193 -132.327 341.099
90.2896 -53.5598 346.787
108.348 18.0242 329.298
89.4641 -39.5527 345.358
69.1319 -129.833 310.26
80.4894 -134.361 303.518
72.804 -128.046 307.448
47.038 -124.916 330.561
47.6531 -123.087 327.798
66.8529 -131.901 311.423
72.0545 -122.685 307.829
46.0331 -122.537 334.459
103.736 -47.9026 347.359
44.8506 -120.201 339.529
45.3879 -44.3616 364.007
42.5181 -123.992 355.766
45.2897 -130.639 333.593
42.9147 -121.67 354.494
44.8089 -116.335 352.397
47.0725 -112.985 341.212
107.159 -22.7583 336.091
44.8485 -114.588 350.19
62.8463 -126.647 314.362
22.4852 -54.3738 387.597
50.9757 -110.307 332.536
46.6816 -113.444 348.057
48.9761 -108.544 342.992
50.2403 -106.993 336.974
47.6622 -110.375 343.975
50.6275 -103.134 337.575
53.3764 -73.6517 347.987
48.286 -111.101 367.07
76.9228 -117.546 311.226
52.9956 -101.945 332.61
49.0949 -109.14 362.63
49.6835 -107.847 357.456
50.9506 -103.205 341.082
73.0851 -56.3929 345.741
118.518 7.75581 326.061
48.6768 -108.952 364.922
80.0279 -105.771 323.976
48.295 -110.295 365.48
50.3882 -107.518 360.19
50.5997 -107.142 358.628
52.1398 -99.0213 343.485
51.6749 -99.8295 341.196
55.1641 -71.0306 347.662
48.053 -57.0292 358.171
60.8819 -67.355 346.556
147.008 -70.962 355.472
94.2332 3.50507 345.916
62.7738 -59.8339 347.35
53.835 21.0669 335.349
20.4466 -49.1269 386.533
147.3 -55.4976 360.133
50.7101 -69.7152 347.139
83.9623 -30.1488 346.042
71.275 -37.2287 350.635
83.9058 -47.5965 350.916
81.1982 -128.909 305.11
47.5892 -146.39 348.789
68.9419 -1.41073 346.634
117.425 -49.5199 349.97
50.8302 -110.888 331.066
110.362 -130.211 307.05
103.002 -115.61 332.936
87.5411 -39.222 347.269
33.9505 -56.905 366.82
49.2937 -107.016 341.637
128.929 -92.1098 329.092
81.056 -17.5532 334.853
51.8864 -63.937 349.098
84.7454 -46.7237 350.43
69.8349 -37.5901 351.94
63.9261 -39.423 358.003
55.1178 -103.111 328.501
146.624 -52.7999 364.055
35.5485 -50.2462 364.858
151.67 -52.6576 363.952
18.8094 -45.5901 389.775
125.137 -62.3043 344.356
92.1334 -52.0409 347.015
50.672 -124.452 322.867
29.3221 -44.4605 367.359
104.785 -44.9992 347.858
80.2773 -37.4752 347.05
48.5595 -72.1617 348.038
46.9378 -122.948 328.459
66.9718 -42.129 355.335
53.7752 -105.503 326.976
103.43 -45.68 347.411
83.498 -58.6074 345.655
144.99 -43.3302 361.215
97.5489 -36.6773 345.524
118.376 -6.84301 344.796
154.19 -54.328 362.243
47.6529 -125.903 331.052
52.9668 -144.719 331.449
98.2338 -37.5307 345.346
21.2362 -33.7547 386.228
97.4204 -3.34058 337.973
91.9613 -2.05038 336.936
31.5005 -51.899 367.647
110.984 23.7223 327.853
78.9371 25.5527 340.029
78.9322 13.9506 332.54
108.564 -82.0014 344.664
54.9905 -147.003 326.556
75.2168 15.2033 337.704
29.3481 -40.5924 371.693
41.8551 -14.3888 364.391
51.6772 -54.58 354.594
104.181 -112.471 334.134
64.1324 -130.836 310.394
88.5362 -40.7132 346.479
57.3995 -115.295 320.114
135.321 -2.74928 339.911
22.0917 -52.1362 383.549
137.908 -109.315 327.71
67.8389 -115.301 312.277
46.5852 -145.92 349.996
128.533 3.176 326.713
58.7193 -113.699 318.061
67.5931 -115.496 311.886
74.4934 -26.9752 343.531
59.7067 -61.4142 348.437
89.6117 -153.917 326.639
42.6123 -137.398 347.764
76.9571 3.19584 341.69
102.665 -117.572 333.127
91.5015 -1.5429 336.655
80.528 -61.3235 346.248
83.23 -115.786 312.857
89.3161 -77.8556 345.532
58.45 -108.029 321.25
73.2067 -26.5499 344.051
57.9243 -41.2923 360.309
41.4418 -73.4261 348.854
51.8103 -103.393 333.88
42.0477 -124.431 356.727
50.1987 -70.9714 347.685
103.444 -49.4552 346.319
96.827 -51.5883 347.154
66.0921 -81.1516 340.38
70.6448 -112.094 383.408
56.875 -54.9457 352.161
85.1636 -109.636 322.555
91.6272 -38.9144 344.73
23.4877 -42.1549 377.961
127.25 -40.3787 354.284
83.9467 -116.908 310.778
84.1017 -45.8832 349.751
38.0007 -68.7362 374.17
79.5992 -43.917 347.943
53.4838 -139.479 372.815
44.8962 -45.1696 363.239
55.0705 0.61476 356.142
82.7957 -41.5142 350.628
82.8934 -37.6107 347.17
41.934 -127.144 360.2
92.7193 -36.3725 345.668
46.8755 -58.0109 350.862
78.2363 -98.6662 385.814
48.2677 -55.8329 344.385
157.201 -47.8358 365.397
108.191 -52.5338 346.718
74.1313 6.9139 339.641
63.1673 5.72874 347.063
63.6677 -55.4489 348.726
124.022 -117.578 335.85
43.1741 -122.383 352.99
125.279 -125.796 328.9
45.1571 -133.858 364.844
80.9241 -34.5237 346.382
20.3576 -50.0373 387.465
110.642 -85.8022 345.59
33.195 -53.2241 364.636
81.3431 -115.799 315.885
32.5265 -44.8314 369.137
57.3713 -106.895 322.686
95.5327 18.2705 331.589
95.6963 -53.1915 345.74
83.9326 -45.2922 347.503
36.8174 -53.4861 363.13
55.5971 -110.27 322.351
89.6985 -107.728 325.64
27.0862 -59.5547 382.892
58.1159 -48.8079 351.621
56.971 -59.4746 349.827
124.976 4.62059 326.376
149.838 -61.2813 358.702
108.418 12.7741 327.232
24.8295 -30.5305 382.666
55.5076 -42.4742 357.66
46.2166 -66.7464 348.632
24.5927 -30.0643 384.839
149.677 -56.3824 363.885
49.945 -106.639 370.387
74.577 13.9159 336.82
145.977 -54.1659 363.259
73.4068 -124.456 306.893
85.1508 -47.3974 348.725
46.1976 -6.53049 361.808
21.9652 -49.6489 380.574
52.6539 -71.1146 349.355
47.7915 -44.1451 364.164
108.972 -33.0193 341.98
143.446 -64.6299 357.326
73.4625 -37.352 348.199
71.231 30.7001 341.868
58.1972 -123.437 316.428
51.0326 -103.294 337.65
91.1519 -41.114 345.779
47.7424 -111.42 361.959
85.902 -43.4451 349.162
62.3139 -79.4331 347.982
52.1335 -39.753 367.143
145.934 32.5569 331.111
50.6851 -105.844 338.482
50.1274 -107.095 338.325
44.9463 -115.175 360.861
58.6267 -122.594 381.442
151.809 -66.0191 356.143
52.789 -47.4755 356.083
44.6525 -114.603 348.794
43.1637 -120.047 354.534
50.1257 -115.189 330.249
36.2564 -52.9443 364.213
42.4901 -123.424 356.447
61.6344 -69.212 346.543
32.0854 -48.7772 367.811
42.3189 -122.85 356.918
55.6044 -4.40852 360.76
55.09 -116.038 321.545
166.276 -61.0143 363.997
35.2287 -50.4142 364.254
51.6026 -118.96 324.378
52.6071 -121.819 321.911
26.3597 -35.839 375.684
22.1447 -44.4184 378.897
22.8024 -44.4219 377.979
17.9653 -25.8912 397.117
50.3827 -106.756 356.679
42.0815 -74.0361 349.539
51.3447 -120.236 324.247
80.6207 -130.401 303.349
24.4234 -39.5488 376.963
26.7807 -40.3135 373.643
137.669 -97.1085 337.524
31.2921 -47.5194 368.547
42.6729 -121.432 355.645
105.429 4.95825 349.42
34.6614 -5.82092 387.045
26.0496 -37.9612 375.323
71.6699 -127.181 307.683
92.2421 -84.5801 340.804
80.5907 -35.6872 346.568
49.8472 -131.708 327.066
52.1674 -101.101 343.527
129.286 -67.5781 342.065
149.434 -61.1489 358.09
41.0838 -60.899 361.304
152.502 -75.9449 357.715
54.9302 -103.082 328.289
104.216 -84.5334 347.061
17.3838 -27.2531 396.055
89.7568 -107.741 325.997
52.4124 -104.313 329.789
52.0773 -133.496 323.002
57.747 -60.6996 350.135
43.0249 -67.9898 359.83
48.0753 -109.736 344.369
50.5207 -129.744 326.204
55.5239 -43.8647 358.763
43.6515 -46.1754 362.114
51.0394 -103.978 341.346
118.686 -119.213 329.568
27.4597 -39.8847 373.566
51.0113 -103.311 336.366
102.073 -48.7563 346.148
51.2016 -104.825 341.452
49.9222 -105.756 344.798
121.19 -66.3615 337.24
118.729 -2.80243 347.837
50.1661 -108.483 335.579
88.5604 6.75101 343.085
152.41 -67.5158 358.306
114.133 -6.25718 342.135
43.5405 -119.661 359.398
139.122 19.2883 316.388
43.4416 -119.926 358.016
42.0634 -126.096 352.581
46.9099 7.72991 372.588
19.5926 -39.8025 396.137
60.3645 -90.8887 361.059
93.7697 -82.9386 342.671
58.328 -35.9234 365.09
51.1827 -145.986 333.216
51.351 5.35277 349.394
48.9277 -61.0088 350.357
155.655 44.2137 326.871
79.6945 -18.8254 334.567
50.7729 -59.9078 350.595
51.2181 -131.923 326.119
56.2823 -3.26256 362.552
146.382 -69.6675 355.866
20.3987 -45.2144 379.941
34.5161 -61.3017 368.391
125.426 -105.77 355.014
32.2947 -63.2327 376.512
35.4397 -68.2928 378.598
54.2311 -99.0227 339.924
53.3726 -103.672 355.558
115.243 6.00028 340.772
16.9633 -27.9279 396.726
92.6163 -78.7832 344.205
50.1254 -107.503 358.671
134.651 -61.2703 351.126
69.9923 -37.3867 351.917
48.4592 -109.994 361.088
89.6506 -81.0402 342.849
48.7681 -112.112 365.763
151.849 -63.9271 358.222
41.9403 -125.129 355.474
59.2502 -144.318 321.052
19.1099 -45.1075 388.177
35.3029 -56.6271 365.113
43.0862 -70.5999 361.354
56.6872 -131.103 318.502
112.205 13.2629 327.214
49.4693 -107.704 339.546
123.514 -76.1681 333.657
62.1344 -62.9917 346.8
171.908 -61.2196 368.982
84.9589 -33.237 345.182
39.352 -76.5743 353.149
71.2387 -92.7245 368.782
33.7741 -56.6567 366.208
112.852 -41.7979 349.302
105.874 -88.596 347.166
61.8018 -91.7075 343.469
44.2613 -116.377 360.02
71.5222 -123.281 307.887
84.0938 -134.682 301.814
58.3537 -139.547 319.386
58.4316 -107.913 321.421
17.5642 -30.4101 392.687
59.7112 -135.46 319.675
161.926 -62.7827 362.675
84.5404 -44.428 349.356
26.4497 -41.8165 372.991
97.8825 -54.0045 345.733
70.84 -93.3313 367.053
28.5607 -42.2657 371.725
36.727 -50.9364 362.326
69.5679 -95.5557 368.082
74.7424 -53.4623 346.156
49.9206 -102.719 344.759
100.972 -99.2692 330.609
146.054 -63.0014 358.744
51.428 -118.432 325.579
29.59 -34.8754 374.527
55.0738 -133.233 322.569
64.9887 -41.129 355.49
27.0863 -37.9134 374.121
86.0931 -38.7601 345.492
93.4312 -2.0832 337.431
146.418 -75.6559 353.451
81.0266 -34.3758 346.636
60.4725 -141.343 320.689
36.9771 -50.9038 363.712
48.7916 -121.292 325.843
69.8459 -124.465 309.757
18.7447 -44.9795 391.115
93.7272 -36.2783 345.044
80.3696 -37.814 346.997
55.8792 -134.813 322.814
145.303 -58.1445 361.03
49.0583 -117.674 330.793
33.294 -60.8314 368.732
50.3872 -105.598 341.271
50.2799 -111.158 332.92
44.335 -115.128 361.854
61.5066 -112.049 317.593
175.646 -60.1588 371.349
106.463 5.29836 345.94
68.2135 -122.725 310.957
151.947 -60.6161 362.313
44.3691 -131.833 336.639
64.0404 -55.5466 349.1
32.5212 -59.6385 368.362
52.564 -148.95 332.459
92.4516 21.6918 340.14
110.716 15.8431 327.247
88.627 22.689 316.819
144.606 -62.3932 359.153
42.8499 -137.27 344.626
84.9235 -44.6079 348.832
69.0858 -1.24045 350.372
92.1164 -52.5689 347.147
87.0615 -42.2398 347.889
87.2666 -154.32 325.531
33.0501 -61.9921 371.081
89.64 -62.8815 344.066
134.897 -115.675 329.472
55.8241 -105.099 324.1
57.9008 -104.844 323.357
131.701 -113.821 331.465
129.164 -64.1783 340.38
65.9738 -36.5703 352.753
102.103 4.42972 347.41
63.6198 7.18523 345.63
74.1489 14.9812 338.228
110.285 -72.9778 341.394
175.067 -64.6731 372.267
49.9966 -49.4573 357.238
62.1893 -46.801 350.884
86.0686 -46.4596 348.478
156.949 -18.7769 380.282
90.5027 -141.986 305.771
83.78 -136.976 301.586
46.6187 -59.1824 348.967
136.252 -64.9402 355.347
47.446 -54.1462 354.682
62.8037 -43.7562 356.086
110.905 -39.1807 347.23
116.364 -4.73008 343.419
116.917 2.40075 340.193
33.5402 7.07509 353.582
76.3173 27.8097 342.235
34.9253 35.2465 362.683
87.5849 55.3758 341.462
81.3601 -112.644 316.3
106.91 -3.64186 339.966
95.5637 -7.2097 335.144
50.78 -135.833 326.86
61.589 -41.1989 355.35
75.8158 -39.9268 349.898
71.2261 -126.498 308.294
47.0075 -123.858 328.848
53.2389 -122.129 320.931
50.3622 -105.392 341.249
48.589 -108.732 362.448
39.9416 -60.6402 362.052
129.755 -63.3898 338.153
63.455 -50.7295 351.533
39.3511 -49.8808 363.171
85.5964 -43.4772 348.51
26.4565 -36.7276 375.582
62.8174 5.96028 346.137
74.9823 -134.167 305.685
39.6803 -63.2652 362.701
28.9059 -43.2397 370.78
28.0105 -43.1666 371.719
18.6477 -46.2717 399.566
117.866 9.09724 325.71
67.6537 -132.154 310.723
71.0745 -121.759 308.559
73.306 -121.751 307.53
83.7605 -81.9697 343.18
47.1602 -42.1276 365.726
76.2366 -38.618 348.679
48.8357 -38.8368 367.611
52.223 -0.988014 365.693
70.9886 11.5777 338.718
61.5339 -64.9854 346.498
33.6968 -53.7156 366.937
18.8967 -25.4672 402.488
48.9813 -119.111 327.74
50.5937 -128.151 325.49
51.7159 -105.161 335.54
71.5176 -45.1681 348.61
20.0257 -45.3791 394.538
39.2994 -10.0242 385.877
75.855 -133.18 305.828
67.8319 -131.005 310.755
70.9447 -125.831 308.714
49.0352 -121.936 326.735
99.1028 -54.8257 343.72
49.7842 -133.283 327.201
66.6403 -130.666 311.308
49.8114 -132.423 327.505
77.6463 -130.516 304.629
72.4276 -125.779 307.223
57.3914 -116.209 320.297
48.2993 -70.9833 348.485
32.8567 -58.0474 368.016
95.1131 -56.6252 344.261
74.8614 -132.837 306.492
68.0883 -129.666 311.03
81.4256 -129.678 304.235
70.5762 -126.814 308.843
54.1919 -116.089 322.032
103.364 -4.715 338.2
100.211 19.7464 332.184
91.0617 -132.45 303.6
47.5133 -123.892 327.865
57.0941 -104.895 324.172
23.6926 -45.626 376.758
96.5576 -34.3639 343.984
62.857 -113.276 317.706
35.5564 -57.0233 364.951
66.4676 -131.606 310.678
70.0646 -129.021 309.383
74.527 -124.28 306.009
54.2249 -104.551 326.567
91.4604 -83.3699 342.259
88.0412 -81.7332 343.499
145.992 -78.6315 352.731
145.205 -76.3523 352.077
48.1246 -62.9899 349.115
142.149 -68.5917 353.57
98.0035 -59.4293 346.372
145.062 -65.257 357.443
144.347 -61.7411 360.127
147.243 -61.2626 358.166
143.262 -60.3491 359.987
148.168 -58.6388 360.745
140.694 -57.3554 362.332
100.947 -51.2606 345.647
113.645 -50.0856 348.513
116.061 -49.4108 349.976
155.668 -47.79 364.621
144.686 -44.9173 363.002
50.5902 -29.8118 359.344
109.843 30.8379 326.531
120.882 -132.34 327.743
50.1293 -114.541 328.643
53.1004 -64.4983 348.794
143.945 -71.5925 353.011
144.211 -64.1739 358.198
114.93 -54.336 347.676
149.64 -57.9706 360.045
113.834 -50.7054 347.572
165.675 -57.4122 362.956
167.334 -57.4745 363.927
152.74 -54.3907 361.478
121.013 -40.4407 352.526
91.958 -36.6816 345.984
102.875 -37.3853 346.787
61.9617 5.02934 347.652
74.4715 29.4437 341.26
77.3543 -130.202 303.868
61.5954 -112.018 317.421
104.208 -117.211 332.181
55.6488 -106.484 322.412
104.053 -90.5136 346.657
93.5709 -75.237 347.813
146.114 -71.8473 354.329
98.2052 -61.7229 344.981
164.333 -57.3523 364.061
111.118 -44.3559 349.241
66.6218 -38.0469 354.041
128.871 -40.6495 355.628
123.351 -1.75917 354.147
78.2051 28.1482 341.716
64.7194 -133.207 310.707
99.1787 -110.957 330.177
115.709 -114.609 352.801
71.516 -70.0909 330.072
144.987 -72.2797 353.68
48.9467 -61.023 350.343
164.848 -59.761 362.614
182.48 -57.6065 374.7
57.4645 -41.499 360.841
125.908 -38.9448 353.339
104.122 -35.4166 347.295
37.1578 36.7091 364.601
115.745 30.1431 334.664
81.8907 -157.451 328.287
100.515 -138.89 306.909
104.741 -110.514 335.782
103.493 -87.1527 346.902
136.162 -85.4393 336.321
125.242 -65.685 345.595
144.25 -53.7719 364.289
125.4 -41.6421 354.15
133.288 -41.8158 355.976
109.371 -1.4504 345.001
130.87 2.4814 326.877
151.085 9.44309 330.033
79.8635 17.4183 332.526
123.539 -134.164 326.94
123.461 -127.574 326.623
73.0464 -70.2689 327.973
160.735 -69.4987 363.8
45.5003 -56.3001 350.348
140.231 -63.5779 354.445
165.284 -49.5179 366.287
79.9864 -125.734 307.348
99.9506 -112.923 330.705
155.311 -51.7057 363.9
134.617 -45.5955 357.854
151.802 -38.7184 378.46
104.578 -30.6623 338.57
120.939 30.2159 334.527
142.86 -64.3206 354.578
112.732 26.5875 330.128
81.9627 -119.912 308.913
126.079 -127.374 324.311
38.9529 -79.6371 357.088
55.5752 -30.6536 356.804
70.5725 8.21472 340.189
116.031 12.9408 326.952
150.613 -72.247 356.541
116.746 32.5389 333.106
72.7206 -153.602 325.297
118.782 -127.551 321.027
140.472 -76.0613 347.883
136.966 -63.3481 352.773
83.4046 -29.6436 342.896
109.222 27.4147 331.826
120.171 -95.1705 346.113
116.53 -105.346 352.666
84.5416 14.6958 333.923
40.6403 -62.0033 361.372
35.5867 -54.8152 365.106
32.1133 -51.7332 368.104
60.2125 -60.4025 348.433
118.486 -57.8631 327.247
55.0524 -56.2663 351.353
150.173 -62.5767 359.49
84.9248 -52.5172 347.888
89.5935 -51.7254 347.164
85.7852 -49.0446 347.935
28.5862 -43.1721 369.052
125.867 -39.6137 354.385
168.145 -36.7225 372.662
23.2125 -31.4646 382.179
115.364 39.8987 311.376
73.2559 -154.591 323.36
74.7781 -149.499 321.483
76.0035 -148.221 319.431
71.2912 -148.034 321.85
76.2419 -116.178 312.073
49.7923 -117.396 329.921
72.5139 -71.1277 328.377
112.128 -74.0074 342.165
57.7384 -57.5443 349.727
124.422 -60.125 344.06
34.3321 -52.2721 365.852
85.6744 24.2259 340.008
83.4368 24.1467 316.027
53.167 -130.501 321.151
123.44 -129.377 325.659
84.0435 -117.86 309.935
125.997 -121.952 330.212
126.697 -119.983 329.283
132.67 -116.324 329.338
151.081 -69.5567 358.132
140.711 -63.8056 354.803
161.484 -66.1444 363.248
165.475 -50.1115 366.421
23.8136 -41.8336 377.514
130.351 -41.1712 358.068
18.2303 -32.5519 387.757
171.166 -35.127 374.531
147.126 24.8043 319.748
96.8667 -134.174 301.995
46.2003 -132.593 332.673
47.8687 -131.104 328.457
122.599 -124.64 327.196
125.187 -115.759 336.942
127.532 -90.8316 343.768
154.971 -68.1902 359.866
77.9664 -50.6679 349.143
89.4015 -37.8719 345.303
106.981 -27.7608 334.268
75.1036 -134.972 306.691
52.3025 -129.865 323.413
63.4941 -112.129 317.523
110.859 -51.4932 348.681
21.7983 -48.6189 381.143
59.8513 -3.23132 356.289
54.4798 4.91838 344.989
67.5533 -117.216 311.945
122.794 -63.1439 343.868
48.8677 -39.343 366.047
148.369 -40.3414 365.806
123.546 -75.2009 339.055
34.1044 -60.8208 367.328
40.9034 -49.9504 361.079
159.928 -48.6489 365.049
48.7053 -130.913 328.779
159.127 -73.6732 363.328
59.3162 -113.497 326.113
117.841 -29.442 338.793
154.015 44.964 321.678
58.1656 -60.1599 349.899
53.3753 -127.867 319.608
79.1592 -116.182 312.564
22.3525 -44.5163 379.032
51.9694 -117.961 324.172
89.7065 -83.2 341.417
64.8755 -132.568 311.311
53.0423 -124.993 320.506
98.8905 -40.0264 344.784
28.9049 -36.1186 373.711
28.3565 -38.4611 372.882
55.8439 -56.915 351.326
112.9 -49.2686 348.224
42.3573 -45.8871 362.68
167.086 -45.4834 368.429
135.583 1.43733 327.959
164.077 -63.6214 363.7
32.7383 -48.4178 365.705
82.3642 -117.016 309.622
61.2046 -68.7909 345.942
62.0894 -66.9004 346.59
165.022 -62.4058 363.784
107.938 -50.985 346.539
109.975 27.2105 327.993
31.4396 -56.6812 368.15
23.7663 -45.922 374.656
55.9433 -129.909 317.465
34.8933 -51.7008 365.699
52.0019 -118.124 323.969
39.8318 -62.3339 362.1
37.9912 -56.0791 363.15
89.7551 -60.5484 344.235
44.0612 -120.215 352.721
49.3875 -108.28 341.974
79.9588 -105.311 323.324
52.7949 -101.255 334.403
33.9072 -60.9876 369.44
97.0313 -58.8907 344.486
50.3883 -51.5321 354.444
67.6273 -49.3619 349.003
105.685 -49.9505 344.963
21.7852 -47.1789 380.399
29.8456 -44.7329 370.285
74.2293 -33.2785 344.559
97.1343 18.5783 331.601
75.1794 -153.792 322.259
74.1254 -148.967 319.903
49.1639 -130.431 327.145
78.5336 -125.117 305.007
43.4044 -131.744 340.848
51.773 -125.982 321.366
49.6393 -106.77 339.526
61.7462 -53.7379 350.739
25.9756 -56.7998 383.949
24.5197 -44.0097 375.937
78.2222 26.7555 339.003
50.2575 -108.719 369.134
42.8253 -45.763 362.806
31.1477 -45.9081 369.161
50.2263 -45.4926 363.431
56.6309 -42.0415 359.639
71.1517 -37.1787 350.33
77.6938 -30.8096 345.991
50.2591 2.45062 359.182
31.501 -59.8543 372.036
104.547 -46.7842 345.593
47.116 -123.674 325.979
51.3876 -129.554 321.059
80.5251 30.923 344.691
94.243 -39.6099 344.99
155.681 -61.4094 359.829
53.6848 -75.3339 348.795
44.6002 -121.679 335.825
51.574 -124.972 322.996
63.6131 -132.57 312.123
51.3371 -137.096 328.029
85.1454 -133.862 302.585
85.1139 -140.224 303.893
50.8884 -117.031 326.979
76.092 -118.912 313.588
53.0186 -127.708 319.153
49.9484 -131.014 325.539
85.5099 -134.548 301.661
60.5357 -144.525 321.168
61.0394 -145.813 321.983
97.2605 17.9648 331.425
24.39 -32.7014 382.19
26.7478 -39.7644 375.668
61.9786 -48.4362 352.974
92.864 -51.6085 346.713
94.062 -54.0163 344.386
34.4344 -55.4252 366.535
26.4566 -57.7415 382.216
62.6228 -54.5632 350.923
34.7224 -55.9833 365.962
83.5263 -56.6378 347.715
81.7813 -58.4497 346.403
44.8512 -70.0565 348.688
86.5357 -80.0901 343.014
51.068 -79.747 351.908
49.5952 -112.269 332.595
67.1844 -115.99 313.095
40.9321 -131.775 342.561
69.325 -128.859 310.264
55.183 -130.688 318.224
72.151 -147.259 319.867
33.6924 -4.9928 370.109
53.6415 -5.89969 361.394
65.1647 -111.897 316.43
108.017 -41.9341 348.363
62.1931 -72.1249 346.125
173.151 -34.6227 374.004
54.1737 -66.0999 348.482
66.2835 -117.505 312.483
51.3256 -68.9885 347.606
106.022 -86.4556 348.432
47.3465 -43.2523 363.414
106.905 -48.9067 347.03
158.962 -56.3983 361.446
87.3595 -50.1873 348.952
33.541 -49.7824 364.379
86.1794 -51.8243 348.876
55.2333 -54.7527 353.385
93.1864 -58.4962 344.998
53.2919 -57.2179 352.305
63.7035 -57.689 347.893
70.1569 -127.585 308.623
80.6621 -130.899 302.579
153.356 -69.0774 358.792
104.831 -67.286 345.633
52.5512 -99.8366 339.517
76.3021 -135.844 306.1
60.012 -141.978 319.382
51.4422 -146.542 331.867
39.3734 -43.3109 379.418
123.892 -0.650944 338.132
86.6375 -25.7036 336.838
23.436 -56.7136 386.668
62.1623 -80.7708 346.431
110.356 31.658 332.368
44.6521 -2.99699 374.793
86.9061 -130.082 305.597
79.988 -139.976 306.728
119.601 -49.0962 348.546
33.5171 -66.1578 381.775
128.907 -82.2601 336.561
53.2195 -103.266 354.582
60.5001 -147.461 325.287
56.0344 -3.61992 362.229
20.4368 -50.5604 394.449
129.975 -86.3991 337.97
53.2669 -102.139 335.441
104.959 17.7794 333.338
111.822 4.28726 340.139
126.506 2.45816 328.507
26.7496 -33.2506 379.839
21.4515 -48.7371 381.017
21.4824 -52.0443 384.896
86.9887 -52.285 348.871
49.3768 -54.4586 354.565
119.686 -71.9422 336.394
43.1256 -70.5308 361.588
41.3971 -124.79 357.671
129.878 1.74509 325.845
104.519 -36.1143 345.758
79.3071 -41.3646 348.728
137.634 -75.2269 334.125
136.581 -77.2386 335.209
128.439 -86.5091 339.91
86.9827 -87.7905 338.739
50.7625 -103.019 345.811
48.2247 -110.754 367.805
124.91 -117.483 336.672
122.156 -120.437 333.19
67.7816 -117.385 312.346
110.69 -129.201 306.843
69.727 -120.762 310.946
80.6978 -152.506 322.96
73.0525 -153.155 322.753
63.0358 11.7599 339.208
68.6825 7.70683 341.669
61.5105 -41.0172 356.648
28.9982 -44.6662 371.319
18.8543 -47.3478 387.857
116.747 -57.7458 342.379
134.392 -66.8263 335.66
43.5862 -70.3915 359.729
86.0008 -83.735 342.028
47.09 -124.652 330.601
64.728 -131.878 313.092
62.8378 -133.629 313.637
75.1922 -150.978 320.861
73.6342 5.45599 337.68
68.0466 -41.8859 353.943
105.804 -42.9833 348.183
51.1344 -47.1488 362.99
40.2054 -47.3941 364.088
27.3879 -58.9629 380.431
39.0633 -57.7245 362.593
38.0274 -60.2503 363.119
40.8835 -74.0145 349.71
35.1848 -77.9594 368.071
34.9813 -78.683 367.439
86.9746 -132.961 304.597
51.2368 -133.306 326.094
77.8559 -141.429 307.487
66.5904 -146.92 320.644
73.3798 -26.6282 344.108
26.2606 -35.5839 377.366
98.9772 -37.821 344.735
83.2236 -38.1471 346.271
27.4579 -40.5619 372.953
29.7251 -43.158 369.946
55.3075 -43.843 358.738
79.6757 -44.8412 347.401
21.2697 -48.4081 381.309
20.5602 -50.1581 387.443
21.2534 -49.6579 382.749
20.1192 -50.0186 385.441
33.0358 -48.6244 366.943
33.8772 -49.9711 366.307
33.7559 -51.6177 366.348
46.1346 -72.7307 347.796
61.8036 -75.5755 348.197
89.0622 -86.1003 338.615
60.4355 -88.9749 345.161
50.4023 -103.151 343.168
50.4165 -102.95 340.608
49.4757 -108.256 336.72
44.0495 -116.993 350.822
54.9689 -116.829 320.2
54.6704 -117.252 321.404
41.727 -126.492 359.797
41.6908 -127.061 351.099
51.0086 -121.024 324.12
73.9527 -126.198 306.452
92.7428 17.3303 331.151
80.216 -35.1072 346.893
110.615 -43.9698 347.84
37.7125 -50.2345 362.734
82.7588 -60.6738 345.899
56.9633 -69.5307 352.86
44.2972 -68.1371 347.439
47.1947 -111.018 346.797
41.7884 -123.265 356.56
41.7899 -123.883 356.35
47.8066 -133.945 329.964
62.2141 -142.581 319.868
70.2031 -148.137 321.015
114.618 -89.7951 331.811
50.9163 -74.8347 350.251
81.2168 -29.3096 341.991
94.2229 -60.9799 344.787
72.2531 -97.0846 335.339
51.8003 5.86223 396.502
85.0711 -4.76434 337.358
78.9899 -97.4954 328.112
68.9167 -113.495 381.234
112.216 18.9869 327.656
27.6453 -29.3191 384.657
58.2639 -99.0822 349.671
58.9887 -114.854 314.87
108.958 28.9901 336.808
103.401 13.8999 334.857
94.9827 -47.6287 345.258
81.9985 -49.4972 347.204
52.3355 -152.789 340.922
111.481 6.28488 341.191
21.1237 -48.9409 385.095
38.7781 -46.9607 364.238
119.103 -64.4448 335.465
62.8548 -82.5689 349.701
47.8488 -127.393 329.219
83.6451 -13.2307 334.425
22.7097 -50.4 400.985
128.878 -64.9658 336.51
62.6915 -69.5879 345.542
52.5618 -75.172 348.844
49.2073 -108.247 350.703
42.6307 -122.139 355.582
42.2483 -137.427 342.569
95.762 18.7754 332.346
100.005 16.8556 333.634
88.3108 -42.3751 347.066
111.849 -44.1687 347.823
20.8412 -48.472 403.853
104.759 -46.6291 345.891
64.8726 -45.8697 351.762
65.4323 -47.9792 352.97
47.4739 -59.3594 353.103
131.15 -64.2553 335.832
119.797 -67.1172 336.111
46.1682 -66.3965 357.598
45.3779 -71.227 358.55
44.3601 -73.6189 360.342
39.6773 -8.09087 426.563
65.4358 -1.9968 351.092
26.7049 -57.6658 378.83
41.2087 -75.6696 381.933
44.4406 -117.883 361.466
44.5889 -120.278 352.653
49.4224 -116.327 330.125
131.404 13.8696 315.249
85.7572 -2.45236 338.817
78.3865 -35.3464 347.512
46.4894 -38.3979 367.61
93.1651 -42.1231 346.335
31.1868 -43.4775 369.767
60.4076 -42.7965 353.186
74.9825 -43.2876 347.069
100.932 -45.8309 346.527
78.854 -67.4268 324.726
128.022 -101.369 327.822
128.003 -101.589 326.609
51.8521 -104.579 341.042
51.7109 -123.636 322.57
52.5438 -125.11 323.236
52.1177 -134.881 325.304
60.3044 -145.329 322.386
23.627 -31.7066 385.053
90.481 -39.7588 345.074
62.9158 -40.7847 355.391
97.6745 -41.1632 344.204
60.9519 -41.8921 354.469
49.4511 -44.1544 364.195
86.9513 -43.351 347.687
102.026 -48.7997 346.096
38.5503 -49.8982 364.015
47.2124 -112.304 348.347
44.194 -118.59 352.147
61.238 -113.135 318.047
50.1877 -117.781 327.614
48.0576 -132.989 329.231
129.434 -100.189 327.226
72.0424 25.612 273.063
100.739 -37.1111 344.767
83.4454 1.31188 341.057
34.4649 -58.0774 366.627
76.4669 -131.805 304.908
25.4507 -35.6656 376.83
47.4402 -68.471 348.003
23.6661 -31.2014 383.842
137.651 -114.899 329.676
18.2116 -30.3641 391.833
17.9169 -29.1083 393.759
41.4051 -131.497 342.649
49.3704 -114.802 331.391
158.143 -56.2365 361.846
96.0182 -66.5953 344.907
49.6473 -107.896 344.206
44.1656 -119.51 341.846
38.0351 -52.336 363.214
50.2198 -120.511 325.685
75.8601 -0.114162 345.826
159.981 -48.9028 366.457
47.5885 -121.64 328.938
48.3999 -127.841 329.358
50.4385 -119.937 325.52
125.097 -106.97 354.825
82.1253 -36.9606 347.042
50.1156 -117.806 329.078
49.314 -107.627 339.537
43.9765 -118.188 359.101
51.0588 -107.24 335.658
44.0697 -33.104 372.072
51.1672 -101.677 340.788
150.58 -53.5955 363.679
125.653 -61.0122 344.404
42.198 -67.0465 360.173
51.2413 -86.2512 360.314
39.5865 -60.6654 362.277
93.037 -2.16722 336.167
116.489 7.33158 328.185
73.8265 -108.212 383.816
52.7271 -143.359 330.274
49.925 -132.515 328.61
166.407 -67.7278 366.171
62.2821 -140.608 320.977
32.9614 -59.8417 369.319
125.733 4.86263 326.608
59.5786 -33.9318 357.6
91.4933 -135.993 304.313
42.9265 -122.209 358.734
32.4618 -32.3187 374.651
60.5121 -112.525 318.915
132.147 18.141 326.926
51.1578 -120.118 324.268
33.3043 -49.8871 366.706
54.5589 -45.233 357.571
106.891 -40.1298 347.672
22.9604 -41.2139 377.479
28.9698 -36.0083 373.766
49.6519 -0.351337 388.014
24.9031 -38.8136 375.911
27.9091 26.9717 359.906
47.4755 -121.257 330.257
77.4765 -146.785 317.823
49.0513 -108.619 353.94
99.3028 -131.078 311.153
52.9484 -133.323 324.074
31.1462 -47.3879 369.81
42.6373 -30.9163 373.445
101.331 -56.3098 345.597
72.1947 -125.781 308.304
92.7284 -105.038 327.532
76.6043 -126.072 305.804
53.2416 -105.231 328.307
50.6845 -123.919 323.095
43.2981 -133.24 338.101
50.561 -122.211 324.077
53.1888 -2.97955 362.573
38.6873 -58.9026 363.361
45.8236 -66.5502 358.049
36.4985 -56.1608 364.485
49.0553 -41.1239 365.921
56.6403 -140.217 321.287
16.2494 -31.607 392.761
53.3654 -148.143 329.242
40.9497 -133.686 343.514
51.8684 -141.046 329.756
54.5244 -128.092 318.856
46.0493 -145.41 352.855
47.967 -109.578 362.366
166.757 -62.7444 364.291
59.6265 -113.203 319.279
44.5822 -131.665 336.354
58.1058 -109.496 320.311
33.0114 -60.8397 369.699
38.1218 -59.0063 363.332
23.6103 -43.0448 377.06
70.5739 -38.0117 351.345
149.981 -12.4815 367.459
26.7276 -39.5359 373.845
25.5788 -37.0284 376.322
48.0633 -62.0677 349.136
84.9213 -44.8126 349.676
66.3856 -119.311 313.287
40.4211 -49.7738 362.857
32.6517 -56.6972 367.866
43.8407 -70.2496 360.062
33.7872 -48.9563 366.345
43.1541 -67.1607 359.981
111.104 11.1822 329.377
25.3984 -40.2568 375.197
44.6027 -116.725 360.891
67.2432 -129.471 311.814
29.5775 -61.7586 379.139
56.6168 -109.587 322.225
50.4784 -132.289 326.518
56.8391 -108.254 321.533
56.2519 -103.833 326.606
50.4312 -105.89 339.218
51.0892 -104.084 336.874
19.4621 -35.2463 389.43
52.0214 -119.934 323.457
83.9654 -37.4023 346.615
53.0353 -146.087 329.32
89.5306 -55.4593 345.956
113.74 -14.7826 355.707
20.9028 -51.451 386.393
27.795 -39.3172 373.07
77.6442 -28.8158 343.964
135.851 1.61753 327.129
29.5939 -46.0114 370.11
96.2531 -40.5376 344.968
51.4826 -131.65 325.157
66.6338 -53.6966 347.424
22.953 -43.151 378.044
56.4367 -53.6604 352.632
99.1705 -35.3618 344.363
105.054 2.44444 353.343
150.378 35.1892 332.581
18.0608 -33.1482 390.083
127.513 -88.3626 329.477
49.6326 -121.937 324.801
58.2314 -51.8942 352.588
68.8334 -31.6797 346.206
26.6216 -38.7309 371.671
79.8755 -30.3604 345
54.2107 -146.876 326.225
61.1169 -59.7255 348.274
71.6664 14.7333 339.447
154.555 -67.2649 359.115
27.7228 -29.4704 382.474
62.6787 -131.795 312.182
117.86 -41.2468 351.785
45.4427 -120.353 337.711
64.116 -112.996 316.303
63.3839 -111.954 317.37
144.422 27.019 320.87
118.376 -44.1724 347.829
50.6043 -116.637 327.679
49.336 -112.166 334.068
59.7491 -109.186 319.723
54.8313 -106.611 325.021
91.2594 -53.6922 345.936
86.2433 -1.55263 338.747
101.513 -47.565 346.512
96.9619 -51.9862 345.673
163.459 -53.0695 364.206
50.2626 -119.059 326.298
91.1487 -40.0879 344.994
46.5913 -113.203 349.373
71.6182 -39.3399 351.172
107.607 -51.4185 347.359
64.8326 -48.5818 351.203
51.125 -103.161 342.05
120.185 -113.935 319.835
61.5503 -143.315 320.125
90.4765 -35.155 344.604
113.999 12.8274 326.073
124.488 -110.27 358.703
50.7748 -103.297 343.496
67.1507 10.6046 341.637
123.748 -75.9185 332.398
79.7635 -97.2054 389.153
25.7043 -33.146 377.946
41.9355 -131.068 342.373
46.8039 -126.231 329.835
37.4144 -54.0247 363.615
86.0895 -40.1429 345.737
18.6442 -39.6032 390.935
105.458 14.0545 331.606
65.2965 -131.623 311.815
19.2709 -43.7847 397.402
86.7462 -48.1526 347.857
29.9707 -44.7617 369.114
57.3124 -41.6564 361.785
71.9099 2.14353 344.874
146.094 -56.4116 360.19
24.9427 -41.6937 375.792
36.3738 -52.9938 364.438
81.5313 -16.0713 334.084
49.921 -120.028 326.412
54.0983 0.347039 356.078
139.286 -49.3188 367.301
67.1361 -42.8545 350.039
128.895 -100.962 325.861
30.8031 -34.7594 373.431
55.2442 -134.462 322.358
80.1307 -131.357 302.061
88.897 -82.2138 342.29
51.0883 -56.9157 356.85
49.4195 -58.2726 356.155
71.0027 -127.776 308.003
58.6676 -56.4688 350.766
74.6192 -38.0668 350.374
71.8964 3.79122 342.549
65.2022 -116.236 314.866
116.483 22.3466 330.936
103.34 -35.3392 344.776
21.7866 -51.1146 383.32
127.347 -104.693 347.05
89.2608 -80.9694 344.127
21.5391 -48.4391 380.07
26.9619 -38.7264 374.027
86.9504 -137.3 301.533
46.3285 -69.9863 348.527
151.793 -65.4978 357.954
59.103 -38.5404 364.288
46.1 -67.1813 347.641
43.4084 -120.059 346.085
61.7282 -145.489 321.861
73.8355 -123.503 307.048
26.3766 -29.8726 381.508
49.5011 -107.706 361.834
52.5553 -102.917 366.969
17.9836 -29.1656 396.336
54.9608 -40.653 364.026
49.091 -149.325 340.16
51.9263 -122.157 322.606
111.364 -79.9816 342.499
68.4433 -146.587 320.97
163.092 -64.8972 363.18
60.6904 -115.672 315.886
36.0508 -55.1268 364.532
41.188 -70.5915 347.998
50.357 -130.654 326.519
42.9894 -118.974 359.524
39.8222 -63.4168 362.446
91.4968 -136.524 305.529
19.7136 -33.6003 389.402
40.9925 -134.844 343.832
51.8452 -124.68 321.416
46.9529 -146.014 347.413
81.2156 -138.914 304.206
53.4668 -67.0447 348.037
154.699 -72.7445 359.074
41.7532 -127.378 351.927
27.1276 -29.4663 381.937
65.4694 -44.9363 352.89
50.5982 -104.917 334.887
57.3322 -139.508 320.655
50.6461 -120.693 324.959
69.4212 -124.909 310.385
69.5731 -1.38534 349.158
