0.0721145 -0.0216591 0.35713
-0.0566577 0.0185522 0.449896
-0.0282993 -0.00749457 0.486484
0.0992805 -0.0695519 0.45304
-0.0357169 -0.0289435 0.484232
-0.0351354 -0.00402206 0.489027
-0.016273 -0.0147452 0.507662
-0.0588453 0.0292265 0.456011
-0.0256934 -0.0088295 0.488247
0.0872006 -0.0633497 0.443573
-0.0447915 0.00336674 0.472422
-0.0443074 0.00103258 0.505688
0.0856707 -0.04536 0.39678
0.0833489 -0.0454649 0.399104
0.0845216 -0.0345857 0.376964
-0.0479406 0.00630717 0.505225
-0.0415437 -8.83533e-05 0.498973
-0.036964 -0.01147 0.474691
-0.00699528 0.00849186 0.34569
-0.0571273 0.0331712 0.37967
-0.0488099 -0.0075879 0.392752
0.0683333 -0.0597816 0.488508
0.0719376 -0.0239354 0.360479
-0.0449357 0.00203801 0.471372
0.0035715 -0.0234659 0.511975
-0.0422346 -0.0098117 0.378074
0.0269089 -0.0365012 0.50394
-0.04225 0.000753099 0.509223
-0.0222843 -0.0113487 0.492256
0.0493581 -0.0320367 0.38977
0.0534172 -0.0213579 0.370955
-0.0210353 -0.0119888 0.495187
0.0707147 -0.0104982 0.340093
0.0609455 -0.0226769 0.365344
-0.0219857 -0.0113643 0.495626
0.0433676 -0.0124623 0.36296
0.0551025 -0.0541447 0.485387
0.0874264 0.196728 0.32918
-0.0324451 -0.00585332 0.500026
-0.0135945 -0.0274852 0.369282
-0.0655373 0.0459727 0.409609
0.0751001 -0.0620298 0.488047
-0.0155022 -0.0150852 0.498089
0.0634875 -0.0580386 0.483135
0.0789798 -0.0300675 0.369387
0.045874 -0.00596242 0.346764
0.0803207 0.197928 0.333269
0.0736866 -0.0153267 0.345332
-0.0346029 -0.00266168 0.487886
-0.0421471 -0.00168252 0.507357
-0.0613695 0.0333187 0.394937
-0.0431669 0.000250964 0.503266
-0.0416519 0.0033816 0.5037
-0.0435733 0.00147938 0.495291
-0.0106672 -0.0168587 0.499059
-0.045859 0.0041268 0.501654
-0.0373099 -0.000649855 0.472936
-0.059261 0.0234922 0.445782
-0.0454039 0.00331074 0.507974
-0.0597159 0.0241101 0.444462
-0.016546 -0.0146196 0.501498
-0.0597424 0.0315576 0.394131
-0.115813 0.30629 0.221828
0.0818341 -0.0323258 0.373765
-0.010178 -0.0181716 0.506827
-0.0442709 0.00253363 0.508326
0.0297743 0.187041 0.297097
-0.0194758 -0.0123344 0.514872
-0.0655651 0.0380627 0.399837
-0.0327993 -0.00573889 0.516619
0.0626307 -0.00200729 0.330551
0.0529637 -0.0062848 0.342347
-0.0386456 -0.00205621 0.490211
-0.0330216 -0.0117701 0.352227
0.00356054 -0.0227047 0.513664
0.0871935 -0.0660117 0.45139
-0.054677 0.0265305 0.388947
-0.0405363 0.00214968 0.472358
-0.0391408 0.00126296 0.486042
-0.0218385 -0.0115818 0.505287
0.0462513 0.186558 0.325061
-0.0705554 0.248965 0.323957
-0.0461103 0.00341186 0.49833
-0.0357712 -0.00195642 0.479814
-0.0545218 0.0183495 0.449602
-0.0312616 -0.00644936 0.507736
0.025717 0.194131 0.317748
-0.0484149 -0.0235203 0.47076
-0.0383402 -0.00145658 0.506196
-0.0401422 -0.0205788 0.388568
-0.0284507 -0.00571084 0.487848
-0.0206313 -0.0124173 0.502622
0.0682191 -0.0240188 0.362254
-0.0414925 -0.00060707 0.510967
-0.0424181 0.00139311 0.510858
0.0261486 -0.0157943 0.369493
-0.0401416 -0.00111944 0.500031
-0.0419807 0.000491484 0.501068
-0.0265221 -0.0289144 0.487949
0.0830177 -0.0173233 0.355396
-0.0297637 -0.00614046 0.494369
-0.0456383 0.00342705 0.504192
-0.0460789 0.00710733 0.519983
-0.0656946 0.036859 0.418801
-0.0455427 0.0037851 0.503311
0.0776686 -0.0653296 0.483626
-0.0331876 -0.00533747 0.502032
-0.0478501 0.00684592 0.495397
-0.0547194 0.0180822 0.44653
-0.0559634 0.0114957 0.449684
-0.0486365 0.00840039 0.492521
-0.0163952 -0.0103801 0.503091
-0.0277995 -0.00918439 0.509992
-0.0161624 -0.0148127 0.507905
-0.0321715 -0.034971 0.47262
-0.0230649 -0.0395156 0.367195
0.0387825 0.226585 0.284516
-0.0463197 0.00770042 0.491359
-0.0567572 0.0217473 0.457116
-0.0442458 0.00638816 0.479649
-0.0568368 0.0219993 0.448327
0.0437826 -0.0480513 0.492967
0.00355912 -0.0307032 0.371302
-0.0579974 0.02368 0.44534
-0.030039 -0.00488453 0.483254
-0.0234149 -0.00946523 0.485045
0.0337532 -0.0213696 0.376541
-0.0264182 -0.00875166 0.513989
0.0373097 -0.00723349 0.358831
-0.0305484 -0.00412225 0.476718
0.0516093 -0.0146727 0.359201
-0.0462742 0.00547843 0.489499
-0.0211835 -0.0116257 0.49948
-0.043828 0.00240942 0.483471
-0.0231785 -0.029898 0.492173
-0.00401056 -0.020507 0.508922
0.0433397 -0.0069049 0.353037
0.0692948 -0.0226748 0.358304
-0.0468411 0.00524755 0.499442
-0.0574572 0.022892 0.444105
-0.0614001 0.0304603 0.445034
0.0376432 -0.0494158 0.386727
0.0620814 -0.0495313 0.499571
-0.0099599 -0.0154434 0.516854
0.0710766 -0.0338525 0.381541
0.0630236 -0.0630392 0.407352
0.0796818 -0.0362246 0.380699
0.0657151 -0.0266518 0.369735
0.0780318 -0.0628673 0.489072
-0.0390238 -0.014174 0.473838
0.0460715 -0.0434191 0.5023
-0.0404782 0.000159149 0.502979
0.0509122 -0.0485113 0.498303
-0.0137271 -0.013902 0.518163
0.0775908 -0.0309963 0.37127
0.0173777 -0.0293643 0.510848
-0.0582015 0.0099335 0.448412
-0.0380154 -0.00140998 0.495021
0.057691 -0.0220023 0.367663
-0.00642526 -0.0191768 0.502796
-0.0346724 -0.0142999 0.379805
-0.0559327 0.0179215 0.457861
-0.0178801 -0.0361022 0.416146
0.0530955 -0.0112064 0.349668
-0.0430956 0.00516743 0.483041
-0.0636192 0.0347257 0.430099
-0.046727 -0.0161925 0.352734
0.0818736 -0.044594 0.396594
0.054697 -0.0513759 0.494813
-0.210978 0.261697 0.274543
-0.0287614 -0.00540567 0.484056
0.00213012 -0.0323626 0.37421
0.0694677 -0.0522069 0.496948
-0.0504919 -0.0209236 0.469197
0.0716858 -0.0621435 0.478275
0.0621056 -0.0478742 0.499299
-0.0176973 -0.027769 0.416548
-0.0337414 -0.00485058 0.505699
0.0755254 -0.00155233 0.335021
-0.0677228 0.0402198 0.387161
-0.0691716 0.248603 0.321187
0.0695096 -0.0613977 0.46988
0.00506487 -0.0502375 0.366199
-0.0330246 -0.00286399 0.47938
0.0679557 -0.00188254 0.330526
-0.0443327 0.00555727 0.481565
0.0917151 -0.0542852 0.413292
-0.0659621 -0.0104667 0.452752
-0.0122418 -0.0169341 0.504443
-0.0401615 0.00109206 0.497172
-0.0268734 -0.0264445 0.428508
-0.0156146 -0.0161609 0.510854
-0.0766047 0.0238946 0.410512
-0.0597625 0.0228523 0.454607
0.0800088 -0.0168913 0.350922
0.0372576 -0.0361859 0.507325
-0.0598786 -0.01542 0.459906
-0.0348881 -0.0122881 0.47699
-0.0390135 -0.0314085 0.482841
0.0421494 -0.0249862 0.383343
-0.0297914 -0.039369 0.494157
0.0556975 -0.00195035 0.334405
-0.0418191 -0.0237573 0.476867
-0.0792066 0.0139946 0.612599
0.0412515 -0.0144054 0.368659
-0.0321222 -0.034016 0.48943
-0.0379463 -0.000426342 0.473683
-0.0360332 0.000991381 0.498391
-0.043199 0.00545692 0.47615
0.0893769 -0.066973 0.450211
-0.0286833 -0.0167384 0.347159
-0.0157854 -0.012857 0.511962
0.101719 -0.058525 0.430934
-0.0327859 -0.00534924 0.509416
0.00231347 -0.0214468 0.517401
-0.0223506 -0.0292223 0.491715
-0.0313113 -0.00346602 0.481477
-0.0514101 -0.00366145 0.460605
0.056679 -0.0670119 0.405253
-0.0443221 0.00182659 0.518209
0.0515981 -0.0042853 0.34042
-0.00150245 0.221272 0.330575
-0.002073 -0.0194058 0.516701
-0.0372113 0.000360144 0.478483
-0.0302948 -0.0342045 0.49088
0.0240895 -0.0647675 0.420268
-0.0621567 0.0320032 0.397333
-0.0573049 0.0200976 0.447363
-0.00787429 0.00545602 0.343833
-0.0334161 -0.00394318 0.48312
-0.0206313 -0.0459493 0.50366
0.0636815 -0.0863413 0.414697
-0.0456471 0.0033822 0.486318
-0.00701972 -0.0326069 0.508334
-0.000103001 -0.0201455 0.504396
0.0608433 -0.00504397 0.335788
-0.00816625 -0.0178703 0.502755
0.0703393 -0.0222893 0.35816
-0.0419956 -0.009933 0.367209
-0.0425848 0.00198603 0.50221
-0.0431686 0.00289831 0.522498
0.0149473 -0.024835 0.514638
0.0711352 -0.0268121 0.366976
-0.0551625 0.0175227 0.450698
-0.0399638 -0.000765347 0.507886
0.0671692 -0.00726853 0.336038
0.0140944 -0.0289864 0.50905
-0.0131268 -0.0349952 0.504806
-0.0213714 -0.0114105 0.500859
0.0430349 -0.00444474 0.349365
0.0430191 0.00123848 0.340878
0.064987 -0.0112178 0.342299
0.0611299 -0.0619935 0.406771
-0.0254125 -0.0364396 0.495814
-0.00665916 -0.0133245 0.497703
-0.0408981 -0.000333587 0.51524
-0.0316831 -0.00631766 0.496468
0.060314 -0.0226674 0.365616
-0.0061081 -0.0216607 0.360959
-0.0213986 -0.0083798 0.312892
-0.0196681 -0.0113385 0.494209
-0.0491381 0.0101076 0.463485
-0.0151873 -0.0151154 0.506225
0.0570196 -0.0190008 0.360724
0.0803673 -0.0357683 0.380449
-0.0296688 -0.00741935 0.496681
-0.0350053 -0.0221816 0.37914
-0.0369239 -0.00325923 0.493216
-0.0410273 0.00248605 0.483603
-0.0129838 -0.0159371 0.508262
0.0908315 -0.0720849 0.458608
-0.042063 0.000286748 0.500506
-0.0657678 0.0402709 0.388546
-0.0328892 -0.00521618 0.49229
0.0636874 -0.0194075 0.356835
-0.0470321 0.00461649 0.487509
0.096415 -0.0705362 0.462235
0.0672491 -0.0601368 0.479046
0.0538383 0.00549241 0.33028
0.0677387 -0.0258691 0.366498
-0.0319882 -0.00588947 0.492921
-0.0146269 -0.0149387 0.499612
0.0608981 -0.00709831 0.3399
-0.0318726 -0.00624628 0.497017
0.0994435 -0.073739 0.473551
-0.0643014 0.0295253 0.435997
-0.0343384 -0.00470673 0.491995
0.103007 -0.0638403 0.436467
-0.0577355 0.0143446 0.379294
-0.00726517 -0.0475836 0.425285
0.0602873 -0.0194419 0.359679
-0.0605125 0.0303956 0.394516
-0.0456535 0.00317928 0.488927
-0.0132801 -0.0199024 0.369925
0.000737404 -0.0477695 0.427047
0.0425077 -0.0255555 0.38348
-0.0439396 0.00222332 0.489002
-0.0436368 0.00140773 0.506151
-0.0194429 -0.0122666 0.496169
-0.0283565 -0.0256454 0.484689
-0.0147854 -0.0153624 0.50591
0.0667348 -0.0179287 0.352498
0.0679823 -0.0246549 0.363598
-0.0241739 -0.0376571 0.497098
-0.0400462 -0.00146669 0.505978
-0.0759741 0.0182659 0.429285
-0.0660227 -0.00291605 0.401202
0.0602907 -0.0221047 0.365693
-0.0322781 -0.00592925 0.494594
-0.0266555 -0.0196628 0.373657
-0.0324736 -0.00556272 0.50814
-0.0484601 0.00477154 0.497228
0.0242756 -0.034015 0.507566
0.0621491 -0.00870832 0.337864
0.00325941 -0.0241802 0.509576
-0.0814119 0.0172452 0.405979
0.0724953 -0.0258234 0.364863
-0.0370796 -0.00951457 0.473668
0.0323431 -0.0404761 0.490386
0.0132313 -0.0540914 0.432265
-0.0152105 -0.00982794 0.512798
-0.0460985 0.00538596 0.505465
-0.0404782 -0.0303631 0.481323
0.0775495 -0.0357926 0.380476
-0.0264793 -0.0072097 0.490275
0.0495568 -0.0517185 0.395705
0.0725995 -0.0268711 0.365644
-0.0222032 -0.0126508 0.502807
-0.0640958 0.0346632 0.409038
-0.0672883 0.0389682 0.401872
0.0874146 0.212546 0.303444
0.0790452 -0.0332741 0.377095
-0.0614093 0.0165467 0.461783
-0.0491938 0.0104736 0.505238
-0.0230364 -0.0111341 0.507457
-0.0393868 -0.0160767 0.474665
-0.05817 0.0269802 0.392276
-0.062754 0.0162759 0.442838
-0.0592686 0.0297985 0.388424
0.0966395 -0.0514195 0.413124
-0.0606364 0.0322117 0.387201
0.0863718 0.18426 0.362746
0.0125075 -0.0632378 0.381081
-0.0437809 0.00277474 0.508249
-0.066822 0.0394394 0.396664
-0.0333637 -0.00340182 0.477152
0.0787301 -0.0311975 0.37202
-0.0638046 0.031982 0.407414
0.0868661 -0.036852 0.383536
-0.0416478 7.89612e-05 0.513645
-0.0728333 -0.00509535 0.43049
-0.0143097 -0.0157301 0.512463
0.0316515 -0.0299797 0.510619
0.0862327 -0.0232624 0.366056
-0.0666309 0.0390557 0.394824
-0.0486776 -0.00980806 0.383037
0.101518 -0.0733823 0.482347
0.0190057 -0.0298596 0.508307
-0.0659844 0.0391896 0.392682
-0.0383927 -0.0201771 0.390645
-0.00651041 -0.0191408 0.51389
-0.027042 -0.00867907 0.519158
0.0728472 -0.00690028 0.336354
-0.0411015 -0.0167389 0.474154
0.079339 -0.0205023 0.356307
-0.0606918 0.0305093 0.392106
-0.0216867 -0.0111188 0.508572
0.0765748 -0.0327957 0.375647
-0.0573306 0.0325224 0.380665
0.0771696 -0.0662596 0.465935
-0.0260532 -0.00948561 0.50613
0.0593606 -0.0416378 0.399181
-0.0352234 -0.0149204 0.386152
-0.0756908 0.0198688 0.429206
0.00079967 -0.0322253 0.376927
0.0927265 -0.0546485 0.415142
-0.0371345 -0.0220882 0.392012
-0.0181003 -0.0137642 0.510021
0.0761064 -0.0459338 0.404958
0.0744569 -0.0345616 0.38024
-0.0503756 0.0114302 0.462822
-0.0180577 -0.0136672 0.50406
-0.0251182 -0.0367903 0.495943
0.0741861 -0.0283985 0.368002
-0.0261421 -0.0336257 0.493544
-0.0256576 -0.00938799 0.512727
-0.00532528 -0.0587631 0.49222
-0.227207 0.268001 0.252124
0.0709521 -0.0799612 0.419136
-0.0592186 0.011266 0.374108
-0.0482206 0.0111582 0.460855
0.0251754 -0.0101763 0.367356
0.0835599 -0.04027 0.389109
0.063766 -0.0118606 0.345061
-0.0286896 -0.00802359 0.499416
-0.0505885 0.00883678 0.49417
0.0308922 -0.018835 0.374058
-0.0472712 0.0187675 0.504768
-0.0154504 -0.0445982 0.50605
0.00645449 -0.0799358 0.479625
0.0642412 -0.0633686 0.408826
-0.0241027 -0.0110051 0.511363
0.0505813 -0.051272 0.395962
-0.0372449 -0.00186177 0.491252
-0.0391663 -0.0111889 0.366321
-0.0205568 -0.0123288 0.509227
-0.044586 -0.0168385 0.393827
-0.0477806 0.00568761 0.512076
-0.035607 -0.00358039 0.517005
0.020182 -0.0482386 0.385402
-0.016417 -0.014576 0.498047
-0.0554583 0.0156674 0.468321
-0.0325571 -0.00577874 0.495835
-0.0047446 -0.0203951 0.501984
-0.0314759 -0.00626298 0.509076
-0.0421018 -0.0137759 0.416432
-0.0289784 -0.00720064 0.483541
0.0523349 0.219816 0.290031
0.0260408 -0.0739513 0.444775
-0.0539384 0.0148069 0.460206
-0.0152917 -0.0158316 0.509976
-0.0304386 -0.00750942 0.511181
-0.0408878 -0.0146847 0.415966
-0.0437175 0.00400947 0.500521
-0.0468831 0.00750831 0.480544
-0.0665867 0.0390287 0.396907
-0.059387 0.0345606 0.381315
0.089077 -0.047571 0.401707
0.0852085 -0.0496732 0.407621
-0.0244714 -0.00962717 0.484056
0.00589103 -0.024327 0.51187
0.0458376 0.216909 0.307802
-0.0282385 -0.00756427 0.487873
-0.0297008 -0.00249669 0.476902
0.0613562 -0.0545173 0.494298
-0.0598634 0.0247312 0.43727
-0.0372787 -0.00171661 0.472874
-0.0627558 0.032165 0.400284
-0.0427398 0.00358299 0.487216
0.062373 -0.0607963 0.40672
-0.00736266 -0.0184689 0.512125
-0.0651422 0.038214 0.389308
0.0329388 -0.0409635 0.489892
-0.0272058 -0.00887141 0.498909
-0.0308181 -0.00521753 0.490778
-0.0656634 0.0384417 0.391643
0.00571758 -0.0587115 0.38401
-0.0212647 -0.0430316 0.486642
-0.043709 0.00231826 0.510831
-0.0102708 -0.0181039 0.507623
0.0909127 -0.05201 0.41006
0.0875896 -0.0373209 0.382519
-0.0357745 -0.0076635 0.5133
-0.0455229 0.0154766 0.367857
0.0829409 -0.0634526 0.490179
0.0487408 -0.0490829 0.496358
-0.0221917 -0.00704113 0.485505
0.0774664 -0.00911437 0.341747
-0.0624319 0.0365632 0.391919
-0.005858 -0.0193556 0.503241
-0.0419632 -0.0102347 0.378849
0.055819 -0.0108821 0.347662
-0.0624077 0.0318913 0.39919
-0.0262619 -0.00822693 0.518724
-0.0246607 -0.00665345 0.486371
-0.063805 0.0369323 0.386719
0.0294567 -0.0368252 0.50502
-0.0134123 -0.0114433 0.48967
-0.0431335 0.00148766 0.488918
-0.0521932 -0.00636616 0.39351
0.0678473 -0.0124146 0.343497
-0.0401407 0.000282402 0.490297
-0.038319 -0.00231036 0.5059
-0.0640589 0.0288031 0.432804
0.0721695 -0.0627313 0.477035
-0.00991123 -0.0146139 0.494711
-0.0344856 -0.0125122 0.364892
-0.0591873 0.0283237 0.457319
-0.0262052 -0.00891654 0.488694
-0.228296 0.285102 0.241776
-0.0261993 -0.0365094 0.495371
0.085035 -0.0658088 0.487966
-0.0429808 0.000716363 0.488429
-0.039496 0.0014851 0.478457
-0.245248 0.244633 0.373799
-0.0543807 0.01456 0.470613
0.00267098 -0.0222149 0.514332
-0.023298 -0.0483774 0.493011
0.027989 -0.0332098 0.508947
-0.0220082 -0.0493607 0.493837
0.0496906 -0.0184459 0.369092
0.0601358 -0.0555174 0.491163
0.0315239 -0.0351306 0.508299
-0.035768 -0.00318314 0.499559
-0.00453492 -0.0208234 0.510947
-0.0105018 -0.0154628 0.499109
0.0324451 -0.0347461 0.50859
-0.0764702 0.249781 0.326258
-0.030168 -0.030731 0.424518
0.0354417 -0.0398932 0.50339
-0.0815403 0.272652 0.268699
-0.0610564 0.00887481 0.375888
0.0248154 -0.0514 0.385118
-0.033382 -0.0260842 0.366474
0.00768544 -0.0343321 0.372532
-0.0169752 -0.0134552 0.494099
0.0869149 -0.0457842 0.396867
-0.0529294 0.0247494 0.39127
-0.0759336 0.238146 0.338869
0.0220596 -0.0634098 0.377522
-0.0490189 -0.0202003 0.408807
0.0630412 -0.0580671 0.486695
0.0674547 -0.0131799 0.344468
-0.00807996 -0.0177349 0.505182
0.0326657 -0.0353292 0.379061
-0.0465309 0.00525782 0.511392
-0.0408529 -0.0237011 0.476947
-0.0626248 0.244806 0.340779
-0.057977 0.0223423 0.464722
-0.0337999 -0.00495457 0.509007
0.0260919 0.229841 0.319896
0.0825362 -0.0663714 0.487061
-0.00977844 -0.0168584 0.506587
0.0521099 -0.0362465 0.392835
0.0183042 -0.0301664 0.507522
-0.0100007 -0.0174182 0.507628
-0.0417807 0.00149417 0.47938
-0.0185728 -0.0533673 0.501553
-0.0424395 0.0024018 0.492815
0.088404 -0.0698876 0.444328
0.0824619 -0.0672371 0.447216
-0.0389403 -0.000554442 0.495509
-0.0680374 0.0396441 0.396666
-0.0502322 0.0209108 0.489764
-0.00953024 -0.0169633 0.515438
-0.0121767 -0.016748 0.509041
0.0708605 -0.0105086 0.339765
0.057383 -0.00177332 0.332988
-0.0424259 0.00228823 0.494729
0.0623571 -0.0108564 0.34278
-0.00451561 -0.020583 0.506065
-0.0422476 -0.0118768 0.399184
0.0604548 -0.0590537 0.485886
0.0685716 -0.0610027 0.484179
-0.0480158 0.011025 0.368948
-0.0166395 -0.0147605 0.508424
0.0628924 -0.0345142 0.391573
0.0342112 -0.0316428 0.501611
-0.0281091 -0.00780759 0.489196
0.0676032 -0.0600466 0.484019
0.0839074 -0.0690143 0.485186
-0.0140859 -0.0138459 0.491517
0.01261 -0.0292563 0.508654
0.0511262 0.228785 0.312355
-0.0198773 -0.0100867 0.488668
-0.0317614 -0.00589243 0.510125
0.040199 0.190184 0.333112
0.0678912 -0.032745 0.381799
0.0434054 -0.00679634 0.352097
-0.0421433 0.00107605 0.503719
-0.0610791 0.0369894 0.442335
0.0866272 -0.0344603 0.379512
0.00841918 -0.0253117 0.512482
-0.0150588 -0.0108865 0.501709
-0.0395543 -0.000443924 0.49957
0.064435 -0.0230799 0.363109
-0.0613382 -0.0106756 0.42094
0.0683689 -0.0176747 0.351318
0.0595923 -0.0303846 0.386375
-0.0358167 -0.00352472 0.496951
-0.0708259 0.247995 0.328163
-0.0476268 0.00637075 0.495533
0.00689584 -0.00837997 0.356205
0.0690307 -0.0613252 0.470879
-0.0451168 -0.015044 0.470504
-0.175926 -0.149575 0.587965
0.0977424 -0.0753038 0.462722
-0.041091 0.000237971 0.505394
0.046255 -0.00405685 0.344538
-0.0391111 -0.00173332 0.500563
-0.0642703 0.0309186 0.429346
-0.0229541 -0.0109942 0.4976
-0.0331525 -0.0369073 0.490461
-0.0308542 -0.00382339 0.491605
-0.019806 -0.0126998 0.512028
-0.0279484 -0.00886387 0.509395
-0.0128604 -0.0213897 0.370964
0.0958863 -0.0664157 0.444842
0.0302641 -0.0676134 0.427608
-0.0319413 -0.0378003 0.491378
-0.0381053 -0.00171404 0.504145
0.0726417 -0.0809131 0.429999
-0.0213268 -0.011898 0.499664
-0.0334439 -0.0358958 0.489676
-0.0548036 0.00420919 0.385803
0.0729683 -0.0234472 0.359032
-0.0145999 -0.0153469 0.515164
0.0671206 -0.0155758 0.348025
-0.0491772 0.0134662 0.49412
0.00870191 -0.0126635 0.358472
-0.0271989 -0.00944638 0.510743
0.072667 -0.0287833 0.369352
0.0853303 -0.069573 0.475438
0.0613238 -0.0579386 0.482216
0.0858382 -0.0697623 0.476035
-0.0395008 -0.00110854 0.505676
-0.0362293 -0.00407038 0.508124
-0.0479007 -0.00631469 0.389668
0.0830741 -0.0271183 0.366188
-0.0427407 -0.0172882 0.395262
-0.00632067 -0.0195847 0.511081
0.0699056 -0.0285775 0.36986
-0.0448454 0.00510535 0.487996
-0.016852 -0.0145309 0.504128
-0.0425949 0.00192414 0.503809
0.0595593 -0.0826938 0.422261
0.054955 -0.0563246 0.484498
-0.048916 0.0105569 0.507337
-0.0269684 -0.00894696 0.50834
0.0783057 -0.0632421 0.487892
-0.0355801 -0.00204265 0.491431
-0.068131 0.0422573 0.405777
-0.0305607 -0.00695398 0.511017
-0.0250726 -0.0107692 0.514014
-0.0383898 -0.00217218 0.507863
0.0430982 -0.0437615 0.388741
-0.0627217 0.0354417 0.394512
-0.0642714 0.0364187 0.392661
0.0470834 -0.0565328 0.395443
-0.0492711 0.0112268 0.376524
-0.0239869 -0.0067348 0.486282
0.0891496 -0.0445325 0.396493
0.0353322 -0.00475983 0.356609
0.0707604 -0.0614728 0.483615
0.0724431 -0.0237242 0.359384
-0.0264774 -0.0418325 0.498195
-0.0672591 0.0419146 0.401561
-0.0243356 -0.0182086 0.358084
-0.0622954 0.03882 0.437724
0.0519433 -0.0194537 0.368147
-0.0531612 0.223356 0.347032
0.0204446 -0.0211279 0.368144
0.0550607 -0.0200437 0.365594
-0.0250584 -0.0103539 0.507668
-0.0139652 -0.0109174 0.495228
-0.0272167 -0.00863573 0.511568
-0.0119451 -0.0261646 0.355341
-0.0460158 0.0112498 0.368862
-0.0365122 -0.000919271 0.48606
0.0800675 -0.0476757 0.405611
0.104217 -0.0772911 0.473434
-0.0317737 -0.00117674 0.476655
-0.0382716 -0.00286649 0.512625
-0.067368 0.0437216 0.402315
-0.0547333 -0.0156051 0.407062
-0.0299472 -0.00247143 0.480423
0.0779266 -0.0665587 0.477065
-0.0436297 0.00128893 0.511461
-0.0287941 -0.0079674 0.505651
0.0804086 -0.0353172 0.379731
-0.0356303 -0.00255357 0.499199
0.024282 -0.0346924 0.50351
0.0586038 -0.0226023 0.367344
0.0915089 -0.0724338 0.474732
0.000702893 -0.0357221 0.407934
-0.0556419 0.000554889 0.45589
-0.0356747 -0.00293571 0.5073
0.0599937 -0.0215167 0.364111
0.0583632 -0.0480891 0.500151
-0.0490785 -0.00149184 0.46128
-0.0386598 -0.00148467 0.52007
-0.0254885 -0.0426923 0.499415
-0.0604318 0.0225169 0.442769
-0.0321679 -0.00531658 0.519054
-0.0354821 -0.00375898 0.485574
-0.030677 -0.00709297 0.506427
-0.0232336 -0.010598 0.504566
-0.0174667 -0.00992956 0.499981
0.0760854 0.193952 0.350789
-0.0667628 0.0434686 0.408636
0.0770799 -0.0223851 0.357859
-0.0202544 -0.0113316 0.516645
-0.0280492 -0.0352643 0.493467
-0.0348917 0.00136899 0.471302
-0.0388062 0.00293535 0.471546
0.0620885 -0.082134 0.417246
0.0688838 -0.0377289 0.393151
-0.0195738 -0.011515 0.516978
-0.0274194 -0.0355323 0.493919
-0.0434279 0.00124997 0.514352
0.0738611 -0.0372126 0.385974
0.0372365 -0.0403801 0.502878
-0.0564087 -0.0163472 0.463457
0.0811723 -0.019406 0.356575
0.084645 -0.0611448 0.491191
-0.00537487 -0.0184899 0.514873
0.102928 -0.0692058 0.452158
0.0590146 -0.0551618 0.484493
-0.0400203 -0.00360881 0.347791
-0.0356012 -0.00314205 0.514332
-0.0369362 -0.00186771 0.499423
0.0729465 -0.0627634 0.479545
-0.0404356 -0.00300062 0.349575
-0.0671735 0.0368785 0.402224
0.081138 -0.0330582 0.374864
-0.0652593 0.0375921 0.396342
-0.03942 -0.000572271 0.502318
0.0601103 -0.0781686 0.41008
-0.0564592 0.0285102 0.39655
-0.0455623 -0.00820774 0.385857
0.0273277 0.213553 0.338976
9.98063e-05 -0.0223636 0.511371
0.00522177 0.217314 0.336828
0.122121 -0.0711282 0.479245
-0.0258886 -0.00671182 0.48592
-0.0339354 -0.0018514 0.482228
-0.0425155 0.00285124 0.487743
0.0332942 -0.03423 0.379192
-0.0632515 0.017571 0.446986
-0.0455442 -0.00874886 0.37171
0.0808528 -0.0303109 0.370514
-0.0201938 -0.0356536 0.499871
0.0983356 -0.0702856 0.484788
0.0605945 -0.0626922 0.405227
-0.0763598 -0.0021668 0.420717
-0.0277041 -0.00843052 0.503205
-0.00764019 -0.0117075 0.512731
-0.013376 -0.0165675 0.509773
-0.0351875 -0.000868744 0.482488
-0.0643091 0.0378387 0.424687
0.0965398 -0.0585188 0.420764
0.0222907 -0.0302041 0.510698
-0.0248139 -0.0385354 0.497662
-0.0287811 -0.00802508 0.501965
0.0916646 -0.0543895 0.415255
0.0754059 -0.0653546 0.472066
0.0992662 -0.0649909 0.436381
0.00484943 -0.0221634 0.515619
0.0678806 -0.00789344 0.335965
-0.025812 -0.0339421 0.493908
-0.0342596 -0.0180662 0.479867
-0.0462353 0.00520073 0.492727
-0.0461616 0.00615412 0.517263
0.08141 -0.0658661 0.461912
0.0307423 -0.0387066 0.501475
-0.0484557 0.00686375 0.37337
0.0629928 -0.011701 0.344408
0.0981417 -0.0749415 0.474479
-0.0149567 -0.0232082 0.494781
0.100178 -0.0650198 0.440025
0.0219098 -0.0294335 0.511511
0.0712805 -0.0121452 0.34396
-0.0406967 -0.020622 0.352913
-0.0276852 -0.0081678 0.498883
0.0202636 -0.0649794 0.383387
-0.038882 -0.00376478 0.468999
-0.0444889 0.00571231 0.518576
-0.0304441 -0.00676158 0.486548
-0.0633537 0.0344938 0.431738
0.00800033 -0.0231233 0.51528
0.0699192 -0.0249642 0.36422
-0.022911 -0.0399363 0.499111
0.060754 -0.0539432 0.494219
-0.0277077 0.148863 0.631967
3.93327e-05 -0.0227643 0.511145
0.072014 -0.058296 0.493271
0.0648868 -0.0276709 0.371927
-0.0154155 -0.0148442 0.499967
-0.0238514 -0.00922332 0.492242
0.0699295 -0.03688 0.390199
-0.0325304 -0.0190292 0.481352
0.0827867 0.217862 0.298943
-0.0743692 0.0190296 0.399485
-0.0365475 0.00230509 0.347996
0.0674149 -0.0605583 0.483338
0.0109617 -0.0244906 0.514998
0.0954278 -0.0730678 0.476214
0.0912332 -0.0688455 0.456974
0.0304838 -0.0634486 0.4115
-0.021165 -0.0350884 0.498949
-0.0681792 0.0422599 0.409276
-0.0479569 0.0108104 0.512823
0.100272 -0.0591943 0.431209
-0.0314044 -0.00550497 0.497381
-0.0614467 0.0342249 0.384996
0.0428277 -0.00436591 0.346464
0.065442 -0.0197701 0.356266
-0.0426681 0.00102254 0.508747
-0.0340136 -0.00394957 0.498698
-0.0356239 0.0219427 0.373216
0.0755007 -0.0662934 0.477113
0.0302821 -0.0671921 0.423695
0.0589901 -0.00646119 0.338709
-0.0539361 -0.00754778 0.402968
0.0438728 -0.0471981 0.492261
0.0812629 -0.021464 0.358737
-0.0390714 0.000440605 0.489593
0.0521403 -0.0482022 0.396133
0.0898851 -0.069488 0.462155
-0.0404146 0.000710599 0.505505
0.043855 -0.0345296 0.386955
-0.0401559 0.00353585 0.349301
0.0749251 -0.0332534 0.377326
0.0468955 -0.0369019 0.389924
0.079867 -0.0256536 0.362141
-0.0580334 0.0220842 0.456484
-0.0337224 -0.0145165 0.510271
0.0766551 -0.0642259 0.464862
0.0878511 -0.0700202 0.471165
-0.037019 -0.000789518 0.488759
0.0670805 -0.056478 0.493536
0.0484986 -0.0143423 0.359468
0.0881789 -0.0650221 0.443158
-0.0318123 -0.00439127 0.489413
0.0781709 -0.0261805 0.361847
-0.0190941 -0.0129832 0.506199
-0.0623375 -0.0131389 0.423967
-0.0408197 0.224773 0.340702
-0.0743503 0.027156 0.427147
0.0787396 -0.0665239 0.475863
-0.0642838 0.0364043 0.396216
0.080804 -0.0663501 0.4697
0.0633894 -0.0366234 0.395591
-0.0440925 0.00229132 0.491913
-0.00389714 -0.0527461 0.385008
0.0941921 -0.0423986 0.398659
-0.0452755 0.00319667 0.504612
-0.022883 -0.010574 0.510215
-0.057657 0.00215791 0.390092
-0.0449602 0.00806818 0.520988
-0.0394516 -0.00255155 0.346438
0.0206736 -0.03066 0.510564
0.0855059 -0.0337741 0.377603
0.0440787 -0.0383335 0.388848
0.0362901 -0.0490262 0.385848
0.055611 -0.054967 0.484186
-0.0406739 -0.000871582 0.501097
0.0885162 -0.068495 0.486054
-0.0538839 0.0144098 0.472052
-0.0401835 -0.000797375 0.51165
-0.0535246 0.014125 0.386492
0.0744613 -0.0652212 0.472425
0.0804994 -0.0211095 0.357587
-0.00646144 -0.0181435 0.517164
0.0507011 -0.0232396 0.38028
0.000955711 -0.0245288 0.50986
-0.0585491 0.00959875 0.394062
-0.0538037 0.0153461 0.458262
-0.0115256 -0.0361081 0.341887
-0.0248038 -0.00956555 0.500946
0.082751 -0.0507301 0.413575
0.0743325 -0.0295821 0.369328
-0.0353116 -0.00117071 0.478462
0.0705933 -0.0317516 0.37721
-0.0483601 0.00887738 0.507117
-0.0425985 -0.0162894 0.413619
-0.0218274 -0.0112194 0.500951
0.0943947 -0.0701038 0.459602
-0.0451728 -0.00786358 0.386817
0.00770769 -0.0246529 0.511643
0.066886 -0.0121759 0.342625
-0.0657993 0.0372769 0.396701
-0.01062 -0.0170971 0.51272
0.0869937 -0.0695155 0.447134
-0.0573056 0.00176063 0.389649
-0.0526499 -0.00684224 0.401191
0.0482883 -0.0536495 0.395912
-0.0405698 0.001491 0.506608
-0.046469 0.00395767 0.50203
-0.207862 0.257008 0.334333
0.0385161 -0.0223282 0.37995
0.0100089 -0.0218688 0.515435
-0.0672801 0.0388845 0.402522
0.0200463 -0.0327112 0.506428
-0.0484386 0.0078474 0.373842
0.0375672 -0.0286921 0.381727
0.0138484 -0.0200646 0.508952
0.0840834 -0.0685589 0.470256
-0.0375027 -0.0176442 0.407057
0.0304717 0.232384 0.314621
0.073441 -0.0644376 0.479481
-0.0450457 0.00467208 0.496549
-0.0600099 0.0241001 0.402182
-0.0355758 -0.0035649 0.505181
0.0865723 -0.0365543 0.382288
-0.0627526 0.0325192 0.440879
0.0766079 -0.0309594 0.370928
-0.0276981 -0.00771705 0.506856
0.0437247 0.00175369 0.346955
-0.0206755 -0.0121131 0.514183
-0.042453 -0.00954418 0.373267
0.0183096 0.233567 0.314276
-0.0637733 0.0379238 0.434787
-0.0592805 0.0303524 0.402552
0.0977476 -0.0675602 0.448045
0.0258303 0.217535 0.328325
0.0858298 -0.0350201 0.379067
-0.0594861 0.0322978 0.390598
0.122088 -0.0720575 0.479457
0.0848931 -0.0443136 0.396054
-0.0594708 0.0329431 0.450188
0.032724 -0.00476026 0.359325
0.00663203 -0.0237067 0.514758
0.066158 -0.0263404 0.369565
-0.0604904 0.0314774 0.447183
0.0296926 -0.0127844 0.371312
-0.00544108 -0.0174658 0.515924
-0.0266186 -0.00910335 0.512314
-0.0467282 0.00520068 0.49677
0.124085 -0.0663337 0.471972
0.0841143 -0.0636858 0.488099
0.0603699 -0.0501827 0.497844
-0.0338911 -0.00177761 0.484765
-0.00805059 0.00659398 0.344082
-0.0439361 0.00367275 0.492542
0.074197 -0.0338644 0.378612
0.0188258 -0.0517593 0.404398
-0.00339867 -0.0219667 0.511494
-0.0620295 0.033711 0.383618
-0.0208878 -0.0110676 0.497967
0.0531497 -0.0538511 0.398873
0.0882211 -0.0487412 0.404956
-0.0635378 0.0333778 0.40212
-0.111001 0.234456 0.354621
-0.0236992 -0.0110478 0.503382
-0.0626346 0.035317 0.436254
-0.0293601 -0.0047527 0.484035
-0.102048 0.232873 0.340744
-0.014215 -0.0157002 0.507022
-0.0377963 -0.00197402 0.500869
-0.0625083 0.0365099 0.437053
-0.0950968 0.229977 0.358904
-0.0218642 -0.0124228 0.504483
0.0647688 -0.013299 0.345369
0.0852953 -0.0331587 0.376542
0.0790561 -0.020113 0.354525
-0.0164995 0.222023 0.332839
-0.020211 -0.0118999 0.5002
0.07297 -0.0318117 0.37557
-0.0287217 -0.00592515 0.506173
-0.0654139 0.0359109 0.418472
0.0550093 -0.0239042 0.375913
-0.0632019 0.0359044 0.388318
-0.0346227 -0.00516487 0.519387
-0.0655252 0.0363041 0.420168
0.0460284 -0.0515003 0.492698
-0.0356351 -0.00401004 0.512992
0.0884347 -0.0485555 0.403607
-0.0147129 -0.0141122 0.516971
0.0828201 -0.0442457 0.396896
-0.0658632 0.037553 0.419993
-0.00848081 -0.0501668 0.383017
-0.0653511 0.0408648 0.423357
-0.0662962 0.0399496 0.385194
0.0805731 -0.067497 0.465698
0.0438489 -0.0417451 0.388253
-0.0204763 -0.00788703 0.48662
0.0910954 -0.0666878 0.448656
-0.0396818 -0.000266563 0.499042
0.0606632 -0.0215423 0.363533
0.0684115 -0.0596516 0.462672
-0.0408707 -0.00968318 0.370794
0.0170104 -0.030904 0.5081
-0.0678085 0.0411524 0.409898
-0.0494896 0.0131727 0.504898
-0.0685185 0.0417909 0.401985
0.0577325 -0.0400922 0.397627
-0.0584733 0.023852 0.464544
-0.0439757 0.00138586 0.521361
-0.064124 0.0316619 0.415205
0.0655584 -0.0574104 0.491607
-0.0758206 0.229043 0.352817
-0.0314038 -0.0045524 0.483465
-0.0440086 0.00436622 0.505935
0.064798 -0.00960068 0.340371
0.0520926 -0.0630117 0.400272
-0.0274414 -0.0082345 0.515505
0.0627113 -0.086931 0.417577
-0.0452785 0.00312813 0.502982
-0.0140595 -0.0144286 0.513675
-0.0368206 -0.00260593 0.510084
-0.0673021 0.0378299 0.39771
0.123281 -0.0543776 0.489409
0.0755191 -0.0636404 0.44939
0.0429171 0.223296 0.324054
0.0855667 -0.0290907 0.371208
-0.0390125 0.226134 0.338873
-0.0573834 0.224398 0.360022
-0.0277776 -0.00639534 0.498442
0.0889945 -0.0703023 0.446159
0.0840205 -0.0643248 0.445059
0.0660982 -0.0286681 0.374024
-0.0575221 0.0293769 0.388503
-0.0579738 0.0298885 0.402648
0.0979581 -0.0644396 0.436635
0.0854644 -0.0536173 0.412762
-0.0328219 -0.00535982 0.516776
-0.0267804 -0.0110618 0.482127
0.101318 -0.0757117 0.452656
0.0873649 -0.0696293 0.469912
-0.0171833 -0.0465679 0.508299
0.0431098 -0.0454557 0.497825
-0.0664996 0.0417516 0.410635
-0.0387824 -0.000810675 0.496224
0.0870018 -0.0541668 0.418354
-0.0619784 0.033042 0.3907
-0.0391017 -0.000871059 0.493046
-0.0387947 0.227933 0.329588
-0.0090505 -0.0194788 0.513908
-0.0403986 -0.00185752 0.517013
-0.0512456 0.00366779 0.379262
-0.0276808 -0.0086039 0.497882
-0.033301 -0.00586563 0.474831
0.0773326 -0.0653458 0.470819
-0.00910511 -0.0183938 0.513883
-0.0688134 0.0450949 0.403871
-0.0178764 -0.0251096 0.356699
0.0751562 -0.0237667 0.359041
-0.0051662 -0.0200109 0.512446
-0.0552092 -0.0208815 0.385401
0.0170458 -0.0153897 0.363123
-0.0647729 0.0374527 0.391601
-0.0540765 0.0170863 0.457268
-0.0496357 0.00962403 0.486216
-0.0136986 -0.0144406 0.518659
-0.0301219 -0.00687478 0.509812
-0.0448463 0.00198652 0.518154
0.0423607 -0.0179497 0.378882
0.0419636 -0.0287754 0.384292
-0.0260247 -0.0201193 0.377188
-0.0581479 0.0210721 0.44042
0.0556472 -0.0526118 0.492249
0.0162939 0.2208 0.325954
-0.0328402 -0.00452806 0.508657
-0.0518745 0.0112447 0.48253
0.077199 0.20952 0.298921
-0.0536623 0.0147843 0.377211
0.0673655 -0.0190076 0.354085
-0.011564 -0.00766578 0.289524
-0.0707525 0.000656847 0.394109
0.0838111 -0.066614 0.462766
-0.0588418 0.0236879 0.449269
-0.0285341 -0.00723244 0.493191
-0.048526 0.0275548 0.376406
-0.0273416 -0.0079268 0.493162
-0.0431794 0.00127204 0.494472
-0.0359993 -0.0187336 0.415596
0.0911178 -0.0705394 0.467155
0.051761 0.00231403 0.332917
-0.0306849 -0.00653044 0.506516
0.0941559 -0.0487332 0.407357
-0.0561602 0.0332168 0.377931
-0.0446963 0.00233726 0.493045
0.0667146 -0.059669 0.469886
-0.0371325 -0.00135983 0.496932
-0.0495149 0.00967357 0.502958
-0.0341904 -0.0165869 0.400285
-0.0340116 -0.00396123 0.507283
-0.0383449 -0.00260521 0.342932
0.0947502 -0.0746938 0.46896
0.0628993 -0.0209207 0.359218
-0.0390287 -0.0144436 0.402661
-0.0354165 -0.0242542 0.36208
-0.0399026 -0.0110963 0.377747
-0.0503214 0.0127704 0.497846
0.0757431 -0.0296316 0.369479
0.0739475 -0.0302606 0.372447
0.029562 -0.0624338 0.398013
-0.0550029 -0.00451086 0.372697
0.061155 -0.00649074 0.337308
-0.0448051 0.00287497 0.502148
-0.0599749 0.0303584 0.450061
-0.0461579 -0.00889489 0.390328
0.0698724 -0.0236073 0.359926
-0.0416153 -0.0215224 0.420185
0.0674787 -0.0176006 0.350724
0.00258132 -0.0221129 0.514958
-0.0243369 -0.010847 0.512383
-0.0385232 -0.00290685 0.343782
0.0293921 -0.0657219 0.420379
0.0272858 0.214553 0.337393
0.00574863 0.217846 0.337223
-0.00883267 -0.0176712 0.515411
0.0947745 -0.0768728 0.456343
-0.0408667 -0.02059 0.36372
-0.0469203 -0.0087286 0.391709
0.0473608 -0.00813784 0.348938
-0.0617144 0.0320844 0.402924
0.0712567 -0.0222392 0.357736
-0.041245 0.00460332 0.474299
-0.0116024 -0.0154671 0.516167
0.095569 -0.0765476 0.460591
0.0714324 -0.0616927 0.465736
-0.0256365 -0.0281728 0.491571
-0.041134 0.000704364 0.503803
0.0570594 -0.0185424 0.360844
0.0236868 -0.0640922 0.376946
0.0417828 -0.0561143 0.392578
-0.0570073 0.0220741 0.449497
0.0636494 -0.0642922 0.407895
0.0933844 0.199153 0.322483
0.0957185 -0.0544005 0.417527
0.0652431 -0.0314061 0.381282
0.0892394 -0.068117 0.45641
-0.00972672 -0.0173627 0.358579
0.0615444 -0.0212829 0.361435
0.0319401 0.213866 0.337969
-0.0283611 -0.00801526 0.50114
-0.070695 0.0229853 0.401704
0.0137648 0.214662 0.341623
0.0568937 -0.025732 0.378525
0.096359 -0.0737479 0.449526
0.0883539 -0.0449027 0.395744
-0.0189 -0.0437621 0.505476
0.0368344 -0.0375333 0.383198
0.0750657 -0.0442947 0.40293
0.0836752 -0.0678363 0.468547
0.0194242 -0.0595934 0.418825
-0.0419995 -0.02139 0.47485
-0.0419938 0.000508192 0.516085
-0.0463187 0.005585 0.481849
-0.0392213 -0.00412527 0.509891
-0.00284804 -0.0140362 0.509345
0.00660906 -0.0237525 0.513586
-0.0816271 0.0167985 0.401691
-0.0204597 -0.0118954 0.497689
-0.0320067 -0.00603575 0.50675
0.0131726 -0.029163 0.510699
-0.025658 -0.00885058 0.496238
0.0259261 -0.0180009 0.371001
0.062441 -0.0268886 0.373691
0.0567348 -0.00301973 0.33499
-0.00555733 -0.0196676 0.509429
-0.0414983 -0.0102367 0.374028
0.0841693 -0.0681968 0.474489
0.0758182 -0.0605994 0.455855
-0.0493214 0.00936319 0.490563
-0.0405799 -0.00030506 0.501422
-0.0440338 0.00143687 0.499977
-0.0441137 0.00385944 0.487395
0.0755973 -0.035275 0.380388
-0.0505617 0.00323873 0.376933
-0.0451688 0.000184561 0.363761
0.0824858 0.213947 0.309204
-0.0146923 -0.0131808 0.52016
-0.0246952 -0.0206821 0.357761
0.0761672 -0.027856 0.366812
-0.0607555 0.247583 0.322847
-0.0437515 0.00177483 0.496822
-0.0349034 -0.0179798 0.377246
-0.0153022 -0.0150063 0.500841
-0.0528072 0.00896061 0.383432
0.0415183 -0.0285496 0.383019
0.00650694 -0.0231256 0.515224
-0.0458381 0.00949548 0.517612
0.0283048 -0.00757507 0.365317
0.0725985 -0.0624858 0.464025
-0.0344756 -0.0038927 0.497864
-0.0421322 0.0260217 0.373457
-0.00590959 -0.0189829 0.505042
-0.0572809 0.00482972 0.390394
-0.0441207 0.00254201 0.504239
-0.0380436 -0.00827689 0.380113
-0.0280191 -0.00820585 0.514222
0.075514 -0.0285743 0.367986
0.0464319 -0.0198862 0.376008
-0.0323613 -0.014956 0.373329
-0.0388041 -0.001623 0.502668
-0.0283967 -0.0232972 0.406183
-0.00850013 -0.015269 0.520199
-0.0577985 -0.0048131 0.399254
0.068567 -0.0138107 0.346481
-0.0191543 -0.00928832 0.50332
-0.0553475 0.0332089 0.376835
-0.0406407 -0.000976558 0.507247
-0.0233642 -0.00705545 0.520245
-0.0511425 0.0150187 0.498102
0.046735 -0.0112209 0.356655
0.0594833 -0.0529567 0.494574
-0.038086 -0.00268762 0.505374
0.077657 -0.0347857 0.378991
0.0649525 -0.0303898 0.379069
-0.0578363 0.00794899 0.392371
0.0792598 -0.0239528 0.360142
-0.00992822 -0.0149513 0.51613
-0.0491737 0.0181339 0.379057
0.000769935 -0.0301098 0.369329
-0.0154289 -0.0132966 0.51953
-0.0612463 0.0104691 0.39906
-0.0567264 0.0153036 0.392961
0.0618055 -0.02224 0.365096
-0.0608547 0.0268617 0.442733
0.0472229 -0.0158394 0.365017
0.00982483 0.0157484 0.348858
0.0966697 -0.0536076 0.417525
0.0428273 -0.000714738 0.343372
-0.00701438 -0.0527215 0.417429
0.00103844 -0.0235632 0.50904
-0.037782 -0.00152169 0.497096
-0.0454299 0.0043517 0.515423
-0.0713825 -0.0478506 0.407961
-0.086862 0.229594 0.357077
-0.0235431 -0.00958935 0.490745
0.078508 -0.0363172 0.380737
0.0107507 -0.0620115 0.3804
-0.00732163 -0.0189023 0.513047
0.0150598 -0.0293605 0.509754
0.0356249 -0.0340434 0.508567
-0.0192411 -0.0130065 0.504276
-0.0203092 -0.0119327 0.515361
0.0977776 -0.0445342 0.40817
-0.0391334 0.00170542 0.482835
-0.077332 0.23069 0.347767
-0.0370765 -0.0195104 0.386447
-0.0561415 0.020285 0.449307
0.0369564 -0.0236604 0.379496
-0.0517125 0.00446949 0.379761
-0.0293512 -0.00765075 0.510586
0.0811435 -0.0147981 0.349558
-0.0282348 -0.00718026 0.491996
-0.041753 0.000104337 0.491039
-0.00931392 -0.0178217 0.500458
0.00676591 0.220399 0.32954
0.0934283 -0.0724345 0.479523
-0.0155027 -0.0144908 0.4951
-0.0647214 0.0393039 0.425786
-0.0430786 0.00197935 0.493877
-0.0265317 -0.00969066 0.514924
-0.0642321 0.0327037 0.434306
0.038565 -0.0496334 0.388437
-0.0531928 0.00205335 0.457182
0.0263585 -0.0360624 0.504923
0.0209747 -0.0100155 0.364532
0.0700369 -0.0170957 0.352994
0.067262 -0.0602844 0.484886
0.0610328 -0.0178664 0.356245
0.0675665 -0.0310947 0.37882
-0.060075 0.0187518 0.400061
0.0926189 -0.0702383 0.460547
-0.0290496 -0.0066548 0.49826
-0.0453794 0.0037116 0.498379
-0.0860313 0.22982 0.356554
-0.0205005 -0.0111475 0.51883
-0.0492067 0.0164282 0.37823
0.0891341 -0.0490167 0.404624
-0.0179657 -0.0134854 0.496065
0.0685497 -0.00581777 0.334194
-0.00880612 -0.0175451 0.517205
0.0770915 -0.035676 0.380892
-0.0635346 0.0344971 0.398207
-0.0295727 -0.0167542 0.384142
-0.0306192 -0.00696707 0.511697
-0.0401962 -0.00963183 0.362941
-0.0641777 0.0366419 0.392707
0.101579 -0.0762007 0.462847
-0.0346989 -0.00334947 0.483719
-0.0531138 0.016204 0.450438
0.0579067 -0.0287538 0.385106
-0.068335 0.0424411 0.403804
-0.0476112 0.00793843 0.486103
0.0087729 -0.0467341 0.384518
-0.0283492 -0.00798448 0.506107
0.00416268 -0.050209 0.431167
-0.0465653 0.00688839 0.516227
-0.036994 -0.0114479 0.475138
-0.0353724 -0.00431128 0.506016
-0.0517697 -0.00629598 0.375028
-0.0492761 0.00941725 0.494473
-0.027886 -0.00799441 0.510284
-0.0660241 0.0374936 0.415933
-0.0373764 -0.0140883 0.396896
0.0855358 -0.0690576 0.469698
-0.038331 -0.00838998 0.518241
-0.0389151 -0.00616647 0.513058
-0.015705 -0.0146966 0.50755
-0.0286487 -0.0375754 0.47578
0.00387698 -0.0393841 0.366159
-0.0653621 0.0391536 0.423784
-0.0337659 -0.00458899 0.511919
-0.0462246 0.003378 0.496529
0.0639184 -0.0530786 0.496665
-0.0643982 0.0157743 0.446476
-0.0164461 -0.0099442 0.496834
-0.0291452 -0.00530413 0.481212
-0.0370365 -0.0126683 0.365437
-0.0248581 -0.00989599 0.499746
0.0620314 -0.0181993 0.357366
-0.0421541 0.00815166 0.523577
0.0942064 -0.0513147 0.406371
-0.0402302 -2.47263e-06 0.503241
-0.0215402 -0.0117722 0.509285
-0.00563599 -0.0455996 0.504335
0.0464952 -0.0367554 0.389343
-0.04531 0.0048969 0.485856
0.0997461 -0.0671058 0.444891
-0.0680759 0.0411262 0.39643
0.0607499 -0.0587429 0.480988
-0.0248156 -0.0243991 0.503695
-0.0673901 0.0385063 0.387319
-0.0632046 0.220936 0.369729
0.0373167 -0.0295063 0.381254
-0.0074407 -0.0225805 0.500073
-0.0682593 0.0427508 0.409877
-0.0177142 -0.0240109 0.365518
-0.0256021 -0.0238443 0.504348
0.0708709 -0.0227238 0.357633
-0.0133955 -0.0164409 0.507329
-0.0482055 0.224246 0.343202
-0.03568 -0.0242942 0.478231
0.0741531 -0.0633705 0.450349
0.0796773 0.202843 0.317345
-0.0146226 -0.0107132 0.497618
0.0827297 -0.0399865 0.388223
-0.0577131 0.0208736 0.445238
-0.0215182 -0.0118211 0.514582
0.0688925 -0.0591457 0.459965
-0.0300039 -0.0191814 0.508794
-0.0313183 -0.00460455 0.495705
0.0689692 -0.0608889 0.483439
-0.0167797 -0.0148259 0.514038
-0.0444948 0.0023503 0.502734
-0.0402678 -0.00998503 0.370239
-0.041481 -0.0105327 0.383027
-0.0320617 -0.0203604 0.394932
-0.014756 0.219831 0.333391
-0.0126672 -0.0137341 0.507865
-0.0371411 0.00304892 0.469577
-0.00261646 -0.0116317 0.349697
-0.0213684 0.14491 0.645028
-0.032246 -0.00592906 0.51002
-0.0427915 0.00323646 0.488795
-0.020198 -0.0125952 0.506317
-0.0539989 -0.0134366 0.39596
-0.025226 -0.00957614 0.488041
0.075037 -0.00558577 0.33716
-0.0293497 -0.0039715 0.485233
-0.0151835 -0.0374639 0.504729
-0.0276384 -0.0086077 0.509103
-0.0788765 -0.000271562 0.419872
-0.0871507 0.0101855 0.39752
-0.00511716 -0.0193341 0.505643
-0.0908495 0.233225 0.336358
0.088273 -0.0493248 0.40505
-0.00423706 -0.0210512 0.51141
-0.0364004 0.00105813 0.476457
-0.0193059 -0.00693987 0.346048
0.0222982 -0.0306346 0.512359
0.0550043 -0.0543914 0.495862
-0.0415553 -0.00985191 0.373043
-0.0610359 -0.00384551 0.452123
0.093752 -0.0693965 0.460174
-0.056526 0.029309 0.397255
0.0615531 -0.0309864 0.382642
0.0520374 -0.0531504 0.4785
0.0464598 -0.0537142 0.393286
-0.0200503 -0.00942026 0.487932
0.0632488 -0.085293 0.417857
-0.0601192 0.0268922 0.447351
-0.0413337 0.00154199 0.488331
-0.0471523 0.224021 0.349357
-0.0360037 -0.003133 0.518053
-0.0642808 0.0428147 0.382798
-0.0353369 -0.00415088 0.506812
-0.0250737 -0.00922471 0.496607
0.08074 -0.0361585 0.381531
-0.0258287 -0.0087382 0.49585
-0.060374 0.0316142 0.401226
0.0182812 -0.0287209 0.510044
-0.0315535 -0.016356 0.349168
0.0708076 -0.00271939 0.331946
-0.0453675 -0.0121893 0.383432
-0.0426333 0.00248063 0.506321
0.0145085 -0.0466636 0.453249
-0.0438145 -0.0220907 0.47358
0.0605313 -0.0839637 0.413784
0.0611767 -0.0333704 0.390838
-0.0377848 -0.001472 0.523719
-0.0487215 -0.00972939 0.39907
-0.0576317 0.0201592 0.456197
-0.0328401 -0.0179829 0.479921
-0.0346018 -0.00487376 0.504591
-0.00438393 -0.0519435 0.373568
-0.0494558 0.0132702 0.503769
0.0512175 -0.0341718 0.391622
-0.0425865 -0.0103476 0.390003
-0.0295338 -0.00552145 0.489994
-0.0469222 0.00631579 0.491381
-0.0340005 -0.00475729 0.506122
0.0732948 -0.0792171 0.418868
-0.0206337 -0.0183481 0.490299
-0.0230848 -0.00989125 0.48591
-0.0195924 -0.0402258 0.50281
-0.0597625 0.0306979 0.403366
-0.0792515 0.237571 0.350616
-0.00206235 -0.0222387 0.511677
0.00358067 -0.0374451 0.387401
-0.064058 0.0377076 0.386221
-0.0271935 -0.0078514 0.508034
-0.0192412 -0.0230691 0.36557
-0.0614548 0.235931 0.338187
0.0896246 -0.0503852 0.404166
-0.0363919 -0.0141479 0.395447
-0.0627694 0.0319661 0.413708
0.077523 -0.0326737 0.375157
-0.0408687 0.00086755 0.495558
-0.0513544 -0.00657022 0.392755
-0.0030722 -0.0198749 0.515148
-0.0603768 0.032483 0.393732
-0.053858 0.0165812 0.457116
0.0270567 -0.0341017 0.508467
-0.0666997 0.0389156 0.398269
-0.0454913 -0.012229 0.406652
-0.00895767 -0.0220178 0.497938
-0.031279 -0.00603931 0.51851
0.0761324 -0.0157748 0.345946
-0.0455903 0.00625705 0.48536
-0.0465134 -0.0104599 0.400159
0.0407268 -0.0126968 0.36558
-0.0500088 0.00872601 0.47683
0.0727243 -0.0633885 0.472923
0.0685558 -0.0608581 0.477235
0.0690666 -0.0611526 0.46711
-0.0405 -0.000860996 0.486445
-0.0464045 0.00432457 0.519486
0.0925556 -0.073631 0.464189
-0.0399822 -0.0242702 0.478706
0.056952 -0.0493717 0.399536
0.0782576 -0.0668767 0.463978
-0.0759965 0.239681 0.337918
-0.0654854 0.018093 0.440462
-0.0337822 -0.00589261 0.512924
-0.00291228 -0.00587209 0.349319
-0.0385454 -0.00140521 0.504073
-0.0121317 0.00766774 0.341849
-0.017056 -0.013546 0.494315
-0.0506761 -0.0105389 0.464616
-0.0506251 0.0133331 0.459956
0.0640285 -0.0322819 0.384214
-0.0446294 0.00501949 0.363722
-0.0238349 -0.0104317 0.518932
0.065478 -0.0264565 0.369879
0.0522732 -0.0545257 0.490703
0.098884 -0.0695462 0.449007
0.0547529 0.216939 0.336855
0.0823284 -0.0305436 0.37034
-0.034204 -0.0138312 0.509959
0.0626875 -0.0503438 0.498889
-0.023615 0.223588 0.331782
-0.0286013 -0.00764038 0.490195
-0.00740054 -0.0199755 0.508538
0.0754057 -0.0311169 0.372234
-0.0355465 -0.00393857 0.504677
-0.0315011 -0.0174034 0.50966
-0.0388004 0.223013 0.344696
0.0522843 -0.0566972 0.493912
-0.0401212 0.00129942 0.483817
-0.039247 -0.00410786 0.345655
-0.00568201 -0.0183262 0.516039
-0.0553101 0.0164652 0.462239
-0.0205635 -0.00897137 0.490898
0.0595001 -0.0588495 0.404704
-0.0575701 0.0026303 0.392872
-0.044266 0.00292209 0.485068
-0.0637642 0.0399716 0.387716
-0.0650066 0.0349446 0.401658
0.0537001 0.000166477 0.333673
-0.0276618 -0.0068246 0.496173
0.0754888 -0.0359432 0.383502
0.0461904 -0.0558436 0.394996
0.0526215 -0.0128085 0.353331
-0.0437018 0.00148783 0.503266
-0.0316808 -0.00631815 0.49383
-0.0359657 -0.00343707 0.505425
-0.063871 0.035464 0.39269
0.0719587 -0.0619261 0.47729
-0.0276694 -0.00831974 0.500845
0.0042061 -0.0384308 0.384824
0.090771 -0.064674 0.441316
-0.0668658 0.0390218 0.40895
-0.0541733 -0.0137157 0.411581
0.0633788 -0.0620108 0.484119
-0.0362317 -0.0133838 0.36964
0.0967926 -0.0688976 0.450717
-0.0313567 -0.00430405 0.492412
-0.0567344 -0.0088941 0.411175
0.0194387 -0.00610719 0.362277
-0.0550948 0.013772 0.449096
0.0660815 -0.059297 0.463659
-0.0461153 0.00469971 0.494974
-0.0635691 0.0338479 0.410132
-0.0602782 0.0329918 0.388207
0.0610488 -0.00207645 0.331456
-0.0181263 -0.00759547 0.519083
-0.0152838 -0.0144865 0.49631
-0.0651751 0.0361451 0.420484
-0.0613533 0.031444 0.401399
-0.0329205 -0.00340964 0.523741
0.10331 -0.0692397 0.452112
-0.0593415 0.0221971 0.448328
-0.0468313 0.00336738 0.494748
0.0910786 -0.0491812 0.404416
-0.0544767 0.0301504 0.390722
-0.092534 0.234069 0.346621
0.0753083 -0.0202301 0.353815
-0.0628384 0.0358339 0.389551
-0.0560732 0.0168304 0.467871
0.0688038 -0.0614083 0.476847
0.0513607 -0.0511481 0.489799
-0.0559723 0.0185956 0.4627
-0.0557301 0.016235 0.391555
0.0781211 -0.0263557 0.362589
-0.0558901 0.019764 0.393163
0.0847375 -0.0669019 0.459893
-0.241513 0.239373 0.27726
-0.0398598 0.002468 0.348861
-0.0065577 -0.0196086 0.504904
-0.0779001 0.229061 0.34673
-0.0365599 -0.0153747 0.396472
-0.0125208 -0.0156275 0.512529
-0.0232101 -0.0108359 0.505195
-0.059453 0.0290566 0.392141
0.0276249 -0.00467941 0.368803
-0.0641161 0.0338882 0.429743
-0.0334684 -0.00393988 0.487918
0.0194176 -0.0465848 0.382249
0.0867929 -0.0704692 0.46512
-0.0652732 0.0371413 0.392757
-0.0269885 -0.0439689 0.484505
-0.0396144 -0.00189329 0.508585
-0.0642426 0.0363036 0.39362
-0.0684435 0.0411746 0.399627
-0.0332129 -0.00445493 0.510013
-0.0375292 -0.00273668 0.49696
-0.0286246 -0.013111 0.377869
-0.0131544 -0.0163181 0.500681
-0.0317457 -0.0161423 0.385649
-0.016721 -0.0196985 0.370143
0.00313294 -0.0505725 0.379584
0.0671964 -0.019646 0.35495
-0.0545416 -0.0146095 0.382594
0.0644759 -0.0164204 0.350833
0.00877098 -0.051974 0.358021
-0.0615789 0.0190703 0.388171
0.00716709 -0.0499974 0.353412
-0.0151739 -0.0364332 0.359773
0.00357927 -0.0477785 0.353887
0.00242505 -0.046328 0.348421
-0.0402202 -0.0205284 0.355123
-0.0206275 -0.0306003 0.336237
-0.0352432 -0.0221978 0.339949
-0.0342698 -0.0222017 0.337003
-0.0210694 -0.0291013 0.32754
-0.0239965 -0.0101605 0.487831
-0.042732 -0.0125169 0.468783
-0.00259292 -0.0201688 0.513994
-0.00837293 -0.033652 0.507716
-0.0112796 -0.0150709 0.518156
0.0927466 -0.0677396 0.448421
-0.0619458 0.0314275 0.410465
-0.0328906 -0.0178765 0.479402
0.0276992 0.190158 0.302325
-0.0478406 0.00642971 0.494563
-0.0493626 0.00939942 0.503387
-0.0269035 -0.00897276 0.512874
-0.0633592 0.032255 0.398025
-0.0462462 0.00354731 0.507236
-0.0287835 -0.00759952 0.502505
-0.040088 -0.00210395 0.510706
-0.0580406 0.0248189 0.46494
-0.0584246 0.0224559 0.441539
-0.0599029 0.027286 0.45629
-0.00571797 -0.0424121 0.491893
0.0589558 -0.0227946 0.367774
-0.0175823 -0.0224938 0.493444
-0.0550897 0.0166362 0.45762
-0.0307377 -0.00671623 0.511375
0.092916 -0.0698281 0.46068
-0.0767156 0.0184552 0.401083
-0.0113296 -0.0153338 0.517283
-0.0575161 0.032678 0.377871
0.0467036 -0.0279706 0.386058
-0.0458541 0.0049665 0.489077
0.0522903 -0.0321252 0.390876
0.0252625 -0.0402903 0.500509
