-406.07 -119.354 1221.07
-177.513 -38.3404 439.424
-228.509 16.2854 1135.51
-403.28 -40.1531 1214.44
-81.7524 -33.7521 469.692
147.671 -35.2505 523.739
-135.437 -8.84925 471.243
-26.5533 45.6251 503.273
-84.884 -36.0936 468.425
-6.77717 -24.3023 487.036
-87.007 -21.3224 469.891
117.186 -26.896 513.769
-8.39451 46.5021 506.437
-162.826 -35.527 437.179
-154.985 -33.2682 439.257
-70.5941 -41.7917 471.933
-67.349 -39.6131 472.962
113.249 -26.5159 524.988
-18.3965 40.4219 503.669
-2.53065 -104.489 487.849
-72.5166 -27.6318 474.043
-73.6961 -17.4913 482.528
-13.8107 47.3208 504.087
-87.1873 -13.1168 473.283
-70.7694 16.8004 498.255
-153.442 -34.7634 439.295
4.84273 -101.862 491.713
-119.169 -37.55 465.964
-82.0735 10.8631 490.097
138.212 1.52238 568.525
-76.024 -28.8268 472.672
-215.525 -218.471 1041.43
-219.796 -266.335 1059.91
-160.144 -73.2071 1072.65
96.231 -17.2798 518.803
-188.355 -65.926 1071.61
-98.9749 -3.24801 476.912
272.078 -84.1405 1238.28
-41.3887 33.1122 509.621
-129.236 -68.8555 1084.77
-147.076 -66.9608 1082.51
-426.224 -140.406 1214.48
5.23471 14.2822 521.04
-173.736 -79.0318 1062.69
328.634 -69.531 1276.25
78.6435 -13.0139 529.946
147.57 -34.8045 524.276
114.436 -43.2429 517.974
-198.415 -63.9239 1070.04
-57.5901 -42.0549 475.258
6.34355 -25.5537 490.334
-55.4612 23.4232 497.906
-4.90794 44.3295 506.997
-6.15597 -104.44 485.415
-11.5128 40.8011 502.159
119.714 -18.6257 524.627
-173.486 -35.5596 435.031
103.062 -49.0782 530.633
-49.881 -7.794 485.062
-42.4316 26.9412 494.554
-79.0963 -54.8178 473.504
-86.529 -27.5072 468.468
148.993 -64.3563 533.949
102.062 -51.9044 528.753
-62.9475 8.91161 493.615
-34.8096 25.9303 496.445
-78.8302 6.5243 487.445
-28.7597 23.9947 500.846
-228.518 -283.742 1060.8
-86.9851 -4.35577 478.553
156.504 -11.4948 532.399
112.11 -2.2897 545.755
-46.2275 28.8157 498.255
-14.9122 48.4141 508.108
-159.025 -42.2846 438.939
133.695 -17.3968 520.673
-58.1528 19.1548 494.568
138.209 -4.67529 540.309
-151.638 -27.0377 447.873
112.448 -20.4314 525.518
-62.0984 -24.534 478.267
-168.288 -30.4707 434.69
87.1906 -26.5118 512.313
110.696 -22.0859 525.307
121.401 -0.833017 542.372
119.324 -41.3583 519.498
-9.07633 44.7218 507.308
-121.239 -28.2089 467.644
-115.246 -17.1483 466.183
-133.437 -100.236 1074.26
-49.1812 -18.4671 484.899
-17.4481 35.7106 505.231
-97.5731 -24.5725 466.821
-86.6079 -22.2637 469.205
-134.33 -19.5639 471.699
-19.361 38.2959 504.569
-106.221 -6.08177 472.695
141.908 -4.59096 537.089
-151.108 -42.5237 445.656
-127.908 -16.2593 470.059
-143.191 -21.3519 1119.2
-51.632 -20.9353 483.669
-171.198 -107.576 1057.4
-170.468 -88.5153 1070.77
-138.482 -86.0658 1086.91
-179.474 -94.5075 1067.58
-186.397 -89.4676 1067.21
-127.971 -7.91065 479.341
-21.8843 35.6757 502.613
-118.294 -47.8973 466.734
-146.135 -94.5729 1076.5
35.8929 -101.522 501.573
132.263 -60.5295 526.122
103.165 -3.02792 551.973
-191.905 -151.203 1018.33
-161.725 -29.6336 437.462
-7.13226 -108.957 485.117
-152.743 -27.9682 442.404
-71.4869 -27.5542 473.478
-109.256 -13.3319 469.816
-156.686 -23.6721 446.032
-67.1691 -27.2796 477.905
-135.304 -8.78983 470.732
-114.285 -4.21423 473.752
-57.5339 17.9395 496.156
24.2231 26.3502 523.162
-142.356 -30.5874 450.343
-36.7509 37.482 500.977
-380.249 -205.151 1218.27
19.6458 -109.728 494.473
109.824 -36.012 525.595
155.724 -16.0009 528.51
90.268 -26.6613 512.97
-85.2863 -17.5997 473.026
155.553 -74.0346 530.359
-119.497 -40.236 465.944
-218.147 -206.481 1034.91
-118.439 -32.0305 466.199
-254.584 -113.658 1047.59
-77.9079 -25.6438 473.894
-74.1573 -24.1185 474.377
-41.288 26.6167 494.677
9.18867 -116.56 493.41
-27.66 -109.535 482.725
-24.8628 -62.0226 484.825
-130.982 -57.3033 470.029
-106.104 -14.4563 466.656
-132.399 -44.9708 471.91
-87.6611 -31.1948 466.601
-126.426 -4.03626 484.871
-119.282 -29.2147 466.948
-86.8081 -20.3149 470.073
-123.912 -16.622 468.485
-136.036 -48.0632 466.141
-129.042 -5.17843 478.918
-140.63 -37.4076 448.63
-4.77211 39.5241 506.109
-72.2147 -51.8057 478.805
-127.768 -47.7906 469.301
-131.284 -45.9414 471.595
-141.705 -34.9532 444.98
-72.0794 -34.0621 470.55
-32.041 -26.5311 479.433
-130.66 -8.1774 475.527
-18.0551 14.2073 505.09
-50.8124 20.0466 492.637
-8.37615 -111.29 485.407
-152.974 -44.7005 444.084
-64.0604 -35.0014 475.635
-29.6396 -2.97642 492.703
-481.287 -193.657 1258.4
-4.59731 -113.299 487.758
-91.5521 -25.7132 467.69
-128.643 -6.36048 479.747
-25.4529 23.1178 500.878
-121.929 -24.6091 467.827
111.35 -55.0265 527.071
108.636 -42.1142 524.894
140.47 -8.64915 534.545
-129.639 -12.6396 473.395
131.983 -21.5087 518.074
139.887 -9.44376 535.699
-157.971 -40.9763 442.017
43.3688 -91.4877 510.139
-16.2369 -72.1356 488.14
-85.0791 -48.4886 469.32
54.0854 13.7273 543.225
80.1024 -29.341 510.785
-80.629 13.4433 490.062
-155.962 -44.3597 441.951
-68.3164 -36.0599 472.391
118.211 -16.0837 528.003
118.325 -17.9053 518.059
115.096 -6.88269 541.519
129.253 -6.16347 540.836
151.43 1.44886 543.862
16.9387 -91.3032 499.662
-151.469 -39.5617 443.097
-182.508 -169.333 1016.2
-87.9164 -35.5443 467.22
146.578 -2.01855 548.546
119.81 1.61743 546.573
135.864 5.63631 574.421
-52.7905 -90.8851 480.425
84.5214 -27.5627 513.941
-160.705 -28.4133 438.085
116.934 -60.8199 523.375
-26.3579 -22.7538 481.565
120.729 0.479139 542.729
-4.3313 46.4646 509.299
-142.524 -41.2165 450.056
-141.763 -33.4684 450.084
150.374 5.8987 549.389
-83.6726 -40.3874 467.888
-33.9876 -31.9763 476.942
136.924 -8.47285 537.444
259.889 -356.189 897.286
123.903 -24.2308 514.584
102.6 -5.8199 544.878
-130.373 -45.2793 471.865
119.866 0.181317 543.118
-37.6685 34.2788 499.642
-469.074 -79.1281 1229.47
-246.14 44.993 1137.88
-172.821 48.6031 1161.44
146.715 -22.2638 1300.93
-143.595 45.9617 1156.85
-155.657 60.2671 1169.18
-116.509 16.8257 1145.8
-157.556 -43.6339 437.303
254.977 24.2789 1266.83
282.499 -65.1757 1217.7
229.566 29.6789 1298.4
-131.949 -25.4407 472.02
241.184 4.58089 1296.15
-161.151 47.6583 1161.42
-235.909 31.152 1136.88
245.766 28.7069 1293.16
140.452 -5.46944 536.667
149.638 1.7175 1259.21
-197.878 27.6841 1148.64
-120.369 -14.7625 1136.67
81.7376 -12.9896 535.624
-26.9084 -107.169 480.212
85.3297 -24.3156 511.81
20.1181 -106.801 491.89
107.742 -76.7004 535.255
113.601 -74.0178 526.377
-154.834 -46.6612 446.995
-173.076 -39.3876 435.373
-148.283 -41.3146 448.339
-101.686 -4.74996 474.765
-158.401 -25.9553 441.076
-70.113 -25.8359 474.272
-23.0932 -23.6461 482.867
-60.6713 21.2452 496.811
127.51 -27.8719 517.887
123.67 -25.3214 515.133
-37.2441 36.3231 502.668
73.2624 -21.9592 519.614
-4.85742 39.3964 506.552
108.328 -11.3616 538.033
123.712 -4.54012 542.214
-136.454 -33.2155 463.719
-76.9534 10.363 486.704
-84.5262 -25.6598 469.085
-53.9335 23.3752 495.714
-178.447 -19.2615 1113.19
-8.35708 30.2503 508.223
25.4848 -101.931 495.143
0.210746 -98.943 491.142
97.423 -72.6546 536.137
-67.2804 -44.7644 473.839
-161.114 -25.5591 1114.47
-35.3071 -22.4277 480.622
114.27 -52.7695 525.055
-147.92 -33.3883 445.281
-173.041 -30.3753 434.87
-55.3835 -23.8722 479.528
-144.177 -49.0514 1090.88
134.654 -3.00617 541.659
25.8197 -12.3637 502.862
-131.008 -5.33886 476.092
-257.729 -3.71979 1114.23
-178.047 139.303 1182.11
92.2769 -6.798 578.144
-20.7806 -23.0002 482.624
-62.577 13.9878 493.801
-79.3091 15.0048 498.61
-66.8694 17.1688 496.267
108.075 -42.4097 525.018
-246.966 19.6884 1130.7
-236.887 19.6018 1133.47
-194.151 22.2858 1144.17
-49.8127 -87.8748 481.4
-130.081 -59.1355 472.993
131.169 -17.471 520.977
-189.275 55.0942 1154.82
-294.897 119.373 1170.4
-164.635 -38.111 434.286
94.7653 -83.9644 557.738
90.4136 -25.1835 513.342
-67.3413 -41.154 474.538
127.679 -39.1464 520.945
-89.2616 -10.21 469.83
-94.6972 -45.085 466.859
104.5 -6.64284 541.903
148.316 -4.22903 545.616
116.677 -35.3155 518.64
149.05 -3.16215 547.487
-52.1169 22.5615 495.099
-118.197 -43.369 467.19
-178.319 -35.8275 445.874
128.14 -43.6148 522.193
-58.0893 -7.88141 481.327
-7.98036 -103.455 486.426
-21.6964 0.752756 493.818
132.792 5.06068 577.173
52.7119 22.9316 538.036
-62.3894 19.2773 496.237
-0.589779 -116.432 485.257
-73.9565 -44.9841 475.153
-64.2749 -24.0157 479.924
-82.1489 10.1853 486.019
142.496 -24.2331 526.866
-95.2346 0.812899 479.498
4.30753 -113.272 486.076
15.8405 -95.2349 500.721
-54.41 -57.8528 478.182
-168.299 -28.2006 435.715
-25.6284 0.0270842 494.606
165.224 -27.7528 545.63
-6.85331 15.2992 511.998
-56.8647 25.0116 500.153
119.642 -49.182 521.664
-163.228 38.0154 1150.69
-401.881 -76.7133 1200.78
-14.9651 -112.106 480.368
11.4476 -106.076 491.753
-67.1235 -48.3024 473.032
117.207 -20.245 524.529
-84.3121 -49.903 468.825
-167.562 75.8628 1182.55
122.956 -55.3661 524.471
-176.755 78.2433 1187.48
173.984 -12.8823 536.184
-91.6546 -57.1889 468.093
96.6139 -35.9462 522.934
-157.335 -23.6106 444.069
-133.536 -49.0731 471.048
-72.9957 12.6919 488.75
100.513 -9.63117 541.944
-180.739 -38.5211 442.866
126.366 -76.3419 535.315
-4.36798 36.1676 505.639
-120.498 -48.6661 468.219
121.219 -15.6547 528.252
25.2762 -99.666 497.077
0.803589 -106.985 1119.6
-433.402 -182.36 1213.5
117.066 -78.8102 529.119
-10.5342 -114.279 484.93
-70.4429 -6.10676 475.397
-134.237 -36.8708 454.64
-75.1732 -35.1101 472.64
-84.0905 -39.362 468.413
-137.054 -8.56149 469.477
-85.6788 -67.0098 469.946
2.74583 -114.123 484.295
112.581 -33.4834 524.394
-228.593 -169.608 1025.99
-115.327 -15.2494 468.339
-71.5694 -48.2692 477.357
-13.2513 49.2299 507.851
-64.2291 -54.8339 479.199
-38.8332 25.5664 496.812
-101.095 -54.6902 464.831
-56.6889 -84.2434 483.222
130.427 -3.4624 540.575
-148.66 75.7747 1185.39
112.626 -8.92213 537.548
-198.081 53.1275 1154.18
153.523 4.669 544.727
-132.922 -7.19693 474.598
151.427 1.71634 541.83
-189.848 18.1276 1144.35
-137.603 26.825 1154.82
138.753 -7.19322 538.17
154.502 -6.94656 536.8
-196.34 87.8985 1186
-145.924 -35.1509 443.997
-183.465 44.6872 1148.07
-54.0567 -19.368 482.963
-2.9329 -106.258 486.726
-120.972 -2.75253 1163.27
-66.4858 13.7371 493.79
115.658 -32.0866 515.387
-54.5749 23.5691 492.707
139.653 -4.05975 539.488
-137.58 -38.4073 453.492
157.487 -67.4925 523.736
-73.729 -35.4709 472.627
94.0775 -9.00163 561.158
106.395 -63.8467 528.941
-124.906 -59.2698 471.157
113.236 -63.7808 522.706
-32.9851 38.886 501.985
-69.882 -23.8716 475.005
-32.0409 -62.1792 482.257
109.596 -7.15747 543.485
-150.73 -40.17 442.285
-67.2745 15.699 493.939
-87.8833 -12.9372 472.823
-17.594 44.312 505.121
-8.96944 45.2007 506.32
9.75149 -109.321 491.899
-205.9 85.9929 1178.57
102.14 -5.7343 542.961
-10.0234 34.7733 504.278
116.256 -76.9823 528.05
-156.567 -47.5239 443.713
-179.487 -104.671 1060.68
-6.10136 47.2167 509.223
125.085 -12.1631 540.592
-42.8415 35.0873 506.285
-78.455 7.86443 485.448
95.1889 -74.4776 556.961
-33.8195 23.7539 497.335
112.134 -12.2214 529.995
-29.772 24.8557 502.162
142.392 4.04718 567.099
-46.9768 -20.269 480.198
37.7079 -96.8604 508.185
125.163 -50.89 521.03
-20.4972 47.3016 505.334
-129.931 -7.02943 478.45
84.9379 -13.5369 532.5
-26.3585 -111.368 488.609
125.584 -16.5151 520.328
-265.273 -137.301 1060.39
-68.2968 16.5815 498.134
57.7478 -20.8147 510.156
75.9461 -32.4484 509.629
-249.12 57.5247 1143.11
114.692 -11.9146 535.099
-142.783 -38.3614 447.321
-158.317 -41.3846 443.296
118.057 -16.9107 528.086
-138.803 -40.42 453.139
-17.8912 17.7117 502.01
-153.492 50.715 1169.93
107.461 -8.40494 538.963
-31.341 -30.9377 479.287
132.653 -59.4748 526.392
112.348 -6.65078 543.151
-178.508 -37.9355 440.247
-17.8868 -112.326 478.509
76.0645 -47.2062 513.753
106.228 -8.0309 539.993
106.596 -4.95992 580.277
-103.54 -2.76556 476.314
-7.97876 47.2633 507.949
111.728 -78.1307 537.679
-136.692 -33.4177 463.87
-70.2307 17.1991 496.919
-125.623 -38.9342 467.843
-82.8895 5.25953 484.527
-40.0938 34.7387 500.1
-154.156 -20.0169 450.8
-134.563 8.12758 1153.72
-180.218 -30.7711 442.318
-445.338 -86.6056 1225.93
-169.854 -37.1219 434.068
113.254 -23.7758 523.934
-73.8975 -12.4428 484.154
-129.01 -60.7393 474.834
-132.672 -106.242 1079.59
-149.503 -29.7313 447.449
-102.34 -3.33386 475.428
-88.9984 -58.4151 468.791
-170.022 -29.5866 434.038
314.248 -32.8389 1205.15
82.6926 -15.8194 527.28
-127.853 -6.19956 477.14
-20.2208 6.85239 493.013
-246.455 52.7665 1142.92
-138.44 -32.8846 453.501
133.642 -7.0447 538.326
25.6522 83.7927 846.016
114.618 -6.86346 540.199
138.421 -8.12907 535.181
118.623 -47.0858 518.461
-100.801 -15.5904 464.947
-35.2269 39.1992 504.349
118.049 -44.6689 519.011
-46.484 -23.0919 478.366
117.245 -25.9213 515.252
129.364 -57.4207 522.821
-162.766 -28.0027 435.988
148.59 6.16741 547.284
-164.249 -32.4119 435.57
107.488 -32.2131 522.775
-79.6965 -30.6313 470.975
-4.30722 40.3138 508.556
-161.458 -39.5319 435.746
-118.709 -39.3177 466.328
-160.649 -41.2646 436.673
-100.743 -1.31921 477.48
-149.469 -41.7159 443.869
-162.942 -43.9242 440.156
108.68 -65.3554 534.343
-82.9198 -62.3184 475.725
157.444 -72.623 532.592
30.2504 -95.9209 499.938
105.698 -43.5738 523.816
0.789777 -95.8738 499.631
10.1782 -112.498 495.596
16.2988 -113.297 498.01
-173.792 -32.9294 435.906
-21.7607 -22.2167 484.01
110.357 -54.0391 528.82
163.536 -19.0713 526.098
-77.8593 -37.3046 472.063
-100.727 -0.141125 477.724
110.468 -29.7123 525.039
-66.6685 -7.22901 479.105
98.2591 -49.5178 528.286
136.394 6.25873 576.416
114.341 -10.0863 534.937
-171.302 -32.2229 433.344
118.442 -18.9938 515.487
5.63535 -117.832 492.155
91.5159 -12.6745 542.348
-101.085 -51.3813 466.808
154.523 -130.903 573.786
-134.24 -22.3774 472.721
124.442 -44.1867 517.547
-23.9719 -97.4468 487.205
-32.4773 40.2958 503.476
-139.414 -41.1223 452.257
-132.646 -50.894 469.821
-114.878 -13.4367 468.023
137.631 -10.9878 534.302
146.658 6.21574 551.984
-79.6632 -21.8558 474.687
138.428 5.37348 571.413
-133.178 -24.2276 472.392
-33.9954 20.477 493.305
-45.3849 -40.5515 474.235
126.49 -7.43534 541.218
-141.07 -33.7514 448.39
-75.3423 -39.0293 473.501
-73.3764 -51.8221 478.284
-72.9379 15.952 494.687
123.204 -14.894 528.351
-8.50078 -95.8201 494.807
55.148 -26.6776 506.463
110.965 -35.9084 525.887
-27.7437 -62.3692 484.817
108.79 -25.748 524.583
111.105 -33.653 525.076
16.8466 -85.6219 506.666
114.152 -2.1699 543.122
129.167 -5.18229 540.89
-157.003 -23.9603 445.101
-54.5401 -30.7423 476.129
-65.3408 -35.4692 475.502
11.1962 -106.78 494.892
135.837 -8.21642 536.569
291.076 -17.1568 1346
-113.095 -30.6355 1121.35
119.846 -18.7648 515.237
-102.843 -35.8331 1088.29
-91.4867 -11.6764 469.743
-162.056 -38.7894 435.732
-5.44103 32.2822 505.427
112.139 -17.109 526.615
-26.6842 20.5467 500.996
-89.1018 -5.18558 475.183
100.33 -5.52243 551.892
-47.9538 -76.1936 487.354
-133.694 -13.6891 1145.31
158.934 -18.7228 525.667
-74.1806 -30.3382 475.429
85.9018 -27.4528 511.64
158.941 -55.1267 521.697
-37.1251 8.22837 502.979
-44.9231 -91.6259 479.255
-42.3018 35.0704 500.802
-19.4383 39.9265 502.27
-131.02 -35.7257 470.233
-17.9565 7.20563 511.901
-157.656 -26.1434 443.964
112.849 -29.7077 523.405
-83.044 -18.2112 474.182
-98.6138 -53.7719 466.955
-367.292 -163.448 1210.3
-28.4697 23.3699 500.298
155.427 -7.2503 534.328
-109.913 -14.1152 467.257
76.4258 -22.3533 520.771
-29.1485 -20.9146 480.48
-170.334 -33.6274 434.007
2.23867 -81.5423 504.581
-169.396 -30.13 435.202
14.5429 36.5901 515.506
135.36 -5.49064 540.472
114.344 -18.589 525.449
123.173 -16.3315 515.245
-99.9702 -13.8955 468.5
-75.3382 -43.5608 473.37
-221.914 137.015 1170.21
11.6301 -86.4208 499.929
-133.196 -16.0221 471.934
-155.859 -48.8384 445.98
-136.222 -8.82242 471.292
-33.5429 36.0573 506.875
-17.4962 6.28677 512.97
41.0001 -41.0857 498.341
84.4248 -8.08785 540.575
-105.252 -4.53117 472.571
49.9871 -89.9432 510.08
-68.8075 -52.6712 479.319
109.286 -68.7524 531.103
-91.7836 -58.567 469.541
71.831 -24.7158 518.378
73.7991 9.02609 554.071
-93.5945 -25.1579 467.504
41.3457 -91.8367 507.719
87.8081 -23.7655 513.502
147.033 5.91373 557.342
-65.7468 -43.5184 475.774
-161.572 -36.6501 439.404
114.682 -24.286 522.638
-85.2981 -62.997 469.86
73.9624 -19.7918 522.797
-130.81 -95.5369 1076.79
-11.6771 41.6386 502.19
115.913 -40.762 518.038
89.5537 -26.1377 512.831
120.136 -18.9226 514.625
-159.048 -44.4137 437.386
-250.933 -132.048 1044.77
-65.0472 9.1089 490.236
-64.4709 14.6981 493.538
-8.76814 -105.878 485
32.1453 -97.6299 502.087
-29.3935 -23.6566 481.07
-157.904 -27.0243 442.137
-124.884 -7.48857 476.264
-34.9193 -46.4544 478.09
-63.1862 -50.6967 481.481
-77.3582 14.0597 497.195
-7.80032 39.3527 507.086
-83.9286 -54.0198 471.931
-154.987 -33.2832 439.567
-39.2151 -21.5346 481.148
120.705 -0.288921 544.17
105.962 -55.4349 529.045
-88.4769 -32.1896 465.086
102.841 -7.36605 542.558
154.906 -6.12688 535.132
-136.444 -40.2194 457.074
-154.445 -43.9117 444.466
-23.4708 6.10758 493.531
115.431 -6.08139 542.806
-161.853 -36.2767 439.489
-95.8219 -48.5824 466.728
-18.7428 -5.56211 504.707
-229.016 93.4689 1177.44
118.868 -27.914 514
-41.4712 -98.8509 1100.78
-127.319 -6.70688 480.726
-338.548 -222.261 1158.77
-9.53736 -23.8318 485.82
123.463 -16.0429 523.39
-150.596 -29.376 445.993
-230.197 -189.424 1028
-99.6898 -4.49202 474.792
150.568 6.17382 545.374
-66.5054 -6.99152 478.773
113.69 -77.2596 538.627
-113.248 -13.4652 469.744
34.9789 10.8127 528.455
110.076 -1.12469 543.998
-105.853 -7.35487 472.009
106.53 -57.7564 527.932
-12.2221 46.0335 508.067
-161.219 -24.1294 439.622
135.457 4.78849 583.032
-156.038 -25.0824 443.77
137.06 4.38518 576.607
92.606 -11.0196 565.497
-70.4306 15.9999 494.369
-87.8869 -12.736 472.418
78.4546 -31.4308 510.009
-26.151 24.181 497.426
104.9 -52.9446 529.084
-78.0278 -33.7478 470.975
-24.9373 -55.8203 480.986
49.0477 -93.1052 508.025
-7.84046 44.6288 508.445
-135.106 -61.0484 470.549
18.9746 -102.833 496.361
-226.497 -257.011 1049.19
116.237 -56.8449 522.27
169.855 5.38863 552.017
-80.25 13.4592 502.475
139.184 -1.67618 543.007
130.974 -5.69889 542.182
128.028 -16.6207 522.226
-146.403 -23.5878 463.026
-68.9827 -45.9693 473.018
-154.645 -44.5816 443.107
-21.3913 -25.3062 480.275
142.38 1.42622 557.472
144.896 -252.942 814.056
-130.51 -37.0653 470.183
-75.6169 -4.7001 476.28
-7.18445 -102.255 490.184
-88.7338 -31.6084 464.989
-79.3478 -35.8977 471.61
-172.745 -30.5621 435.586
-61.8734 14.1651 495.031
122.368 -17.3088 642.839
98.0356 -10.7178 578.593
57.4123 -18.5801 514.702
99.8717 -11.8933 579.792
137.665 6.14114 574.352
74.3533 -15.3451 526.525
133.753 -18.9379 527.007
-87.1277 -4.06024 476.236
-53.4045 -22.4717 477.37
-126.677 -5.37371 482.443
-102.027 -1.68523 477.564
121.836 -14.1376 532.422
-104.434 0.346994 478.362
151.958 -11.8122 535.316
109.724 -65.0988 527.68
-89.8442 -81.1631 479.562
-60.133 -53.7089 481.023
-46.9674 -43.3084 474.867
-118.947 -8.37739 470.258
-22.005 -6.79801 498.117
-73.9097 -33.2442 472.127
72.0143 -33.949 509.18
-23.807 -25.5062 480.741
-45.3908 -23.7612 478.645
-114.544 -13.3524 469.626
-65.093 -7.4805 478.687
-89.4871 -6.25044 469.979
110.022 -64.2126 532.287
-154.733 -46.1435 445.958
7.1005 -26.7005 489.828
48.7198 -97.4091 512.616
-107.819 -50.8364 466.549
-5.17181 -109.562 491.288
150.118 -86.2302 545.272
-85.9558 -31.2492 466.951
128.872 -33.288 521.133
-74.6426 -25.7898 473.868
-84.8544 -36.7927 468.062
102.427 -29.9044 524.895
-132.818 -11.5463 470.032
-109.799 -7.20863 470.94
-123.456 -23.4766 467.632
-17.4549 -7.98777 497.251
30.1876 -95.093 494.193
-151.454 -43.4018 443.953
-129.232 -48.329 469.618
116.301 -51.9255 523.958
-65.9242 -26.3528 479.188
157.351 -33.0131 519.349
-5.52701 33.7266 508.32
-133.051 -50.8703 469.645
119.437 -46.7893 518.816
-127.342 -28.3864 467.962
110.698 -34.794 525.717
130.586 -29.1076 518.128
1.58543 -105.684 486.669
3.20515 -71.9893 514.419
-156.155 -47.421 443.947
-76.9793 15.6646 498.768
-54.5798 22.5981 496.58
-43.6643 32.1771 500.677
-97.4672 3.71866 481.607
-31.1263 41.3493 505.112
-4.42624 45.5431 509.253
-6.70957 -43.8896 483.265
-76.5411 14.8097 497.906
-54.486 9.9818 496.711
114.222 -21.0008 525.124
-130.175 -9.50084 475.537
-382.376 -193.777 1212.01
-124.413 -48.4199 469.027
-48.2198 -43.2761 474.686
-131.223 -33.026 469.918
-152.224 -31.0951 444.413
-163.803 -29.9822 436.766
118.307 -42.0699 518.62
153.475 -14.9623 534.109
-357.229 -228.208 1193.44
13.8783 -86.6105 503.578
-295.721 -131.614 1121.56
-150.179 -29.8847 446.921
-133.007 -27.69 471.589
-142.501 -55.2755 460.716
108.735 -49.8244 528.629
-41.8762 24.6407 494.313
147.663 -34.8937 524.338
154.037 -18.1925 531.203
-200.299 38.522 1146.42
-10.7787 -44.2409 482.754
-263.399 44.1868 1138.64
-256.207 48.0515 1142.99
225.463 32.1985 1337.55
-168.722 55.9406 1163.34
-65.5374 -86.037 482.625
-203.504 18.1767 1137.42
-11.6499 -114.503 482.299
-71.1143 -84.8164 480.409
-166.641 -44.1486 434.593
-167.33 -43.1317 434.482
-175.87 -45.1569 442.183
-152.041 -40.8016 440.228
-151.392 -37.8565 438.083
-149.402 -40.3399 444.056
-150.854 -38.7852 444.508
-167.336 -28.9248 434.981
-141.313 -33.6305 444.221
-133.001 -49.4844 468.766
-182.949 -34.0105 446.921
111.656 -72.8985 526.521
-130.627 -10.6714 479.782
181.047 -18.9866 534.404
119.9 -16.0038 528.087
112.297 -13.1571 525.401
115.111 -12.6779 534.25
110.287 -10.1264 537.086
114.301 -9.00435 538.372
-83.3391 12.7131 493.064
-76.5721 12.6885 497.72
-82.3668 13.8999 495.143
-80.0382 14.5876 503.997
141.082 6.12039 566.098
49.9507 25.946 536.604
0.321414 42.931 512.069
-73.8984 -79.7531 478.84
-135.131 -37.0385 455.486
-62.2368 -20.7767 480.042
138.914 -33.6767 522.716
107.141 -0.0490795 553.314
46.4205 27.4076 535.711
-151.964 -43.5869 442.273
-155.557 -48.8527 444.61
-85.2444 -53.6301 470.173
-70.961 -19.5476 482.086
-129.006 -9.88548 477.663
11.263 37.4605 513.476
-139.33 -37.5684 449.791
132.628 -1.2213 577.3
106.664 -1.42473 561.198
-105.014 1.53298 481.947
-34.1809 -7.01284 488.811
-89.2743 -6.43743 471.858
82.2852 -28.8522 511.901
-63.9541 -21.6806 479.543
-69.416 -46.4962 474.701
-48.5458 -47.2767 474.7
152.322 -77.8042 532.2
109.085 -45.2532 526.287
-151.994 -14.7537 455.253
-73.8861 -30.7559 474.737
-69.1181 -29.6621 472.158
118.31 -58.0588 522.423
-72.3433 -45.397 472
-70.0833 -46.8684 473.09
-136.65 -38.3878 451.961
-171.56 -33.2378 433.955
-153.31 -43.1227 442.116
-87.1941 -61.4514 468.378
-169.049 -41.388 434.517
24.7507 -97.5598 489.727
-31.3203 39.6007 505.244
121.953 -19.6705 642.59
-32.5279 34.6705 500.503
-52.2995 29.4431 509.934
-42.4075 27.9349 498.581
142.992 0.773906 559.674
99.6992 -6.37694 560.793
-78.4014 14.3004 499.039
107.893 -2.81831 548.572
112.646 -1.48639 545.415
112.699 -3.8536 546.791
-79.8863 12.1052 492.878
-86.7283 9.06708 492.174
87.5079 -11.4966 536.249
117.725 -18.8315 525.678
131.274 -18.1053 521.038
112.472 -20.5673 523.963
132.267 -18.9751 520.596
117.099 -18.8703 518.041
72.9941 -21.9191 518.888
75.167 -23.0097 518.561
-104.544 -7.47845 472.274
58.8023 -26.886 507.967
-133.932 -14.8058 471.24
130.443 -30.137 517.23
108.949 -35.8933 524.434
104.595 -37.5697 526.796
110.725 -37.1246 526.001
15.4119 -29.0514 493.348
118.959 -48.787 518.075
116.608 -51.0715 520.719
-130.864 -31.6531 470.343
-125.943 -31.1773 467.453
-82.6528 -34.2177 468.352
108.07 -67.3888 529.5
-75.4514 -41.6716 472.771
-152.897 -27.361 443.829
81.4954 -16.9333 526.976
71.5051 -15.7018 522.192
131.359 -26.7431 516.932
121.624 -27.6273 514.521
-32.3171 -22.0375 480.002
-23.6131 -22.7668 481.305
-79.8299 -21.9237 474.845
-128.437 -23.4913 469.434
-51.6143 -24.8768 477.317
-122.922 -38.4301 467.224
-131.599 -59.7246 472.454
-11.3511 48.9724 507.599
-11.054 44.6944 504.929
-19.0016 44.3393 505.437
-19.005 24.792 506.617
-22.7847 23.7631 503.268
-85.2116 13.0309 491.735
108.905 -10.0286 536.505
115.299 -14.0722 527.331
-31.6272 -10.3044 492.668
119.216 -16.5816 517.041
-137.186 -8.91237 470.11
126.53 -27.7406 517.152
105.513 -59.7935 527.735
-50.5672 -43.3038 474.761
-73.9086 -44.8651 475.183
-134.035 -49.48 471.891
-150.111 -42.6857 446.774
-138.813 -52.9617 462.255
-88.6836 -57.8114 470.897
2.34647 -95.2697 496.269
-65.3388 -91.037 484.246
-48.4585 -99.5784 481.323
71.315 81.4464 761.311
-23.9473 46.5327 503.537
-9.19973 43.4557 504.624
14.5867 37.3336 515.572
49.3869 26.8801 536.914
56.5383 21.9922 541.297
149.588 5.35032 546.803
150.729 3.02738 544.473
111.497 -0.861142 544.259
107.687 -7.39173 539.559
86.5355 -12.07 536.224
88.526 -26.2156 509.596
113.867 -31.9199 523.564
-26.2205 -21.5188 481.494
-22.0369 -23.2494 481.425
116.159 -35.4234 517.137
120.984 -39.3365 515.553
-133.541 -46.452 473.211
-69.1528 -50.7899 478.142
-28.038 -104.685 481.468
4.68626 -109.118 490.573
-377.285 -219.187 1201.9
-356.247 -245.401 1183.37
-121.776 -25.6797 468.197
-36.0863 -14.4956 487.166
-64.3924 -51.3669 480.298
-225.638 -238.968 1047.33
-178.944 -161.695 1015.43
128.1 -4.57871 541.81
-193.541 -177.952 1016.69
-221.94 -233.87 1050
-221.504 -224.202 1043.54
-209.282 -198.966 1032.45
-482.955 -195.832 1263.43
21.3504 23.868 521.23
103.258 -40.8938 525.679
155.756 -9.09538 532.388
119.807 -6.95493 538.524
112.262 -2.88853 543.439
-37.3911 27.9936 494.787
110.432 -49.6563 528.248
111.027 -1.83771 545.453
-131.318 -8.40223 475.254
-73.614 -36.4703 472.045
154.735 -23.3687 530.103
-91.4031 -18.881 469.785
-123.856 -24.1174 469.809
-173.921 -168.51 1018.51
-200.515 -172.295 1015.37
-17.4735 27.311 504.419
4.43348 -104.56 491.741
-63.8991 -92.0136 484.119
-93.2468 -59.1455 467.355
113.65 -71.1068 522.951
158.898 -66.7263 523.857
-118.44 -43.825 467.677
127.813 -58.2993 522.134
-98.8253 -36.0165 466.342
-81.0283 -35.9721 470.235
132.179 6.08307 583.341
-12.7878 44.3949 502.964
-39.7888 -76.184 493.244
-132.713 -53.1599 469.093
-144.038 -35.8333 445.597
126.495 -61.0456 525.759
108.339 -56.4232 527.654
123.228 -52.1577 519.204
-64.1441 -34.7748 475.176
79.2565 -26.3774 508.367
141.041 -7.337 534.8
144.767 -2.08566 556.429
-16.9266 31.7649 505.28
25.1007 -98.698 493.139
-17.7382 -74.4503 480.218
108.117 -76.507 533.388
-71.2287 -47.8983 475.652
109.338 -64.4137 526.775
-141.922 -36.0143 447.224
-137.622 -33.3312 460.765
53.6961 -35.3418 501.96
-43.7777 31.5743 499.944
-170.358 -38.0667 1101.3
-173.411 -34.6988 1105.32
-180.406 -4.28544 1131.56
-195.38 0.523112 1127.09
-63.2644 -89.8824 481.487
-90.9386 -63.9555 469.498
-163.926 -33.5251 436.753
-152.832 -26.3071 444.874
-73.0555 -19.7232 481.291
-373.484 -167.516 1207.53
-17.8107 28.8343 505.083
-13.685 30.1033 505.013
-380.367 -135.257 1195.85
-386.497 -102.386 1194.12
-149.546 -45.2751 1092.49
14.3088 -109.809 496.005
-42.6166 -38.4956 486.085
-42.9485 -45.8006 476.393
-78.941 -34.0067 470.987
117.756 -12.968 527.047
158.086 -13.7815 528.919
13.0466 -113.396 495.642
-111.556 -5.95289 472.184
97.5903 -66.6642 530.375
-30.9052 -102.252 476.441
-131.967 -49.7837 469.951
-149.131 -37.2206 444.07
-133.114 -52.2911 468.723
29.8638 30.6545 527.443
-137.709 -35.7128 452.851
-145.249 -33.2425 446.426
-159.693 -28.6403 437.34
-132.836 -13.8146 469.956
-285.145 82.5989 1158.95
-5.36908 -109.511 487.795
158.3 -12.1309 528.997
58.4866 -20.8795 512.981
121.111 -12.1773 533.942
-139.609 -33.2708 450.978
-150.736 -29.6705 444.98
-21.9864 -9.52382 494.866
-70.6116 -25.4645 473.854
-167.752 104.515 1185.38
-129.184 -7.34785 1137.4
-8.72022 45.9248 501.727
208.492 -12.3989 1262.11
-210.167 -322.208 1076.8
115.856 -51.8575 524.143
-54.2756 -89.6729 483.699
149.678 5.58201 551.105
-171.251 -31.3946 433.867
-13.9452 -96.5663 486.086
-137.282 -40.0798 461.322
-124.254 -14.0337 468.115
21.9387 34.2379 523.162
3.75536 -117.123 488.671
46.1565 -99.3322 514.337
42.0703 -87.4545 504.149
-125.334 -35.6482 468.603
71.4172 -33.039 507.186
-150.844 -26.9549 447.797
150.693 -11.8456 536.712
20.875 35.0567 523.222
124.614 -45.7012 522.115
-210.278 -189.51 1028.52
-133.117 -12.7564 471.259
114.091 -45.5772 524.317
130.961 -18.7052 519.926
87.0432 -11.0007 536.981
137.846 -63.5503 525.42
84.3797 -10.6534 537.246
32.7654 -94.115 496.694
154.238 -5.33979 537.459
-111.025 -3.04498 472.364
-12.2483 -101.951 483.592
125.4 -31.3825 519.806
-22.8905 -61.1349 484.348
-130.533 -34.5098 467.354
-196.44 70.3115 1166.4
-41.5719 -32.3881 474.443
-56.8314 -23.873 479.093
-93.6157 -42.3503 465.894
-96.3602 -5.79257 471.564
-140.944 -34.0348 449.77
-163.651 -38.1595 436.236
-71.4357 12.9252 488.766
-181.464 -42.0539 1096.21
-22.3602 -42.5102 479.246
108.38 -74.8809 536.991
-138.825 -37.8737 452.957
-56.1249 -29.5991 475.235
129.628 -29.8443 519.751
134.161 -57.2492 521.407
-90.3161 5.66248 479.901
-41.8074 -28.6941 477.818
-116.996 -17.4768 466.967
-37.0127 22.6367 495.962
-97.9634 1.61973 476.602
-166.459 67.7856 1179.94
128.419 -59.4169 524.193
223.674 -10.7063 569.584
145.12 -2.34622 556.276
-128.214 -7.02526 479.226
92.34 -11.4132 571.144
82.9581 -18.0652 529.044
127.59 -0.363171 544.087
135.952 -63.6299 525.961
127.832 -63.5325 525.98
61.3966 -432.416 956.003
50.9521 -234.588 810.379
90.8683 -25.3926 512.229
-69.734 -28.4782 472.618
-69.5696 -42.5291 474.412
-9.7994 48.59 508.165
-81.5127 -22.1898 471.746
-34.3163 24.035 495.689
-147.898 -31.2903 446.821
20.5554 -107.93 496.805
-78.5443 -4.74296 476.641
112.905 -73.6254 523.701
-169.954 -31.1621 434.256
-131.471 -39.6065 470.263
-77.3473 -23.5473 476.236
118.164 -50.1396 520.36
-128.066 -54.3127 468.112
-319.014 -36.9595 1116.4
-5.72061 38.3201 505.234
221.957 -11.1652 567.978
48.8151 -29.2944 505.647
14.6916 -87.0489 504.412
-156.977 -62.1582 1090.13
120.338 -8.18491 540.065
2.7928 -111.1 486.434
-103.753 -5.44717 473.543
-87.8225 -6.21265 472.281
-124.184 -7.08383 478.587
33.9708 -94.9406 497.878
-126.985 -24.6311 468.664
-69.7291 -37.0113 471.468
102.968 -6.05445 542.693
116.514 -82.307 531.096
84.8216 -10.0824 562.512
-148.107 -39.2204 445.072
-87.1446 -34.3507 466.996
-8.49701 -22.375 488.127
120.396 -1.50217 541.636
129.822 -64.5953 529.1
-71.4959 -72.3533 482.725
-53.1333 20.2274 494.165
-133.614 -16.6541 471.857
107.611 -77.2132 537.437
-126.716 -14.9566 471.862
-129.591 -36.8348 469.577
139.446 -11.3673 534.496
-149.506 -44.7753 446.669
115.022 -58.8048 523.422
-165.584 -24.1233 438.288
-4.54736 -102.367 492.476
-61.9628 -32.7507 476.758
-57.7406 18.7853 493.91
-92.288 -33.0365 466.66
-95.2382 -18.8455 468.555
-254.857 23.163 1128.93
-18.8218 24.8389 505.681
-137.078 -16.3559 468.582
-67.8983 -87.6413 484.29
39.5053 -92.3145 501.852
117.184 -23.4304 525.655
121.156 0.455729 546.079
130.755 -58.6034 527.578
141.243 -9.41027 534.413
-42.2923 33.4825 503.118
108.183 -26.7963 524.674
139.871 -2.42395 540.44
-104.092 -4.60304 473.952
124.47 -10.1814 541.01
-143.057 67.318 1183.09
-95.5864 -12.5374 468.348
78.6861 -11.8699 532.799
116.607 -47.9637 519.028
151.152 3.70009 545.454
68.6929 -9.64268 532.844
-29.5573 -10.9991 490.113
-119.493 -45.1221 467.425
-153.914 -41.0438 440.942
-76.1455 -39.6541 472.979
-80.5976 13.696 492.991
-17.0932 -34.0898 482.155
73.4859 -32.3581 509.362
136.532 -6.62453 539.271
104.495 -33.7924 525.104
-41.1633 30.4665 497.982
29.1384 34.9029 527.991
-106.378 -11.7776 468.988
-140.743 -35.5374 449.54
126.412 -4.97203 541.754
32.1997 -93.6703 497.795
-67.7628 -6.28461 479.973
88.8253 -10.6691 541.162
112.152 -59.7909 526.338
-65.7554 -23.0207 479.517
128.568 -46.1827 523.644
12.3368 -85.9206 501.568
160.029 -11.3036 531.576
-74.3768 -31.9665 472.99
228.496 -75.2657 1287.41
-44.929 -20.222 481.374
-18.0662 -106.801 479.453
43.3273 -87.2432 513.388
26.4252 -100.805 493.882
-63.7874 17.0044 493.27
-150.992 -29.5705 446.041
-19.4185 46.409 498.254
131.799 -65.507 526.512
-111.507 -14.2235 469.256
-96.7723 -13.0182 468.771
77.6308 -30.4733 510.442
-130.909 -23.1319 472.249
125.295 -31.9675 518.198
-154.434 -100.735 1065.97
124.003 -30.5439 519.376
148.705 -27.4919 532.389
-168.542 -41.8864 433.273
-71.3414 -46.1398 478.596
-230.253 4.11525 1122.73
109.519 -77.0849 537.97
-77.1094 -25.9964 473.19
-108.625 -51.9629 466.503
-156.511 -45.0484 442.3
119.321 -56.6602 524.732
117.133 -69.4567 525.913
-104.48 -3.43283 475.701
0.300088 -99.8096 496.026
-134.63 -16.4752 1127.26
-54.7255 25.492 496.733
104.567 -71.956 538.545
-29.0314 15.5752 497.877
-40.4423 37.2498 503.071
-122.527 -8.80134 474.195
-33.0737 -107.329 481.724
-373.846 54.9619 1195.36
-73.1583 -15.4627 484.146
129.996 -66.3197 531.506
149.464 -6.24555 541.923
-161.146 -29.6152 436.437
-153.215 -31.6941 440.315
109.878 -10.16 537.42
125.471 -40.3443 515.814
108.089 -44.9023 525.23
-202.637 60.8432 1159.45
-177.485 -37.2318 439.077
-153.565 -32.9146 439.995
76.79 -22.2817 519.192
152.733 -0.536431 541.452
-138.306 -32.0958 452.689
99.6202 -12.1981 541.153
-149.683 -28.608 446.367
115.702 -62.7629 523.567
-100.56 -55.907 466.641
-102.676 -54.4518 464.375
-65.3795 -70.9287 483.967
-127.602 -58.5029 472.588
-74.5972 -21.8124 477.448
108.592 -48.6375 528.286
-375.823 -159.085 1207.48
2.54055 -26.5585 488.916
-85.3918 -61.755 471.802
103.755 -40.4662 527.369
-70.6186 -31.6336 472.052
109.222 -52.0584 530.828
72.9955 9.92249 550.795
216.629 0.0749408 574.835
117.691 -43.9925 517.312
-110.835 -48.9038 466.337
151.648 -10.5124 537.919
-36.8681 28.0855 497.5
-36.1443 37.9536 503.847
-69.4611 -38.0686 472.281
-69.6717 -48.9514 476.246
153.762 -2.6468 537.864
120.342 -46.1523 518.404
134.34 -65.3361 529.137
88.0389 -14.808 537.384
135.033 -2.80578 541.171
-140.573 -44.0411 452.846
-65.8197 -41.4704 474.605
-234.358 26.4224 1133.5
-173.952 -336.139 1095.15
-213.306 39.956 1147.2
126.11 -76.5418 541.207
26.3923 -29.0722 497.305
127.434 -48.6262 523.55
-95.0738 -53.6274 466.281
-148.798 -39.9064 446.402
-150.733 24.8558 1142.21
-26.2508 -25.5285 479.984
-139.65 -37.9434 449.893
95.9383 -67.6757 536.917
7.19199 40.7115 513.395
149.962 -5.01953 541.563
-65.9732 -38.6452 475.185
-98.7504 -10.9045 470.385
-39.0777 -31.7546 475.909
115.756 -20.9397 520.779
-71.0796 16.1801 494.686
-24.9735 -56.0545 483.894
-136.993 -60.2295 468.151
84.5335 -26.9652 511.727
-132.003 -24.8643 471.496
-80.3304 -26.4923 470.827
156 -79.9868 545.844
-170.222 -24.266 1115.15
92.6127 -336.614 944.388
139.945 -5.50808 537.267
-9.85231 -100.335 487
134.734 -61.9699 525.393
-130.243 -35.868 470.774
-71.7681 -84.157 486.276
107.234 -66.3192 532.109
-118.313 -35.5 466.171
16.8767 -100.17 498.667
-18.5118 34.0375 504.582
116.759 -39.4926 518.533
3.55531 -113.143 493.922
-78.677 8.33219 486.354
-158.44 -43.4347 438.932
-65.5225 -23.2111 479.263
-42.0594 -37.9308 487.968
-6.58842 43.0505 506.652
-55.3075 -31.624 476.366
-102.859 1.52753 480.03
-7.15617 33.4834 506.386
-142.608 -37.8928 446.425
118.079 -9.83453 536.669
40.7003 -2.20557 526.137
-412.655 -172.265 1209.79
-155.778 -43.6344 442.541
-64.9828 -6.6929 481.555
-168.37 -45.7958 435.317
225.572 -14.6188 567.493
172.205 -12.1847 530.945
147.441 -28.7286 526.654
5.24066 -28.8021 487.977
-124.32 -17.0509 469.037
-52.8437 -35.2258 475.105
-150.682 -31.783 443.322
-100.618 -3.50778 473.686
-45.9109 -50.1772 477.24
109.774 -74.0213 534.304
132.118 -59.0665 524.231
116.572 -37.5785 521.506
95.9398 -63.9046 525.219
319.444 -48.0781 1292.66
-133.943 -37.6491 456.097
-422.28 -193.803 1206.27
105.362 -148.583 660.86
-103.975 -1.81141 476.509
-17.5689 -89.2631 486.842
-69.1715 -42.9233 472.889
-120.405 -29.8655 466.301
-155.379 -40.3605 439.229
-14.4424 41.4695 505.28
156.205 -15.8556 528.371
-62.634 -62.9482 478.471
-6.23953 -23.0548 488.388
-149.429 -29.4634 446.556
141.246 -13.7707 532.979
-34.8268 -43.1813 475.297
-37.1878 38.1605 504.009
-90.5402 9.19414 482.774
54.5611 -80.0466 531.858
93.4109 -75.2171 556.039
-63.5964 15.0809 495.784
-66.7591 -43.841 475.057
-70.0296 -27.5491 472.934
-24.4272 -42.3762 478.783
96.9823 -11.2696 536.708
-157.102 -26.8588 441.082
-67.8086 -38.2583 473.345
133.353 -62.3226 525.302
112.914 -8.54584 539.703
151.973 -87.8592 547.219
-18.1473 44.6348 507.867
-174.38 26.3198 1141.97
-33.5389 36.9107 506.237
115.803 -35.3974 519.526
150.247 -83.0439 537.779
-45.885 -28.7937 476.938
-106.945 -7.14681 471.11
-56.2657 25.0664 495.693
-75.2346 -34.7054 471.67
151.142 2.90122 541.315
-22.5261 -4.52888 493.66
124.534 -13.7148 538.693
-130.175 -5.83409 478.787
109.846 -24.77 524.603
129.185 -16.6515 518.765
-112.806 -12.0769 470.221
-95.7406 1.95301 477.106
-75.9894 -34.9657 473.217
-160.025 -28.6206 437.432
-171.144 -33.7181 433.912
-131.017 -24.6667 471.306
-6.19272 29.1688 509.557
-5.74044 -88.8645 492.515
-132.372 -54.3286 468.679
32.2146 -18.9624 503.515
26.2201 -100.831 494.159
118.394 -39.8068 518.503
-93.4565 -54.8486 468.884
-144.976 -51.3013 456.582
-441.253 -187.091 1205.27
20.0064 -79.9272 515.283
118.361 -17.9502 518.648
43.8891 28.6957 534.646
-90.177 -52.4193 468.654
-11.5634 14.4421 506.375
239.721 -347.84 906.068
125.033 -78.4093 545.254
147.985 1.77771 550.007
-72.6676 8.96869 488.365
-98.919 -5.25935 474.11
118.795 -59.6293 525.998
142.138 -24.7872 526.52
-34.1153 25.8016 498.692
113.863 -61.5254 532.468
110.451 -9.11027 539.067
118.436 1.18461 548.791
-126.973 -6.10949 481.148
-66.4941 9.78839 491.197
-104.666 -20.8273 471.829
-11.0808 -67.4962 508.786
119.204 -17.398 528.681
-223.39 -297.395 1070.67
134.025 -19.3246 521.299
109.539 -36.9374 525.039
-26.2375 -109.43 488.647
-164.38 -25.2976 439.438
55.742 12.8372 543.462
-67.9447 -29.3236 474.685
132.647 -61.4056 528.865
139.62 -8.66727 534.198
-72.561 -44.6842 473.369
-126.516 -14.3816 468.948
-107.251 -37.0669 470.01
110.928 -74.6097 535.873
-72.9954 -48.3038 476.165
-36.9619 -32.2637 476.287
-8.85934 -100.776 488.5
128.829 -32.5835 518.53
-155.187 -29.1625 440.072
-128.888 -10.5705 475.669
5.7345 -116.464 495.875
-90.3428 -43.5264 466.149
-17.1961 -90.4295 491.116
-23.9715 -4.03895 491.273
-67.9492 13.3346 488.967
9.7777 -26.5963 490.799
-130.791 -12.8765 470.984
-75.0542 -25.8343 474.516
113.33 -4.43351 542.73
120.182 -47.7146 519.252
-18.2518 -108.677 486.905
-9.26806 43.3668 505.44
-21.6093 36.0645 497.874
-84.0866 -13.4281 474.199
-156.165 -26.5014 443.958
-130.891 -37.4727 469.236
147.731 -4.69129 542.945
-215.305 -65.7787 1072.57
-142.869 -41.1808 449.882
-14.695 -12.9683 493.792
115.517 -73.8582 526.628
-256.998 40.5559 1135.72
33.695 26.34 522.484
-29.2345 -12.47 490.901
-17.2009 -84.3149 487.74
117.595 -38.3305 518.141
-72.6235 9.02782 484.346
-154.704 -28.7089 443.478
-23.8612 -94.1573 1112.11
-130.407 -5.54785 478.086
-47.6297 -23.0488 478.639
143.731 -1.4122 547.616
-19.2313 -68.2252 487.913
-22.3995 47.1523 498.643
-249.904 14.5689 1126.65
113.991 -19.9528 525.854
-156.002 -42.9466 445.23
133.657 5.48524 577.045
-188.345 4.89415 1125.51
-144.404 -72.1681 1072.01
-71.1013 -51.6208 479.814
-6.2457 -103.961 489.67
-175.232 -36.8365 434.809
195.33 162.862 1263.41
25.6807 -103.115 498.834
103.492 -4.49515 547.098
-81.3435 11.1414 487.377
-123.881 -39.077 464.098
106.755 -46.9555 525.554
82.952 -1.73683 562.601
-153.762 -39.6837 439.41
-149.665 -43.6754 447.251
-137.013 -19.3773 470.645
-32.7515 33.6217 497.858
117.633 -42.2961 519.243
-156.314 -49.0283 444.745
-4.02517 34.274 511.222
113.8 -14.1762 526.757
118.362 -17.5659 516.805
156.112 -11.7654 531.602
-13.963 -111.553 484.677
-27.061 -22.6227 481.097
-56.0026 -77.7443 483.533
-80.0986 -30.2091 469.889
108.578 -50.4895 527.725
-179.435 -31.6252 441.512
-135.375 -51.2186 469.412
-67.41 -32.969 473.882
-83.2802 -33.5388 468.55
-170.603 -39.2156 435.765
126.695 -34.0273 516.743
112.703 -30.7448 522.286
148.657 6.93316 546.233
-165.148 -41.3582 1098.01
-134.399 -51.3442 469.956
-83.9807 -15.3126 470.015
-137.558 -35.69 452.889
-36.2383 -28.7817 479.357
81.3712 -20.3817 524.619
-69.9865 -30.308 472.793
-137.399 -37.495 453.367
-67.7643 -24.5118 476.532
-6.33866 -95.6435 493.493
-66.4091 -46.5121 476.737
78.702 -14.1704 531.347
118.451 -7.20796 539.498
-133.966 -45.7262 471.711
-112.33 -7.63535 471.971
-93.4683 -50.2542 467.982
-166.048 141.418 1179.19
85.1852 -7.03721 537.894
159.002 -65.5954 524.196
121.039 -12.8925 532.602
-19.0198 -67.5984 487.997
134.558 -60.1969 527.563
-164.02 49.6008 1160.78
-7.41296 -23.3238 487.415
103.537 -77.4254 537.39
-85.9038 -16.4392 474.659
-159.694 -27.1717 438.819
88.1209 -77.9081 552.613
-99.6554 -13.5903 469.136
-495.481 -46.4045 1217.69
-89.3328 -33.0116 466.004
16.2667 -93.4837 504.485
-24.3414 42.3384 495.325
157.676 -68.3601 523.582
143.951 -8.88243 537.208
125.637 -27.3022 517.481
83.7585 -29.9125 511.41
-67.6228 -51.3205 481.183
-126.306 -12.5536 469.582
-120.174 -27.236 467.016
-154.137 -21.153 449.746
86.7508 -396.134 924.673
157.656 -36.2326 523.964
-280.927 91.5554 1166.71
138.692 -3.92334 538.294
109.612 -31.1012 523.568
38.588 9.76427 534.874
51.3093 -91.2862 512.922
154.576 -5.20507 533.271
-24.1506 -64.573 485.185
109.761 -64.8364 529.157
150.018 -9.95328 537.321
-25.8091 -0.922446 491.296
-25.9925 -21.7112 481.868
-94.7064 -50.3568 475.682
-53.9003 -90.3222 483.973
-86.223 -41.9027 467.084
19.9641 -107.245 497.057
-60.6906 -57.5748 474.243
-105.305 -3.77046 475.452
-133.933 -10.6493 468.855
-66.7153 -42.3017 472.661
-39.8217 30.1593 492.172
-16.2471 34.0011 505.155
-237.052 51.1754 1137
-4.81448 -115.648 492.314
-125.764 -33.4355 468.37
1.26817 -101.834 495.603
-129.975 -49.8256 469.441
-15.6227 45.2477 505.295
-37.5769 37.0691 497.688
-56.7123 26.9577 496.729
-71.7832 -5.93067 474.553
-102.31 -7.07196 469.795
-51.5418 20.1635 494.649
-32.8238 -32.8777 478.152
-139.466 -38.717 451.841
137.588 -6.00679 539.249
116.705 -7.71817 539.017
-29.6813 -40.7072 476.214
-14.9855 25.9349 507.489
-161.196 -36.7809 440.439
-89.5525 -57.9493 470.071
175.578 -11.9649 533.552
-20.1372 45.9787 505.424
-156.966 -45.2282 438.714
112.624 -10.0459 536.212
-159.478 -27.9084 438.446
-70.5511 -32.8891 474.493
-180.883 -38.2752 442.177
-172.62 -30.4176 433.556
144.712 -1.86356 548.927
111.239 -30.8668 524.385
123.964 -53.3604 522.244
-140.869 -36.2693 445.936
-68.986 -46.457 474.163
129.416 -29.4052 518.284
-110.169 -16.5005 464.918
-19.512 2.10137 496.176
-15.3756 -25.2907 483.058
-111.205 -15.027 466.754
128.502 -19.2143 517.214
-143.869 -39.4527 446.659
-17.0764 38.1486 505.118
-71.9012 -29.3088 472.138
-79.1036 -26.2292 471.522
-128.121 -34.4686 469.513
94.761 -33.8652 525.617
-122.044 -27.0171 468.016
127.837 -61.7843 528.722
116.676 -33.1539 513.317
-132.863 -58.6737 471.251
-23.2192 -62.5361 486.817
-28.3682 -62.2225 483.556
146.645 -2.07951 556.002
-29.1714 -104.432 480.821
88.6189 -9.53689 556.048
-2.68039 -109.034 487.426
0.0612977 -110.072 487.423
-9.97424 -116.944 484.123
81.9162 -12.8426 534.84
-81.1221 -23.2896 471.787
-48.487 25.5265 494.622
-18.5122 43.1616 501.462
-16.9073 36.0771 499.939
-16.4822 32.0998 502.71
-26.6221 -26.2583 480.523
-51.2076 -29.2321 476.376
-118.091 -35.4614 466.378
-146.394 -32.6461 444.265
-14.5778 34.7353 506.283
-86.613 -55.111 471.821
-9.14764 47.8675 506.626
154.545 -76.8461 529.432
49.7713 -237.048 814.171
-240.314 -342.334 1099.91
3.81092 -108.019 486.976
-158.077 -48.4312 442.198
-72.0063 -408.675 1166.46
16.2695 35.7032 519.03
273.926 -41.8884 1234.05
-0.58835 -115.21 493.376
-27.6669 21.7332 499.623
119.346 -17.1584 519.014
-156.315 -32.0575 441.695
-69.136 -36.2352 472.644
-69.7148 -40.7087 472.879
-64.9279 -52.446 480.563
115.56 -59.1125 524.237
-216.174 -227.874 1042.33
-126.441 -0.724306 1147.14
-58.1689 22.2927 494.844
-125.708 -19.2679 468.926
-64.3897 13.6025 492.78
-209.092 25.4977 1135.54
-59.9601 -7.74843 480.426
-21.5011 -22.5007 481.455
105.86 -50.4702 526.976
82.4784 -17.4642 525.448
118.32 -19.3589 528.888
4.47832 -26.4507 488.961
-134.79 -33.8236 456.974
127.209 -11.3847 529.713
-73.1165 -41.1613 471.624
117.2 -57.8743 526.422
-96.0853 -53.824 469.205
118.541 -15.5219 527.979
-43.686 -60.3554 481.172
127.981 -66.5072 528.23
-81.4701 -68.2173 474.3
-1.28689 -120.581 492.028
-167.629 -44.5512 435.157
-43.8828 34.5046 502.195
-125.55 -13.7685 468.479
-57.6005 23.7689 497.907
103.156 -53.8867 529.498
-59.8583 13.7152 492.283
-119.178 -46.7157 467.673
165.453 5.84377 549.169
-111.378 -6.00869 471.94
133.881 -65.7115 529.256
106.018 -6.93152 540.405
140.443 -9.36096 533.461
119.94 -38.3432 516.873
-120 -11.5782 469.929
-40.658 26.8549 495.863
121.127 -16.4575 516.974
-133.576 -16.211 471.637
116.225 -28.3249 518.358
88.9773 -27.3082 512.519
58.5812 -26.5824 508.725
-26.1892 -25.5797 480.77
120.799 1.12908 548.633
-169.712 -32.9325 434.155
119.412 -5.5308 539.772
-143.364 -34.0325 445.691
-156.467 -24.1894 445.517
118.503 -71.3371 532.598
119.348 -43.1096 520.551
-87.3054 -8.30235 470.555
-116.853 -39.8914 466.228
-171.47 -37.7551 434.98
-129.381 -12.2845 475.609
-157.961 -47.3829 441.846
-74.8975 -51.7726 478.896
-131.416 -53.7278 468.849
132.372 -21.3754 517.166
-24.8666 -55.9663 483.666
-96.5877 -54.6913 469.533
134.714 -60.2842 525.986
-60.4426 -20.407 481.226
130.729 -64.7309 526.404
-59.5753 -60.4033 475.922
-65.6699 -86.6448 485.651
-84.656 -61.7215 474.24
-62.3403 -22.0692 479.894
-131.334 -64.0172 474.667
126.465 -3.21355 543.705
-24.7027 46.5316 501.9
-4.09698 45.8375 504.842
-158.975 -26.3071 439.714
130.297 -9.04758 540.748
-43.2623 -23.8399 479.81
-5.57908 34.8222 506.051
-78.6693 12.6902 489.863
-74.9393 12.2269 487.479
-101.001 2.98865 480.378
-54.8333 16.9313 494.052
108.911 0.000267188 547.531
138.099 -5.73728 537.389
139.057 -7.48158 536.036
-11.7192 46.9898 508.609
-172.615 -28.4969 1108.53
-113.188 -7.68153 471.925
-16.4432 -65.2629 495.082
119.89 -5.04392 539.805
-94.313 -12.3466 469.06
-116.317 -14.8627 466.867
114.436 -24.3073 521.206
-261.562 20.287 1125.99
-79.4328 -22.1596 475.086
57.458 -27.0387 510.048
58.0664 -27.8644 508.648
-182.393 -27.1248 448.413
-134.382 -40.9608 471.385
-168.925 -28.519 434.398
-154.988 -29.0458 441.026
-160.457 -42.1917 441.322
-127.829 -48.5347 470.392
-131.512 -31.7395 469.488
-96.8654 -48.7229 466.343
-84.0927 -49.6077 470.364
-18.6654 36.144 503.097
130.484 -56.813 524.706
114.61 -76.8664 529.36
-76.8547 -81.0998 483.754
113.199 -2.32888 543.895
41.2217 -89.8261 506.023
-161.285 -38.0769 437.164
-3.79766 -105.978 490.007
155.551 -131.158 573.74
122.818 -20.7742 516.616
-145.167 -26.1422 453.086
-70.3997 -49.8489 471.409
-25.1859 -55.3676 480.524
156.97 3.72458 545.964
131.941 -0.0968868 550.289
126.743 -32.9902 514.28
84.2626 -10.0097 561.578
-27.3164 37.3798 499.037
-143.129 -33.1712 446.658
-176.939 -344.759 1093.68
-20.6657 -100.804 480.413
133.619 5.20149 585.923
133.72 3.2802 581.068
109.77 -50.5304 528.138
168.891 5.80368 555.862
-69.4845 10.208 491.157
1.36157 -100.344 490.761
126.104 -17.3631 521.904
54.3616 -13.8124 514.508
101.219 -49.2637 529.406
-167.28 -27.7292 435.252
-161.359 -30.5825 437.07
108.058 -8.9609 541.031
-57.7805 -41.7721 474.535
145.101 5.04853 558.254
119.924 -12.5649 532.963
83.4686 -25.3494 511.019
-45.0487 -19.7741 481.307
117.17 -30.0604 513.755
-75.0878 -38.1043 472.893
-148.342 -32.531 447.016
-37.8313 -49.873 475.966
3.14365 -101.882 494.586
-88.4903 -47.0068 466.761
-2.50172 45.9848 508.296
-6.98571 -102.485 485.852
-88.4337 -67.0109 473.023
-4.60413 -110.196 486.049
152.616 1.29222 542.898
-42.1549 24.5726 495.672
132.431 -6.534 540.906
-87.7088 -63.4415 469.07
-98.3826 0.109786 479.086
36.7527 -101.297 506.004
-41.3598 -7.7388 485.589
-69.8589 -31.4092 473.833
86.7878 -25.3854 512.319
-28.4788 -19.9994 484.006
103.32 -74.0792 530.358
-44.0498 -28.8987 476.913
-156.164 -22.2117 448.428
-160.637 -33.7738 438.488
-87.9586 -59.2836 468.774
-20.8234 42.0088 506.757
-10.8856 31.3555 507.461
141.758 -13.2929 533.45
109.511 -24.0864 524.488
-127.997 -11.7546 475.257
113.073 -29.2789 521.172
-24.9561 -20.7491 484.627
-78.2278 -28.5157 472.772
108.351 -62.5726 528.058
151.342 -0.238734 538.964
121.37 -42.1989 519.733
-141.472 -33.3273 449.713
-103.186 -3.5425 476.252
110.789 -76.756 532.584
-217.603 -242.138 1048.81
-98.5259 -53.6216 466.874
40.8023 -87.7911 502.669
140.542 6.03064 568.341
-75.4446 16.7723 498.361
-119.2 -34.9214 465.471
100.013 -5.72134 556.073
123.181 -6.57939 541.642
140.15 -7.91324 537.356
77.3553 -20.5369 526.491
-4.49186 -103.913 486.039
129.411 -18.865 516.392
102.401 -6.69364 542.034
-120.523 -12.9227 471.536
60.8833 -27.4482 509.111
-157.917 -25.928 441.187
-130.906 -13.8996 442.976
114.825 -7.8494 539.129
75.1623 -22.7863 520.111
-19.6635 48.0625 505.84
-137.335 -33.5896 453.746
-18.1409 37.2666 503.92
-127.865 -10.5763 472.428
-36.4989 33.4884 500.665
