112.703 -135.468 761.11
97.0766 -116.626 731.108
98.5178 -90.036 692.615
215.84 -109.315 788.17
208.081 -105.469 790.315
9.15328 -52.9271 646.872
198.251 -137.324 764.163
44.5706 -68.0307 666.179
222.474 -88.5627 804.039
112.757 -77.0291 703.278
50.3029 -69.8819 667.543
-34.9631 -18.2364 609.508
61.7407 -62.693 666.213
191.444 -78.3971 773.681
-19.3849 -32.1026 621.116
217.736 -82.3283 797.422
-43.0707 -46.5661 641.933
68.8543 -48.0055 675.861
38.4486 -32.9992 655.821
138.809 -144.002 769.544
85.7014 -50.8889 682.134
113.222 -13.4261 723.075
58.1369 -0.343269 688.857
-63.5461 -11.5074 624.409
-27.0668 99.0375 658.201
173.155 -53.6011 764.777
61.4373 -36.328 674.604
185.935 5.61899 784.805
-29.2766 -19.1028 608.88
50.4462 -137.438 777.205
-66.9155 -15.4484 626.483
172.707 -46.6292 766.917
134.94 -30.5703 738.738
-40.3784 1.76806 601.221
109.184 -15.4249 703.089
39.5976 5.61984 674.515
-94.6381 32.1017 708.525
126.702 0.556955 743.662
-78.3481 48.4916 698.081
18.0394 52.3662 670.913
38.0843 20.9507 682.251
-43.5618 81.5034 665.471
-14.0208 44.4174 636.82
-48.3964 -60.2307 671.323
38.9539 -96.8666 710.418
96.925 48.0326 734.998
89.8515 -127.556 747.678
-31.9049 -22.7278 603.743
-9.76542 54.2179 643.598
52.1194 -94.0238 702.94
150.863 -55.7739 746.305
149.645 -160.682 796.029
67.8431 -85.6614 689.769
97.7564 51.3158 736.973
80.1549 -62.6641 681.223
-14.0346 58.5415 643.476
66.0396 70.694 713.729
-50.6017 -16.1756 598.597
42.0823 86.5788 706.192
-84.495 29.4655 688.867
43.3475 108.752 710.589
87.0224 -172.916 849.571
94.0923 -163.613 817.174
54.6169 103.299 719.393
22.5405 -129.143 772.738
-23.0241 -114.597 766.96
105.791 -7.76324 711.671
-23.5942 -6.43616 613.534
54.1432 -116.106 741.339
59.7719 7.35948 693.357
-33.4512 -36.4763 623.887
-58.8068 -83.2391 714.661
36.284 -106.443 726.639
160.164 -137.067 763.399
-46.3878 -78.5556 704.662
145.831 -139.622 762.244
194.564 -136.822 763.507
67.0406 -104.35 712.78
81.6982 -100.7 709.248
-30.4424 -95.7457 727.128
59.4594 -104.591 718.682
-117.336 -77.2998 725.428
69.9194 -96.8052 704.186
15.1755 -107.624 734.204
74.0633 -177.502 867.203
-15.8705 -73.7725 682.015
-21.353 -52.289 645.038
82.8351 -175.467 848.058
152.737 -114.225 732.28
-17.6878 -68.5209 676.159
96.1265 -95.3596 701.64
206.59 -59.602 791.569
4.921 -35.5982 631.272
-77.2825 40.7056 686.338
90.386 -91.8525 699.684
30.9865 -76.169 677.346
60.8322 -82.7182 684.639
189.292 -34.6578 787.692
49.1216 -78.5325 680.304
60.5312 -79.8856 680.798
203.206 -44.9092 791.246
25.998 -69.9676 669.672
88.904 -80.0479 685.586
96.4354 -81.3953 689.752
149.733 -116.216 734.893
34.3878 -63.8085 657.681
83.8201 -64.5663 682.11
47.7292 75.4761 697.355
12.2784 -50.026 642.458
21.1386 -50.7534 643.239
85.9994 -61.3747 682.913
206.888 -9.2507 812.344
-53.8632 -22.3278 608.081
66.9917 -42.4556 677.488
-20.7715 -20.0639 612.716
67.8783 -32.5366 681.109
169.979 -74.4867 756.085
-55.9843 -6.01445 616.739
-2.43346 -14.9627 628.004
15.7764 -45.7158 633.872
164.749 -37.5753 765.385
10.1429 33.0497 654.703
2.89572 -13.4202 633.858
-34.1156 -6.29574 605.963
203.971 -123.558 775.246
-26.9812 -37.3201 623.044
-82.4321 19.7252 678.553
-28.7585 56.9045 627.895
-13.5034 -77.9149 678.388
-29.012 15.2948 614.046
-3.75187 67.347 653.465
-10.9221 45.77 636.552
-35.1739 -52.3248 647.569
14.6065 12.0971 652.524
59.4162 -104.376 719.348
55.9898 15.0183 686.355
7.69095 -125.461 779.339
66.7751 32.3255 702.724
102.008 -89.1626 697.322
8.75564 25.0611 651.152
-3.51206 -75.2591 680.523
46.1604 27.6526 682.087
9.60363 46.5055 659.501
-30.676 -71.9111 682.954
9.40269 33.6277 655.123
-32.7521 49.7553 626.756
11.0133 77.3541 664.26
47.034 -0.871567 674.051
224.909 -55.8131 809.359
139.945 23.7762 762.264
-14.8194 -83.5183 697.355
34.5317 -88.6869 695.377
151.439 22.9773 774.904
-81.3628 -64.7216 681.201
165.328 -136.772 762.455
-24.7023 37.1394 625.746
-11.4807 37.5711 640.49
96.1078 -108.798 719.898
58.2669 28.0027 689.864
4.42432 36.0631 650.345
-16.5208 39.1026 637.191
-10.9299 40.5501 638.945
61.0847 -71.3192 670.686
12.7491 45.7084 665.923
112.981 39.0367 746.073
-18.3435 59.4748 638.577
108.932 -17.113 708.153
-24.9098 92.9216 647.756
104.675 12.1887 728.156
19.1088 93.5505 683.564
-8.86458 42.0713 641.367
193.812 -99.0941 773.421
-22.9848 101.168 650.955
39.1368 45.2386 684.561
149.339 -153.485 785.283
139.293 -143.581 769.125
-62.1222 27.3106 653.708
-116.843 42.4527 745.358
94.7404 -127.785 750.832
125.586 -131.635 753.181
-26.5359 -95.6512 730.458
5.72367 -92.0503 709.444
83.2208 -111.679 721.572
-21.7942 -40.1603 629.661
122.152 -0.807569 737.453
181.378 -134.852 757.842
209.629 -53.2405 805.049
-42.2056 34.2802 628.817
173.865 -129.226 749.638
33.8545 -108.01 731.114
20.8913 -30.4177 642.796
77.1278 23.637 724.679
84.6379 -106.769 717.621
115.23 -151.042 785.868
-33.5136 -76.8481 690.759
53.3755 -91.2405 696.12
36.6369 -79.455 681.437
67.902 -85.9686 689.49
42.2102 -79.5367 681.436
20.7476 -92.8159 706.469
100.528 -13.5701 709.436
35.9331 -74.4849 674.894
-57.7185 -51.6943 647.794
107.931 -63.2896 682.991
134.974 -141.591 766.441
-86.707 7.85643 675.095
73.7308 -51.6272 678.235
-52.2339 13.9259 628.953
8.98721 3.93508 641.631
-107.404 54.5051 749.461
45.7068 9.3628 680.515
-36.3013 18.0468 609.307
65.2752 -4.88521 689.321
96.3902 -54.4349 677.791
217.608 -2.52697 823.366
52.4686 -124.669 751.692
108.171 -44.2532 691.251
-2.51423 28.4885 643.507
-9.10469 44.4918 637.449
-36.6529 33.0898 619.39
-9.7831 34.9402 638.143
-34.9988 56.3678 634.699
-5.0241 54.6506 649.464
-10.2573 65.4568 647.895
71.5929 -165.17 834.165
-24.8065 75.7166 638.745
95.4328 -170.746 829.917
163.713 -32.1295 764.355
51.8467 79.3794 707.568
170.978 -32.4525 775.403
29.5843 81.5863 686.89
210.782 -56.8888 796.72
49.2616 96.1199 710.966
23.5328 117.734 695.04
90.7418 -146.845 786.785
48.1161 -140.707 783.425
-4.88393 -28.2075 622.713
79.4596 -135.362 765.356
136.952 -6.6679 749.676
158.657 -146.831 776.643
108.134 -156.607 795.666
-121.293 -71.5593 730.763
-95.7426 -72.6305 704.819
-67.9002 -59.7629 668.615
19.7062 -90.3708 703.794
-24.9416 -17.4698 609.71
-53.3253 45.6506 661.59
31.3525 -80.2996 683.013
69.7398 -118.906 735.368
191.514 6.88754 796.48
2.19741 73.9328 668.974
53.861 -79.8525 680.307
136.497 -10.5684 743.852
35.3492 -24.5402 656.001
-10.6962 30.1818 637.494
209.95 -114.046 782.459
73.0315 -111.151 725.143
-53.8693 -48.7908 646.772
-22.787 -48.8263 644.459
99.8709 -58.4102 677.508
108.237 -4.12103 727.915
89.733 -15.1571 701.728
129.856 -16.4223 740.446
158.334 -16.5207 765.223
115.78 7.85255 735.02
109.03 -90.1954 700.393
34.7206 48.7936 678.039
90.1697 10.8273 714.254
85.9254 -174.53 848.936
180.726 -145.473 769.526
-67.6778 50.8234 685.763
205.834 -114.835 774.867
-37.7653 52.8965 636.589
76.6953 -68.2671 680.999
-47.1806 69.1274 663.762
-10.698 -103.337 741.87
-20.5934 90.6633 648.762
88.5511 -163.402 823.884
170.955 -140.547 766.472
82.5305 -105.801 715.922
203.845 -74.9178 783.659
-15.5565 -91.0718 709.852
199.174 -74.6928 784.497
187.401 -56.0379 777.635
2.0135 -74.1968 679.789
199.382 -72.3112 785.261
139.198 -29.5732 742.797
56.399 -85.7277 685.799
214.779 -67.3344 798.546
80.7061 -84.9998 687.579
207.418 -64.5762 792.097
49.7638 -50.5127 670.723
112.455 -57.6757 681.726
107.556 0.71116 719.794
68.3666 -103.412 713.623
92.8168 -115.219 732.535
-67.8224 37.5568 668.616
-11.1619 36.7834 637.071
-23.7034 16.8888 614.092
-13.6342 40.1052 637.397
-21.1631 42.9405 632.442
-3.25994 70.5889 664.233
158.031 17.7125 774.322
61.8491 30.9395 696.489
5.41697 120.486 697.336
47.1786 80.6413 703.65
-15.86 117.088 652.738
125.84 -148.985 780.563
9.52436 -53.2698 644.156
-33.1531 -120.621 777.953
202.749 -139.52 767.893
24.0089 -84.7571 690.037
-23.8112 -60.5424 660.64
143.174 -85.8165 729.609
-125.477 32.368 755.345
82.4672 -74.2119 654.844
150.789 -87.0128 735.326
-120.512 31.7271 745.586
31.7236 -58.8272 655.62
26.6021 -107.897 732.662
100.223 49.0996 737.13
35.9393 -16.2792 658.352
207.23 -27.0247 804.547
201.35 -148.08 776.38
63.8239 17.4877 692.755
0.927341 35.2804 648.433
67.2916 -92.7305 698.47
-61.7027 -48.686 643.316
-29.8037 30.3198 618.533
67.7749 -43.1534 681.822
-42.2436 98.1028 679.757
-11.0849 -42.7237 633.691
-10.5427 -94.343 717.457
105.456 -42.1177 680.219
165.641 -45.6118 762.953
98.8638 -86.1619 691.116
175.86 28.6713 795.739
-46.2517 -11.3651 597.157
-39.9424 59.156 647.245
46.2889 -144.704 788.557
105.834 -90.1182 706.696
210.308 -43.4254 808.522
19.33 26.329 660.038
41.5478 104.025 715.237
-5.93406 126.111 672.442
151.514 85.4153 773.906
41.9049 -108.602 727.807
50.3554 -96.0212 705.126
34.28 -81.4763 680.432
-43.2607 -56.4127 659.383
207.808 -94.8209 782.255
205.146 -91.915 780.373
34.7852 -48.8202 648.505
88.1388 -59.4294 683.396
-12.5001 -18.7122 618.288
151.084 -40.4947 752.6
-57.8884 17.1322 641.941
-2.87974 53.9978 644.507
10.3559 5.29657 646.033
37.2951 -114.652 743.984
-11.0602 21.3788 634.372
34.5737 -113.201 738.837
13.479 28.6843 658.949
-24.5468 67.1456 639.609
-14.4968 33.0706 636.618
15.3433 30.7543 658.544
13.6271 -120.436 761.792
206.059 -110.634 776.43
4.68139 -121.424 767.215
129.806 -141.217 769.584
-138.681 -78.1561 752.163
-41.0941 -56.1117 653.412
-144.373 -72.8014 748.903
30.8712 -76.1178 679.434
6.34144 -115.921 758.319
100.104 -126.157 745.41
-4.50712 -123.6 777.148
54.9844 -65.9876 665.457
-25.0595 -99.5176 733.709
-6.80008 -120.065 772.151
-100.473 -77.0401 722.361
49.1685 -127.651 761.723
82.8211 -66.7779 679.502
-93.1595 -71.645 709.524
12.9179 -117.46 756.706
47.9781 -59.4459 659.158
-167.202 -21.409 777.611
12.5387 -113.651 752.144
176.8 -79.4346 757.048
-154.867 -18.4683 762.278
69.3999 -72.2246 674.412
40.601 -98.629 711.711
-121.529 -1.79152 721.394
151.826 -109.581 728.48
45.702 -105.067 724.518
48.8605 -82.4095 684.369
42.1171 -77.7731 678.757
112.93 -90.7299 701.147
91.2428 -124.376 747.282
72.1761 -113.55 732.861
8.94595 -42.4691 629.939
-134.163 -11.3307 734.874
-37.1229 -16.7093 595.363
11.7575 -91.9943 707.211
51.7844 -70.8492 667.331
184.451 -82.8557 764.554
91.872 -60.3994 679.076
183.12 -45.6731 772.896
0.129724 -35.3993 627.518
61.4636 -44.8221 671.134
8.77743 -28.7999 634.332
-35.9468 -19.3318 605.984
-2.57877 29.1434 642.995
-48.0829 -10.3323 600.893
22.4631 -23.5928 646.666
126.703 -3.184 743.232
-7.44545 -5.5001 627.177
-62.5395 40.6793 665.902
39.7932 18.805 674.802
47.8643 57.865 694.307
29.5786 20.6587 667.105
29.6425 26.8415 670.36
31.7577 51.2012 679.858
63.069 -110.003 731.022
33.5267 36.3905 677.26
-0.155696 39.6432 648.669
104.903 -115.228 727.007
23.7673 31.7974 668.548
-32.2242 47.3422 624.72
33.4541 48.556 679.813
15.3237 55.7417 667.01
-17.5217 88.0697 652.366
93.4771 -58.0469 675.435
113.304 -174.166 836.227
67.4848 -149.994 799.952
81.5216 63.5046 727.624
203.921 4.33228 814.181
54.4975 -1.69898 685.605
198.133 -43.1111 795.021
157.787 -58.8174 755.822
-83.7972 46.4912 701.086
-6.45733 -10.8747 627.08
20.9189 -103.561 728.272
-27.8037 -108.661 757
35.1171 -132.907 779.137
1.3566 65.5753 657.313
-23.3235 51.55 632.868
70.337 -91.0856 693.619
189.245 -34.0215 785.351
137.684 -147.091 771.375
51.2559 72.6104 703.166
87.4536 -45.2649 682.546
118.929 -153.053 791.201
-105.054 -81.6383 736.646
194.239 -42.3426 789.339
-0.243405 137.01 683.164
-44.0902 -30.2018 618.75
79.594 -59.5327 680.476
1.96673 -122.462 770.875
87.0047 5.45025 707.368
15.2847 -79.6852 683.096
-33.5447 38.9489 622.784
99.2828 -114.95 730.236
90.6731 -114.952 732.965
-17.886 -36.5709 626.903
125.369 -128.076 748.125
-49.4741 -108.13 769.909
157.435 -41.4602 753.765
-10.0866 -40.5409 624.331
104.76 -144.915 778.338
8.37918 21.4891 656.243
-51.8209 -86.4985 715.071
-2.02723 31.5848 642.818
-33.5749 -114.89 773.519
96.2385 -92.617 698.284
26.6146 -101.431 717.223
-69.6968 -62.2109 670.942
30.9922 114.414 700.133
121.885 -162.882 807.328
36.0672 -112.91 742.372
118.445 -164.408 810.79
60.9516 -82.7574 685.447
102.282 -118.708 739.627
14.7241 98.6847 683.936
42.6755 -84.4349 688.94
190.541 -53.7714 780.83
92.7014 -115.718 731.529
-17.2116 -5.05416 620.168
93.8111 -92.9346 697.962
88.2441 -128.709 755.783
170.86 -40.8481 765.854
93.6481 -54.6483 680.962
-0.516353 108.828 677.695
77.8316 -55.3612 685.051
-47.3847 -13.9277 596.761
-47.3349 -12.1908 597.491
79.2726 -3.62111 698.519
210.816 -60.7416 796.159
110.327 -104.787 715.782
45.5023 -34.6752 664.194
85.8862 -86.4489 689.694
-14.7958 -11.4738 619.968
78.4453 9.83434 704.659
107.775 -97.8592 711.473
126.732 -3.79467 739.718
155.356 -113.906 731.314
90.6991 4.88511 711.199
0.817009 -60.974 655.298
11.761 33.4087 657.483
34.5178 3.56431 663.371
28.8993 -70.7049 670.099
142.375 -70.0788 733.366
-29.7231 49.1045 627.872
-10.4183 -109.171 744.517
9.82333 -48.9369 638.74
82.1304 23.6161 711.04
92.9109 61.0859 737.575
73.2541 -154.955 808.012
42.6215 88.5618 706.305
112.621 -175.413 837.598
58.9006 -173.613 867.751
-154.729 -14.3013 763.615
84.7152 -173.834 845.615
86.4416 -115.588 729.987
196.318 -28.9789 791.977
35.7792 1.22742 667.591
-43.7887 -3.07367 603.086
23.2193 -118.833 752.134
100.466 -164.823 822.825
162.693 -144.171 771.111
-156.699 -41.2345 745.178
70.2077 -129.888 761.663
-48.7916 74.3377 670.92
94.2392 -178.442 851.523
117.597 -166.86 816.62
-114.943 -79.1959 732.948
73.6707 -0.651233 695.505
61.0557 -152.06 802.713
29.2856 51.5745 675.218
75.4292 -37.281 685.845
-14.7654 92.9743 652.197
205.572 -110.398 777.922
-18.4394 -110.535 748.381
13.7047 30.0224 654.483
107.505 -167.408 830.233
112.696 -106.349 716.876
64.1061 -68.8119 673.169
-36.5995 -57.4297 655.44
33.331 -53.3137 649.331
55.8084 -62.5401 662.729
66.6417 -2.75601 690.335
-10.9179 50.7796 639.972
106.016 -162.065 810.165
62.614 -52.1627 667.407
144.613 -133.745 755.787
-8.49826 -64.4184 666.363
69.9121 -97.2918 705.032
219.627 -64.8358 806.065
97.9658 -98.4292 709.472
27.8114 -53.5332 649.687
210.703 -82.7921 795.432
-12.5914 -107.249 746.764
43.9497 -76.1969 677.572
48.4094 -66.7713 665.92
-4.43694 -32.7765 619.543
-55.6318 -41.6524 635.907
70.3642 -73.033 673.644
189.167 -46.5566 782.996
100.932 -31.6481 686.66
-59.0404 -7.95855 616.765
85.8914 -57.4641 683.405
126.473 -70.8485 717.774
89.4175 6.17343 714.856
59.8342 -67.4551 664.272
130.653 -14.2432 740.053
0.50226 -60.5891 655.181
93.6055 -71.0067 695.09
-122.106 -60.7904 695.37
-38.0029 -111.164 769.796
-21.8211 -105.037 747.693
51.3694 87.1325 711.123
-40.2708 14.897 610.432
12.0423 -105.927 732.231
110.671 -17.1308 707.43
-102.598 -67.5552 708.388
-6.5074 -74.6097 681.009
4.51567 137.318 691.989
92.4816 -88.6896 692.645
137.719 -57.5004 734.706
65.4732 -82.9108 686.456
-81.1693 73.2809 723.668
-64.6069 -74.0773 696.739
23.4937 -72.6119 670.364
31.6332 -76.7815 676.819
118.347 -34.1711 724.195
148.58 -149.704 782.423
-61.1894 70.1591 687.376
-103.836 -72.0822 709.521
35.6387 47.1836 681.752
32.1436 -86.5823 688.898
65.5343 -97.7384 706.909
28.916 -103.039 723.862
85.5506 -135.738 768.452
109.247 -128.317 749.146
80.1662 -13.9581 692.208
56.8934 -81.9841 684.554
19.8924 24.1213 662.811
47.5624 -99.551 709.855
-52.5189 -55.3066 657.898
-3.01492 -97.0461 728.914
109.121 -134.213 757.885
-7.40324 41.3217 642.607
212.002 -121.566 782.12
-138.278 -74.8669 755.671
-55.7647 -62.6231 670.74
70.0024 -102.418 715.217
-30.8852 -60.8246 661.025
103.296 -102.115 711.283
141.914 -1.82727 756.655
14.4743 26.6211 657.61
195.558 -132.452 761.024
-122.921 -68.2169 710.176
29.111 -115.619 744.198
7.26146 46.2032 656.388
113.028 -101.775 710.5
106.419 -101.741 712.8
-27.7211 129.19 685.944
-7.61938 -109.503 747.136
-36.6575 62.5495 641.571
142.439 -27.8281 746.166
-21.5441 -55.1369 652.714
-5.11398 -60.9506 660.885
72.1029 68.723 720.728
-151.75 -6.34165 762.04
190.243 -92.6356 771.435
145.821 -108.526 725.185
80.3655 -108.272 716.845
-10.6851 -91.6057 712.594
171.277 -44.0196 765.742
154.288 -132.814 750.207
110.972 -91.7157 699.704
-16.9255 -16.679 617.318
51.6175 -99.6703 712.517
75.2031 -70.2808 675.944
216.431 -96.162 790.772
203.159 -69.0675 793.038
-61.0393 -26.879 614.649
117.635 -159.795 804.642
-37.5782 -1.21806 602.583
185.049 -80.2316 767.618
10.3212 40.3871 657.892
22.2008 -46.5395 638.833
81.2708 -106.863 718.29
-26.6864 45.1204 627.523
-22.0689 34.4739 631.673
57.2438 -40.5808 673.05
194.441 -64.6353 783.338
8.09337 -26.287 634.664
58.4108 -76.0476 676.007
9.7357 23.7933 648.615
25.9768 26.1281 663.435
200.888 -72.7829 788.061
183.04 -65.3161 775.189
4.62927 -54.373 648.06
186.675 -29.5323 784.542
175.289 -28.9799 773.751
214.319 -73.1897 796.738
70.6486 -91.0847 695.395
62.7319 -67.4569 665.986
0.246352 -105.377 737.512
146.018 -51.8449 746.909
201.461 -62.9547 785.977
149.937 -42.336 750.047
54.9672 -69.785 669.575
63.721 -37.7732 674.735
-41.9729 -106.802 753.067
26.0287 -83.6441 691.904
-6.32903 -35.7043 626.505
-122.163 -67.1974 708.731
194.984 -34.8593 794.868
-36.6244 -94.0125 728.503
140.958 -140.166 763.465
85.431 -135.914 766.431
63.269 18.4639 693.165
80.7167 -12.1525 695.71
191.958 -29.5085 796.678
122.331 -129.225 753.622
-17.6818 116.518 663.307
217.231 -68.9462 798.094
213.036 -113 781.916
-110.276 60.0143 760.361
-10.7486 -66.0982 665.44
113.911 -152.177 795.674
3.52448 -44.3551 633.2
140.031 -8.82297 752.099
101.063 -144.092 777.309
87.0622 -44.7499 679.889
42.8314 -75.3391 676.042
88.6817 -103.235 714.15
46.1592 -120.499 750.222
-88.6737 34.4141 699.403
109.769 -122.823 741.547
214.732 -103.376 787.799
18.1062 23.65 659.682
-2.62651 -53.1846 647.209
-0.501099 -40.0265 626.96
101.509 83.4489 750.356
25.5154 22.0011 664.91
40.5843 76.3755 691.643
-5.48927 -108.423 744.575
35.1312 24.3244 675.047
-106.968 -80.4725 738.629
-51.2451 39.6844 648.53
151.512 -146.956 776.576
47.1721 -66.4331 666.046
164.745 -136.935 761.671
119.578 -73.0051 712.715
10.6665 -117.89 754.357
-9.26611 -3.31737 626.317
37.4747 45.999 683.332
31.9577 -83.9685 691.614
156.325 -39.8008 758.924
65.4197 -83.2963 684.361
79.4847 63.9435 732.723
18.7817 -75.1903 675.795
5.12886 -99.9693 722.55
156.123 -153.374 787.641
55.9403 8.35482 685.522
31.3972 26.5348 672.292
-51.6275 -89.1407 711.251
100.41 -68.3126 698.225
91.7901 -91.1335 694.258
225.291 22.2 840.495
52.775 -64.2641 663.79
18.2937 -76.9667 681.565
67.7471 -155.779 813.425
9.90802 22.2575 653.698
-34.558 57.3054 633.802
187.966 -81.5321 772.477
67.5454 -92.7443 698.855
-59.4674 38.7311 659.3
-67.0174 -111.521 798.565
4.273 -99.6729 722.752
26.8418 -133.345 781.101
101.062 -13.3854 704.539
135.374 -123.765 741.38
164.187 -26.7854 766.165
38.9558 -168.757 885.53
155.437 -114.502 732.213
48.7276 -62.0252 661.456
-24.5344 -110.124 757.866
206.945 -122.552 775.588
123.596 -73.2744 717.125
58.3749 -125.151 754.489
94.5839 -138.162 767.937
155.954 -132.743 753.681
107.567 -141.162 771.908
119.187 -164.199 808.614
-7.36388 -0.485343 628.32
-28.5417 -77.2531 688.943
-37.0547 25.2658 618.657
-2.42557 40.1413 646.846
153.789 -37.7697 755.847
32.8777 -24.2402 654.719
173.47 -76.074 758.951
174.325 -164.079 798.438
166.463 -48.2111 762.295
164.669 -118.887 739.557
23.983 -94.6166 709.283
61.3946 72.6076 709.335
116.27 -28.5005 718.212
24.3367 -23.5902 649.084
129.438 -143.852 771.399
-0.0136882 -37.0278 627.377
98.4147 -131.992 751.293
115.445 40.5628 745.235
174.731 -134.203 754.833
207.803 -111.569 777.955
113.668 -4.17253 721.798
64.9336 13.2969 699.998
214.582 -60.6699 800.116
-52.5813 -68.7152 686.26
-37.2684 -111.572 767.712
66.5057 -46.2416 676.069
-10.6853 -111.031 753.753
108.046 -134.112 760.402
2.98047 23.1962 643.949
98.8823 -165.877 819.399
205.943 -101.61 787.943
130.278 -100.897 714.48
202.8 -2.44756 808.928
156.124 -58.0318 750.372
78.8593 -77.4523 682.222
75.9353 6.54864 702.516
98.4781 -164.298 823.778
172.058 -78.6696 757.686
229.348 4.53777 836.994
35.2965 -135.601 782.35
180.681 -42.8217 778.351
109.723 -3.99684 719.23
-4.99576 6.87486 633.229
20.0543 63.3123 678.633
9.91637 -121.964 765.6
21.5145 39.6054 662.171
102.003 -94.4117 703.405
153.288 -21.492 762.574
185.797 -140.711 766.875
7.49296 -39.0992 631.536
13.366 -74.0604 679.324
-4.60923 42.7123 642.372
-1.70354 -25.981 627.737
39.9343 109.787 706.15
-16.7596 64.1305 641.757
-17.1372 -41.1283 629.011
-21.5848 -1.97707 616.848
49.0907 -66.5556 665.904
139.939 -81.449 726.732
-92.7016 -63.9498 685.19
103.429 -70.8017 698.722
143.291 -109.158 721.717
132.808 -24.8982 740.75
-3.63237 139.299 681.142
104.903 -19.3749 706.829
60.4091 75.477 714.706
63.4945 -69.8976 669.6
218.879 -58.8114 809.133
71.5449 -72.9955 674.107
81.5953 -103.657 716.698
30.6652 -101.553 719.933
128.625 -50.8374 729.501
-34.0426 -62.1284 664.693
64.029 -0.494526 691.974
128.193 -52.2542 730.983
30.3862 -56.4277 650.25
156.066 -127.457 750.71
187.233 -30.5576 789.719
-11.03 38.4339 646.566
82.4921 -49.4144 676.388
-19.5239 -84.1008 699.485
66.9452 -80.9134 680.499
103.571 -64.8195 686.492
85.9807 -178.14 854.777
198.165 -105.672 772.663
-13.0501 128.906 668.539
-93.968 20.5503 698.654
161.36 -47.8529 754.991
157.537 -8.65876 758.245
-40.2215 -59.519 660.598
1.14767 34.921 650.049
45.9849 -124.104 748.247
19.9984 -98.6771 717.485
35.2308 -109.7 732.888
64.0905 -37.6439 675.059
56.3558 -0.897218 684.739
5.10866 99.7669 670.852
62.632 -39.6973 675.131
-44.0878 -33.7316 620.324
-42.8892 -56.5103 658.774
140.285 -107.614 721.297
42.1967 -107.017 727.391
-23.5609 -6.21348 613.909
146.255 -137.643 758.972
9.56054 -82.182 691.076
184.012 -90.0653 758.845
-31.8515 -21.5037 606.616
211.518 -127.245 777.839
183.963 -85.0723 765.153
30.6075 -71.8099 671.517
144.578 -17.5602 754.623
-44.6804 -60.2347 666.555
208.269 -69.8667 793.497
-9.28954 -122.062 773.535
-37.2046 -40.2593 628.124
-35.1813 -86.2969 728.206
123.472 -103.542 715.609
131.52 -35.1 735.886
31.0274 -50.9385 647.084
20.1976 -127.092 769.786
-13.6167 -70.332 675.207
173.428 -73.5438 763.511
88.5808 -109.568 720.683
44.8575 16.6182 679.585
66.3336 -173.792 870.504
58.101 5.46836 690.57
59.4893 -97.326 705.633
104.377 -58.5545 677.833
0.12966 42.7009 649.507
101.734 -170.405 829.838
79.0618 -48.9197 680.711
-22.6847 9.31123 616.245
78.3119 -170.271 846.889
139.377 -15.6526 750.188
87.5988 -118.877 737.034
-66.3537 34.7966 665.643
-35.4224 -121.894 780.206
199.682 -97.2706 787.332
80.6863 -57.2929 683.417
-0.305155 -94.9247 713.653
-56.1383 -88.9406 718.066
-6.92728 -123.735 778.952
137.324 28.9192 758.906
7.99723 -12.1773 638.691
154.62 -35.4376 745.801
44.7454 -94.1434 708.714
47.076 -68.6536 667.891
49.5577 39.829 691.285
-26.5875 81.0284 639.667
91.974 -178.024 857.236
126.532 -164.992 809.657
-40.7761 -31.8897 617.904
131.799 -161.299 806.979
-43.0627 -13.1745 597.966
187.622 25.5923 803.755
88.7032 -79.4698 686.746
-5.68276 -78.0929 687.866
188.666 -2.73115 797.913
79.2312 -113.018 726.054
125.352 -160.625 808.288
-125.495 -81.0599 756.137
-9.94258 -93.1436 715.506
191.699 -102.826 765.328
44.714 -113.263 738.064
-89.4407 -55.3634 665.808
88.8236 3.47746 706.339
145.62 -25.8972 748.734
6.09304 -8.86315 635.046
29.315 -63.4678 661.748
176.898 -27.1147 772.238
51.5499 -129.102 763.145
-137.33 -58.5378 705.157
-5.92024 -69.5995 674.339
88.4545 -65.866 684.696
57.2253 -144.183 792.252
-107.796 0.434129 699.947
129.972 2.07475 744.986
13.7409 -106.867 732.544
195.029 -102.021 771.571
-44.5927 54.3307 648.88
145.448 -84.4914 729.556
73.0147 -79.1857 682.277
-36.1863 17.9315 609.207
19.2401 104.437 687.242
76.8535 -100.03 707.243
-21.7141 -40.4419 629.627
181.3 -48.6788 773.834
-108.804 27.18 727.415
72.2081 -87.0156 690.159
110.403 -64.0435 704.837
-12.9286 -55.0793 647.865
126.109 -9.31289 740.104
-5.87859 -74.6801 678.356
113.867 -18.9456 724.563
-16.4211 23.9503 638.226
-3.79653 -121.861 773.095
-37.5328 -90.4463 720.275
99.9088 -70.9498 693.169
137.6 -136.874 759.225
6.50472 -102.197 732.478
6.68481 -83.0663 687.12
33.3215 -106.403 726.924
104.628 -106.667 714.141
10.0905 -100.643 720.778
31.8376 -103.044 720.956
-101.386 -69.0326 713.298
185.607 -140.088 763.766
19.397 -97.0754 718.663
161.149 -131.918 750.767
-36.4538 -58.9595 666.378
79.358 -109.584 722.446
-162.913 -20.4389 769.233
177.454 -127.165 751.864
56.4979 -97.6403 706.605
28.0072 -84.1402 692.865
157.094 -111.166 735.848
44.2363 -65.984 665.747
129.289 -99.0836 710.957
121.884 -96.8099 708.819
53.0718 -61.5696 664.335
127.363 -97.5557 711.776
164.841 -81.829 748.795
-33.9478 -58.0193 661.225
41.6629 -58.1596 654.14
34.9876 -71.9099 668.508
61.5419 -77.9898 678.996
202.734 -102.646 783.246
33.4422 -67.3549 666.074
204.86 -98.5763 790.164
-67.4635 -40.9954 637.536
66.3408 -70.1435 672.626
172.719 -71.2288 758.852
99.5126 -74.4406 696.285
115.844 -77.5831 705.273
-73.5053 -17.364 633.79
-62.5617 -38.3063 633.543
171.031 -62.639 767.087
57.3734 -65.3143 667.673
-124.122 8.26145 737.675
93.9894 -70.5801 688.571
88.3295 -67.5836 684.446
-71.8929 -31.9066 623.733
85.7347 -66.614 680.546
144.92 -50.4518 743.526
207.806 -87.3987 785.842
145.521 -48.1381 744.891
42.2424 -57.1512 651.081
140.927 -46.8406 740.287
32.4438 -51.9831 645.944
14.1799 -47.3307 638.621
188.68 -73.1579 773.339
-15.2313 -35.4793 625.481
-64.8961 -22.8643 615.865
-5.10086 -34.5241 624.191
144.315 -59.1988 738.376
161.065 -56.7971 748.548
38.3191 -17.6926 660.776
205.487 -59.6378 789.966
224.467 -41.6221 816.227
-10.8022 -25.8187 621.711
82.1101 -19.3111 702.734
210.84 -58.2154 799.647
179.792 -49.8258 768.964
221.116 -50.1579 809.434
76.8563 -14.5326 693.107
55.0723 -25.8186 673.139
160.899 -39.5783 760.152
2.39346 -12.1156 633.232
164.119 -31.8197 763.482
127.696 -9.01602 739.746
-42.3743 -20.8307 601.259
69.7819 27.2161 699.492
163.241 24.3971 781.715
46.9192 -170.427 870.542
64.9795 -176.729 882.572
-45.0295 -113.627 784.109
83.1101 -167.646 833.751
-83.121 -71.9731 699.396
-82.1089 -71.6629 704.407
53.8307 -144.899 801.224
34.6441 -133.379 782.379
2.71218 -114.465 749.123
-27.1677 -95.3757 730.925
38.1531 -116.241 744.866
136.293 -163.82 806.61
87.946 -128.767 756.22
77.3295 -102.632 714.993
101.586 -105.719 717.356
91.3298 -94.6514 704.591
200.792 -109.913 772.082
104.057 -36.7586 682.778
79.8376 -15.7442 697.184
84.5353 -16.9352 695.475
-23.0891 -112.381 760.167
68.6162 -128.63 758.9
79.2124 -77.2453 682.191
66.2226 -43.0653 674.455
-0.840535 37.2885 645.319
175.507 -55.9838 766.255
-4.21149 -118.817 771.666
54.1822 -142.229 788.916
147.053 -151.238 788.278
-6.19076 -66.8555 667.095
59.5207 -69.9508 675.879
169.945 -126.618 749.505
97.0217 -86.6333 693.912
56.1738 14.414 686.235
102.614 -8.84797 705.814
134.518 -10.9122 743.52
140.596 -12.9508 750.72
29.3589 52.4356 677.773
-18.5245 -115.037 765.901
98.6843 -154.381 797.961
-68.2417 -56.1393 659.861
-10.2875 -88.1246 707.131
75.6391 -128.771 754.97
-56.9326 -52.5871 650.583
124.029 -103.625 714.062
-35.7495 -16.0072 602.939
12.9363 -3.22373 643.01
-3.1636 10.8382 635.032
142.921 -35.9706 744.129
-136.087 -78.7338 766.612
-75.2825 -109.459 806.448
-81.2866 -74.828 707.109
149.155 -155.459 788.164
-48.4565 -46.7963 640.22
40.7756 -84.9374 694.355
76.9184 -87.5966 693.341
110.893 -55.4181 701.599
196.624 -6.75211 799.587
164.801 16.914 783.282
172.129 13.8409 789.089
216.866 0.52473 830.612
72.4656 -182.933 882.57
72.8156 -167.029 831.738
102.772 -174.568 836.508
-47.4035 -86.2711 714.413
-35.2002 -93.2726 726.001
43.6796 -111.511 730.043
81.0821 -111.528 729.069
55.4019 -86.5593 690.996
74.7953 -95.1881 704.676
163.036 -142.096 765.567
108.317 -60.059 707.203
218.621 -69.7961 801.132
131.485 -18.9005 736.514
-101.846 -63.9117 690.409
107.836 -98.3391 711.344
83.8068 -22.4798 691.507
120.675 -27.9913 717.169
-9.17965 59.7125 643.911
-50.0953 -65.5857 674.34
-67.2321 -43.7808 637.314
13.5877 14.4118 656.805
-40.6132 -70.3377 679.273
154.638 -121.992 738.002
57.1756 -120.721 747.759
97.8679 47.404 738.868
207.229 7.51227 805.567
-58.0377 -98.8398 744.293
222.234 -123.015 784.322
38.9715 92.219 693.422
18.9817 -58.1983 658.623
69.4031 41.1679 701.708
206.08 -11.7949 822.128
6.76958 -125.484 770.69
23.4751 -77.8264 679.313
131.287 -33.0084 736.527
215.464 -71.7718 795.723
211.548 -64.0545 797.623
66.6946 -146.37 797.878
204.758 -111.08 781.873
-32.5842 48.57 627.501
213.44 -78.7376 791.99
-1.99004 137.193 683.54
38.5739 -125.22 748.658
50.0744 -63.7619 660.258
122.619 -39.2204 727.435
18.5694 22.635 664.289
198.571 -69.9687 784.914
149.956 -40.5408 754.769
48.2974 26.0966 686.396
192.787 -33.4952 791.469
89.2871 -191.798 905.161
-22.5834 -124.077 788.86
28.0968 -104.9 721.837
87.3092 -101.094 713.698
93.4347 -97.4744 707.409
77.4175 -53.7917 683.031
193.517 -90.0175 771.188
168.792 -72.2467 753.162
114.315 -35.1686 719.507
7.55355 25.0051 659.302
12.655 22.7423 657.372
198.228 -73.0449 788.121
194.067 -63.1299 786.42
104.397 -16.3276 714.645
-10.0306 50.9538 642.802
76.0026 5.62894 700.97
169.582 -41.4444 766.483
-72.6646 -72.0999 684.77
-9.31198 -106.89 736.568
114.081 -168.713 822.578
-26.4104 -78.5077 686.629
76.2479 -132.134 760.301
1.35501 -88.0847 697.35
73.4885 -127.062 751.954
75.3281 -75.3784 677.214
84.6632 -77.4779 682.036
122.167 -11.8473 726.707
39.5056 43.6814 685.481
111.001 -171.786 828.053
-75.7099 -67.6335 682.492
177.735 -163.335 795.757
166.893 -148.803 776.426
100.639 -108.001 720.59
25.0705 -53.5063 645.683
87.8334 -44.7742 682.18
124.404 -29.748 729.536
82.2623 -6.09139 701.238
72.6146 11.5983 700.597
6.42237 62.4839 657.819
177.099 -23.0129 783.36
224.919 -21.3043 822.99
70.7569 -149.742 799.13
100.299 -161.216 807.732
116.979 -160.021 806.484
68.0994 -127.904 749.632
-42.0906 -61.0121 659.73
124.027 -136.717 760.799
185.258 -159.877 787.979
88.7918 -96.0407 703.492
34.3306 -64.1223 660.307
49.1196 -71.3832 668.919
95.8158 -65.0849 695.025
-34.3978 23.2267 614.839
188.007 -94.3298 770.851
94.021 2.07859 707.155
-19.1081 88.2731 646.776
-22.1807 -80.0248 689.265
-48.3741 -63.515 660.951
138.947 -156.475 789.424
173.562 -130.272 749.138
204.693 -122.903 776.657
85.6069 -49.1552 682.474
40.6933 86.3176 700.056
90.7007 -139.032 768.784
102.051 -44.1485 683.988
-122.056 -67.7776 709.199
163.761 -127.701 743.269
201.142 -58.0519 790.469
8.30201 135.823 690.274
-6.05026 -131.449 785.581
61.8202 -138.328 791.331
-32.2842 -11.436 606.298
90.5767 -37.8529 682.751
0.477857 110.818 724.934
119.79 -164.019 803.113
4.63775 -124.275 768.408
-47.508 -109.912 770.16
-6.3741 -118.261 768.653
-126.11 -84.1319 779.824
-133.488 -76.8439 759.422
-159.279 -70.3292 770.866
-111.604 -81.8479 757.1
-148.544 -72.1242 757.31
-176.231 -62.734 768.921
51.8099 -97.3755 710.716
190.257 -129.843 758.271
63.6066 -98.2645 705.89
42.1737 -51.8567 652.909
11.6867 -41.9415 633.858
26.3003 -42.3534 643.762
-3.2071 -35.1327 626.514
-6.79859 -33.603 622.905
64.8689 -43.0114 681.847
-5.77698 -32.1191 619.68
71.9583 -42.3123 679.758
-19.6718 -26.8435 616.131
25.7467 -26.7001 650.986
-34.803 21.202 613.518
79.3734 11.4951 706.015
32.9871 27.436 671.399
-24.0153 33.0828 627.363
72.8796 26.2639 702.653
-33.4717 40.3961 622.8
-47.8523 51.8946 649.068
-31.3294 43.728 626.095
14.0089 45.91 661.727
92.5576 60.1059 734.123
-41.5855 77.9874 663.115
91.5654 -168.487 824.265
129.239 -168.028 813.506
116.8 -162.634 806.19
55.9571 -141.722 790.216
54.3442 -139.024 780.72
-40.692 -113.127 772.116
-7.94757 -118.454 769.432
67.4354 -136.051 771.267
12.1087 -119.044 759.568
-46.4259 -103.973 759.436
-39.7387 -102.551 758.302
-174.138 -61.7647 757.476
-4.28612 -104.255 737.517
-89.8749 -81.469 725.371
150.333 -133.668 751.066
-13.9771 -91.1143 712.698
205.894 -143.427 770.373
-72.505 -72.61 697.273
-5.48303 -89.0515 702.359
108.349 -110.491 723.533
109.34 -107.325 719.961
109.711 -92.2412 702.207
-7.55931 -62.0887 660.303
107.78 -64.8513 686.031
9.43278 -40.6928 631.446
211.434 -73.8946 794.264
-141.068 13.2129 764.99
158.139 -38.7577 757.889
133.627 -28.2045 738.025
73.852 -17.2962 695.002
164.629 -29.6311 764.042
-106.891 37.9872 727.432
-81.0905 38.1385 689.885
-70.8196 34.8156 671.492
136.586 1.34188 754.939
105.301 3.88379 720.968
-31.6309 20.9989 616.226
80.3913 11.0019 702.259
23.2782 24.3225 664.623
-28.6626 30.4593 620.633
-23.0438 49.7345 634.169
24.5698 53.1367 675.579
-42.786 70.418 658.826
-90.0575 -88.6978 738.905
-18.4058 -105.367 746.076
-143.919 -71.1466 746.772
-115.209 -76.8506 729.951
-92.766 -82.053 730.631
-65.0215 -73.9009 695.904
132.598 -122.453 729.131
-3.4556 -88.1837 702.462
94.4336 -98.0479 708.649
-109.419 -47.6184 665.953
142.792 -107.159 723.363
119.456 -95.4723 707.656
-10.1648 -63.8499 662.596
205.729 -107.443 773.834
32.9022 -69.2931 667.968
85.5703 -81.3048 680.306
-27.4159 -54.3993 653.455
-114.158 -29.0965 689.761
190.721 -80.3957 774.33
201.834 -81.7074 780.953
28.6439 -49.2717 645.624
15.1585 -45.9864 637.068
192.279 -75.9674 775.427
-121.254 2.5192 726.446
-124.991 14.4958 742.738
-107.434 6.46648 710.71
-21.0279 -25.6913 619.169
184.568 -51.2766 776.716
-57.1335 -8.73428 616.064
-45.3328 -11.4286 598.418
20.5021 -20.6306 647.568
0.621701 -17.9116 629.778
185.143 -43.093 779.181
-104.509 35.8463 725.804
65.412 -11.6316 687.82
128.149 -17.8639 737.231
-66.0555 17.1476 649.385
-66.5807 19.5023 652.347
-5.73374 2.95497 629.616
55.8882 -3.50117 679.268
0.993129 8.40575 637.424
70.9532 6.75276 697.316
-34.9823 24.7937 616.121
-44.9586 30.5798 629.717
-38.6105 26.8875 618.928
-53.8193 40.2771 652.944
61.7 23.8909 698.625
-60.6635 48.4848 667.433
54.8969 23.4819 687.142
-65.4176 53.3123 679.797
82.8417 26.4015 713.03
-58.5193 54.0881 667.829
79.2319 28.0676 708.893
27.5629 33.0671 668.71
-49.8876 61.2031 657.766
45.4684 48.8156 695.76
-23.9123 83.847 644.962
22.0023 90.6652 682.306
40.6018 105.075 703.827
-17.4474 120.098 663.225
126.478 -170.368 828.543
149.068 -156.117 790.525
8.63556 -119.612 760.536
59.7292 -131.876 768.594
32.8821 -116.127 741.94
-93.7526 -73.4179 724.008
-10.0505 -93.6545 713.84
-25.5542 -84.0041 700.287
104.349 -109.57 718.138
-43.322 -108.054 766.068
5.38835 -121.217 770.854
-39.0865 -103.51 751.866
5.36482 -119.663 763.964
-104.193 -78.7623 729.591
-75.9747 -73.3006 699.465
133.173 -146.519 785.018
-18.4983 -85.6666 702.909
60.2793 -113.574 731.717
108.097 -123.993 742.539
69.0001 -110.134 726.932
7.55839 -83.5079 693.169
56.2992 -99.3658 713.022
173.176 -136.446 757.996
63.8099 -97.9077 707.488
105.164 -111.788 724.244
-54.8703 -55.9432 653.518
160.2 -128.162 750.005
167.151 -128.432 745.26
-30.2753 -56.6536 657.626
33.2598 -77.103 680.891
149.905 -113.051 727.186
28.7276 -70.2822 670.225
124.21 -98.1631 707.465
62.0394 -62.7302 668.125
-1.079 -39.9389 630.377
122.67 -71.0646 714.435
72.4563 -53.5337 675.836
215.938 -88.1781 794.814
95.0269 -60.2489 677.834
155.987 -50.1324 750.294
129.689 -20.3187 736.557
138.404 -15.2797 749.997
135.866 -2.08792 745.752
31.4837 21.8301 667.911
6.4176 32.257 650.879
-8.19289 42.6897 638.424
-22.9565 48.1724 628.3
-25.8099 57.9229 630.666
-25.2878 -123.224 795.296
-15.464 -115.634 771.045
5.94115 -111.897 751.068
99.8475 -117.289 739.612
136.131 -129.103 745.869
40.3751 -77.0743 678.428
99.0564 -89.757 696.359
-5.05154 -14.9443 625.782
216.852 -68.7126 798.009
174.281 -53.1513 768.596
170.907 -34.9785 768.153
144.632 -22.7101 750.484
12.8593 31.2833 657.601
89.6719 15.8497 717.136
33.0532 32.2504 676.365
83.5599 26.0134 711.734
80.429 28.2883 711.414
-10.0598 50.7067 642.827
11.4405 98.7123 682.711
-121.565 -83.4551 760.116
2.00398 -122.897 773.904
105.385 -160.006 807.411
-127.227 -72.7535 728.826
47.974 -133.775 773.997
88.643 -137.708 768.415
-106.428 -51.7555 663.247
43.7121 -100.083 712.393
51.823 -93.7834 704.664
85.0284 -94.0703 703.258
68.3577 -81.2572 691.663
88.8006 -79.4804 687.195
96.3566 -73.6658 696.861
202.359 -95.0939 777.85
-8.90583 -7.80108 620.88
203.063 -55.2915 791.3
44.8488 10.1423 681.72
67.7535 6.62676 693.977
80.0451 6.19083 704.316
21.8387 29.6369 662.687
12.8615 43.0141 658.001
40.5568 46.2545 684.382
51.7152 78.9057 706.602
108.837 -165.661 820.165
86.5838 -131.916 761.203
-21.1806 -77.3758 695.791
145.793 -115.075 730.818
54.9654 -74.1443 679.935
78.1759 65.1995 725.547
-25.999 -80.498 694.943
75.2563 -114.443 733.611
-67.1396 -59.1233 665.405
101.056 -100.153 707.072
106.685 -100.77 710.589
24.7397 -5.2095 643.144
126.478 -19.9606 735.254
6.00911 16.5791 641.668
48.3546 52.2468 692.048
-132.485 -72.6218 727.625
26.326 26.9835 666.504
-13.6633 71.8725 646.437
-96.4374 -98.6277 767.642
-103.872 -59.9303 679.417
18.2953 -68.5082 669.942
58.5735 -124.893 754.181
9.89506 -80.1364 684.154
120.625 -151.217 789.552
-33.6567 -44.0935 634.937
-43.8209 -34.1324 619.458
-50.5681 -28.9075 614.947
39.6263 -79.6204 677.354
152.381 -156.247 790.282
-10.6171 -36.8669 624.446
46.3127 -71.3398 666.925
-22.6372 -23.0546 604.728
149.308 -110.956 728.604
87.883 -63.9688 684.935
65.1492 -42.3443 676.122
-33.7304 49.5096 625.828
112.358 -41.4203 692.377
214.265 -109.75 789.183
53.4197 39.4165 688.929
135.242 -16.5548 752.749
52.051 -136.961 778.362
33.9786 -79.5668 670.859
35.313 -80.9621 677.901
84.3667 -113.887 731.227
-16.7158 -41.1221 622.444
133.744 -30.6862 740.177
-14.6107 136.144 672.114
144.487 -141.662 770.269
92.7025 -88.06 693.383
-47.9077 -91.7953 721.895
41.9938 -115.783 745.051
81.0301 -133.339 763.816
112.383 -20.2262 733.909
-23.0892 82.4949 645.911
-2.1713 53.998 640.495
-15.6696 56.9868 636.976
-34.2848 33.998 617.981
-3.10344 5.08157 633.961
84.3597 -89.7351 692.747
26.6742 -75.4018 673.257
137.15 -156.725 792.657
-0.898822 -126.385 780.003
-16.06 143.794 674.897
74.4888 31.9881 712.573
98.5807 -67.035 691.201
160.252 -150.134 778.269
50.5319 -75.1017 672.619
-31.4647 -71.3955 679.928
27.7921 -114.619 745.224
185.751 -94.4174 763.279
112.747 -42.2056 697.423
209.099 -112.705 781.504
108.261 -56.4 696.076
108.874 -62.8865 686.354
-37.7089 21.0832 610.806
96.2773 -69.5328 690.722
113.989 -98.0166 709.196
31.7679 -74.7663 673.902
-44.3344 -27.8066 610.73
52.9132 -96.4866 706.065
-32.872 -53.5784 648.876
-15.5932 -79.788 691.625
-57.7572 -61.0232 662.588
-105.553 -67.7029 699.672
125.67 1.57974 745.181
59.7834 36.3119 701.269
214.395 -74.6337 799.015
113.252 -20.7266 719.18
112.999 -32.1034 721.21
122.978 -39.5865 726.547
94.8501 -70.9761 691.54
145.589 -145.311 777.442
-21.0374 -35.5844 625.288
-38.4498 -53.4561 642.395
194.493 -62.6272 787.339
10.2762 43.7545 654.122
115.985 -73.9506 710.067
78.9277 -104.966 713.425
19.8323 -101.084 724.686
100.158 -165.56 825.579
47.9528 -133.711 778.012
80.8925 -172.449 849.42
-50.2528 -105.164 760.663
214.559 -65.7119 799.367
-28.0922 44.9226 623.51
91.8696 -145.549 785.172
108.089 -165.153 824.013
-50.4747 -54.6185 652.972
105.161 -165.631 821.601
31.5376 -117.695 748.09
-23.1393 -123.283 788.272
-105.256 -83.5977 741.8
0.248985 -102.212 738.223
-4.27896 -134.445 771.706
206.833 -45.9955 795.201
-5.58116 -135.544 757.435
-27.4003 27.2032 614.349
-41.1965 -111.999 775.417
-8.74556 55.1415 645.616
-1.04082 44.7401 648.734
200.393 1.49063 806.06
62.6771 28.4247 698.637
88.4235 13.7001 715.376
31.4536 20.3334 671.532
47.4016 16.8169 682.011
131.017 -3.90512 745.378
129.168 -16.5881 737.958
135.196 -24.0597 741.899
17.4443 -0.436093 650.354
162.209 -38.7925 758.774
123.398 -40.334 724.065
194.604 -88.059 770.461
11.4825 -44.9025 634.219
103.104 -70.85 698.176
88.1628 -67.2769 686.389
59.764 -74.6515 677.056
156.356 -111.431 731.914
101.35 -96.3009 705.198
-36.342 -53.0597 645.808
150.177 -118.678 733.474
104.491 -103.634 713.895
80.7423 -105.582 717.343
1.49466 -87.3343 703.642
157.34 -147.837 773.914
-4.54802 -90.7191 709.11
-112.473 -64.9621 697.46
-101.309 -68.9178 708.427
42.3627 -124.574 763.989
-33.3571 -102.069 743.3
54.3261 -134.563 772.981
-124.019 -76.9845 730.904
-113.916 -81.4106 746.948
136.22 -32.4193 740.508
169.515 -61.8019 758.595
202.372 -70.9644 785.821
167.458 -73.7122 751.14
-36.1394 -21.2244 602.666
-0.164373 -34.1919 626.618
215.636 -98.1099 789.805
111.978 -72.5776 706.017
100.846 -73.9921 695.445
34.4204 -64.1745 663.431
87.6925 -88.1165 695.116
103.242 -101.394 712.06
210.754 -140.641 775.049
42.4369 -79.3032 681.989
104.796 -104.971 716.082
33.9585 -121.339 745.869
46.9023 -128.255 765.129
-17.4744 54.4909 637.053
207.276 -72.5198 792.636
209.889 -75.604 791.316
123.813 -50.5983 724.183
107.404 -70.6959 702.89
83.6432 -157.189 817.409
68.0031 40.159 696.715
137.823 -5.69629 736.359
-75.7599 -24.8618 632.289
46.498 -116.756 730.541
-27.4326 64.0294 637.439
-93.7637 35.2992 702.875
-115.917 19.7328 736.948
-23.8823 -23.8507 604.815
93.6116 -51.7415 683.139
-45.3316 -95.0273 723.458
-16.8053 102.16 651.566
-76.4071 45.8326 688.884
83.3715 -23.4262 697.003
-61.513 -7.42475 621.372
-130.112 22.4798 754.975
-34.8599 -57.1583 661.703
-161.506 -22.3516 765.87
-69.0426 -71.717 689.116
-37.7517 1.53578 604.62
-112.528 34.1979 743.18
-87.7912 -16.5927 661.288
-75.072 -59.3243 668.168
-51.5955 -109.284 759.601
-67.3637 61.1387 698.288
147.306 17.6429 763.757
-73.5108 57.186 691.208
73.9924 -53.1057 679.917
41.396 -48.5898 653.479
-33.3864 -36.3953 625.343
100.206 -70.719 695.98
-15.1469 -82.4204 688.769
-111.374 -71.764 710.619
-27.3766 -115.939 770.185
-48.6915 53.0873 654.339
-61.8668 53.6425 677.743
-80.1352 54.3289 697.74
108.806 -62.9955 686.588
-30.7439 -43.7171 638.625
-152.461 -41.2355 741.242
72.0885 -106.261 717.575
-82.0424 -75.0097 709.182
5.3616 58.7563 660.764
-20.3781 55.6448 637.796
38.365 23.5806 674.513
-110.594 80.8549 773.026
60.3854 19.3577 694.12
-69.9393 45.1685 681.116
86.1984 5.89955 707.855
-2.50095 11.1052 636.08
85.7538 1.76001 710.924
164.738 -21.3104 764.718
-70.1455 13.5283 652.855
-130.505 11.9855 746.985
-40.5028 -31.4157 620.178
-20.2264 -48.5776 645.311
102.549 -82.5346 698.774
-13.6976 -67.204 676.086
11.6643 -77.2954 680.521
-62.0774 -68.2288 686.61
-88.6319 -65.173 688.998
-96.9998 -75.2137 709.647
166.719 -143.067 764.53
-9.15072 -121.714 772.937
-44.787 -115.097 779.148
116.971 -158.922 799.769
-63.1383 90.7228 694.398
-44.5287 64.4845 654.979
40.6775 42.6691 683.738
134.185 34.0546 765.04
-62.213 65.4484 683.813
49.9328 34.1918 689.262
15.0965 21.2926 655.59
72.8231 10.6916 698.808
-50.0638 28.5927 635.993
-102.766 60.1947 746.453
-103.537 54.4189 737.304
147 -9.76105 755.385
-21.9345 7.85985 619.979
-73.4832 22.7857 665.875
-114.146 35.2315 737.331
-13.5488 -9.39379 619.143
142.727 -37.3197 742.942
38.619 -39.9161 655.613
-106.293 -2.3787 698.07
-144.771 11.9672 769.699
67.5052 -52.737 675.38
-12.6372 -37.5137 634.31
19.0963 -79.8974 680.585
-6.73126 -74.7546 682.023
81.7304 -104.233 716.955
-129.124 -56.4405 693.546
-163.472 -46.7864 749.813
-115.363 -63.5466 704.99
-85.9501 -76.22 708.395
-39.1565 -88.7616 713.186
-5.22424 -98.4045 730.015
-98.3215 -80.2403 731.049
-118.795 -75.4819 732.055
-34.307 -98.391 751.95
46.8774 -123.058 742.993
-15.7287 -112.995 756.876
-18.8971 67.7073 640.965
-27.3317 67.8237 637.296
-38.171 68.5965 647.748
-31.3833 61.9546 633.215
-51.0091 65.17 668.516
-53.0103 38.1842 653.215
-112.951 51.6715 750.703
22.7002 -4.60965 653.103
27.0468 -5.19247 660.196
55.3218 -12.0998 669.585
-72.3987 17.8387 664.376
-78.1127 20.964 669.996
19.458 -7.70738 649.901
-92.9171 27.3633 699.096
-41.2026 -2.03255 600.268
-118.597 33.9635 742.869
-116.283 32.2782 741.551
123.877 -32.1084 730.152
-109.863 25.1865 726.897
-90.39 11.5287 686.616
-12.9423 -19.6948 622.371
-106.797 14.4826 709.836
-124.382 20.9567 744.916
209.571 -58.2328 789.837
220.425 -60.5885 807.317
-134.629 22.0305 762.866
36.8515 -35.9957 652.759
87.8819 -45.5628 685.338
-128.628 15.2933 747.931
-124.835 0.289658 728.006
-3.20516 -43.4003 633.945
-149.419 4.32481 768.056
139.914 -81.6964 726.625
203.593 -94.6993 781.998
72.7402 -72.7077 669.366
84.1602 -79.3759 688.025
-84.5246 -40.829 641.486
-6.32292 -64.4943 660.619
-30.7051 -58.7008 663.592
153.081 -112.052 716.413
165.309 -115.38 737.157
142.897 -111.827 727.667
-154.134 -43.5851 740.186
21.9345 -109.849 738.036
-35.7456 -76.7221 689.366
10.4169 -108.23 734.989
25.3131 -114.041 746.577
8.5855 -94.9269 709.793
133.797 -145.25 780.169
45.8067 -104.44 715.543
-18.1119 -107.498 748.681
85.2375 -118.958 732.554
135.48 -146.88 779.548
67.6488 -131.108 762.38
115.096 -132.972 762.813
-33.1809 -108.15 757.02
-22.067 -111.555 762.847
131.084 -150.805 786.377
62.3393 -125.392 764.877
113.816 -153.446 792.939
110.56 -162.968 810.291
-37.3636 -103.547 743.136
90.988 -166.969 829.513
99.0882 -142.708 779.398
65.4364 -178.757 883.528
-18.6414 -114.525 766.891
168.422 90.4156 704.365
98.6144 -145.243 782.232
-6.78649 82.8241 664.033
116.004 -151.137 792.291
0.773867 79.6814 665.439
60.8623 -137.029 777.477
-5.65406 66.8142 654.046
-23.2071 -120.477 785.379
-7.12529 65.6541 651.549
-20.7693 59.5791 635.927
124.345 -167.484 806.838
-21.6874 52.219 634.364
92.0376 -164.4 823.509
-13.4714 51.2186 640.904
-15.3408 130.615 665.971
-13.8783 49.0849 638.558
-19.6559 75.5604 637.848
12.9716 41.2346 659.565
-17.7389 73.8312 645.121
33.9349 34.5424 677.063
-25.2381 70.0498 641.327
-9.4533 36.8212 639.942
-41.1 78.7677 659.619
-28.8427 38.3503 629.464
-39.715 78.7606 665.769
61.5376 29.2601 698.338
12.7686 27.6009 658.863
3.93737 22.668 651.779
-31.4782 41.2267 625.75
-65.5202 37.0301 664.883
12.2336 33.1161 657.129
-25.3668 18.3062 621.791
44.3482 30.2745 684.6
45.4331 10.5388 676.43
32.7993 29.1808 672.464
-16.4445 12.8608 629.53
40.402 26.0543 676.05
-19.8567 12.6011 624.84
154.34 -9.02155 765.674
-71.5396 30.6617 671.411
52.1285 -1.73248 674.492
87.035 14.2853 713.19
38.8734 1.02636 671.6
-51.3823 35.4695 643.825
49.1071 -2.863 676.295
124.391 -14.0957 735.251
63.1266 -7.48016 684.166
75.4337 -12.1694 691.778
-17.8834 -9.14395 617.711
-56.2544 17.5263 638.286
94.383 -31.2083 687.384
51.82 -3.82123 678.697
65.2387 -27.5787 680.895
-59.1601 14.8971 639.372
220.806 -57.8591 810.594
146.568 -54.8923 741.928
-19.3846 -28.3497 617.123
-38.615 -25.7395 611.588
-113.848 31.7353 737.061
32.8192 -46.122 646.021
-122.017 33.1057 748.219
97.6088 -59.8108 676.213
-114.971 28.3296 734.477
18.5216 -44.73 637.572
-32.6254 -11.7421 606.128
87.9783 -58.3141 680.368
186.401 -47.0952 776.308
203.854 -88.736 776.49
-106.908 18.1103 715.456
87.5361 -68.6723 684.044
9.2794 -27.1688 632.376
109.878 -76.6129 700.134
206.6 -101.918 781.802
-26.2111 -22.5845 608.394
103.701 -83.5176 696.359
-22.6204 -24.6448 610.259
75.4482 -82.4473 680.403
-94.7118 2.29627 680.718
113.152 -94.2178 702.463
-140.171 25.1655 772.555
115.114 -95.1043 704.035
136.349 -105.456 721.184
73.852 -100.402 706.256
-49.4258 -109.988 777.235
-32.4742 -110.019 760.141
20.2347 -116.278 750.834
207.705 -143.106 769.905
-6.55838 -105.515 739.239
150.165 -148.275 777.858
-150.572 -61.2754 726.177
-36.5094 0.00105957 605.161
59.0054 -97.6925 710.7
163.934 -149.225 777.844
168.716 -124.837 746.167
28.849 -85.4699 691.853
169.651 -122.533 745.416
60.5992 -33.4645 677.321
21.3755 -78.0108 683.337
206.202 -106.767 785.467
-29.6032 -108.535 754.527
188.178 -98.7541 767.726
-106.947 20.2488 718.312
217.383 -92.8501 793.538
75.5197 -84.4113 686.828
-13.8591 20.4151 629.95
1.94411 -33.8711 627.223
64.5267 -126.57 761.57
-3.36836 -7.76789 629.913
8.32735 -32.5433 632.849
70.6561 -26.5142 682.798
-9.33894 86.8495 653.363
-27.838 48.5941 627.593
-73.6529 34.7501 677.199
-6.08208 106.913 673.03
104.417 -5.14124 715.297
112.433 -62.7809 704.039
88.8527 -103.651 712.817
-52.4053 24.777 636.372
127.616 3.34393 745.83
20.8601 22.2955 660.547
38.411 -124.992 760.953
23.6683 22.1374 663.32
74.5785 -102.627 713.78
147.656 -82.5247 733.393
38.2481 -41.65 659.678
-52.1072 43.591 649.413
46.9504 23.7496 682.06
-20.665 98.9669 651.141
-40.7121 -100.178 743.045
-25.8721 -123.245 796.606
-48.6149 -113.52 788.596
1.9172 -116.65 758.63
110.862 -139.211 765.228
117.187 -139.819 770.357
43.5115 -92.7062 704.1
62.4203 -123.678 750.931
139.802 -139.189 766.242
-26.65 -113.621 764.906
47.5042 -86.8893 690.169
-67.3432 -54.2667 654.905
105.752 -148.789 789.247
-26.3349 -90.5875 717.252
95.4049 -164.316 820.682
62.0422 -98.7143 708.758
186.766 -11.299 792.699
190.442 -139.7 765.303
-112.86 -72.4915 712.728
6.18978 -70.3066 673.932
-36.4912 -57.3474 659.653
0.208721 -51.525 644.437
28.195 -65.8972 665.141
69.1662 -72.2632 671.837
