-30.1602 -1.31293 890.666
146.87 28.6618 701.763
87.614 -16.2946 721.719
51.7354 32.9605 717.655
300.7 3.42624 698.897
122.969 -7.04948 711.837
-31.9104 120.061 784.057
88.8478 -7.65996 713.885
81.743 3.76935 707.997
97.41 117.257 769.54
-1.31429 88.1991 761.052
289.157 -63.6066 760.858
-31.0212 145.772 806.767
154.848 -86.3251 802.078
106.371 -101.771 835.803
150.683 -10.2957 712.938
35.861 -121.706 894.942
-39.4854 -24.1333 782.833
268.268 -113.344 854.147
234.932 -108.894 834.416
149.034 81.6929 735.631
280.627 -85.6975 793.239
-24.0698 105.922 779.458
305.171 -63.1586 764.254
40.4708 22.6492 710.522
298.821 -62.1967 761.944
287.986 -64.2129 765.772
210.174 -73.923 782.675
142.539 -87.8114 811.677
250.298 -83.1743 797.845
213.967 -62.826 768.312
15.5887 -125.583 895.909
292.185 -24.1334 725.898
331.986 7.6388 694.478
328.083 72.1572 736.53
322.464 76.3194 740.581
-26.4136 -22.1978 937.672
164.123 -18.5503 718.037
176.063 -48.0415 754.901
246.035 96.035 752.908
310.996 -102.749 815.735
287.655 -95.1271 816.587
278.845 -81.3863 793.857
296.726 -64.7666 760.714
212.758 -68.0298 777.09
273.863 -52.2027 757.558
-20.3107 -0.190546 715.083
250.653 -55.2958 759.236
0.384291 7.55105 709.542
130.368 -89.7545 816.24
225.374 62.9179 729.212
248.218 -52.303 757.306
332.968 95.5791 756.597
201.256 -54.7178 768.98
247.17 -32.3423 737.379
102.492 68.1245 738.527
318.984 42.2816 711.53
83.5784 65.4204 739.577
-35.0336 30.9023 808.459
266.969 60.4619 728.052
-7.01788 48.2878 735.131
328.205 79.5336 744.403
74.885 76.4197 746.614
267.116 67.1474 739.917
-21.6188 49.3051 734.487
93.9451 101.683 765.89
-28.3345 66.2098 750.916
278.224 93.0088 751.533
333.511 113.087 766.852
283.302 -120.142 867.608
313.179 -68.3489 778.808
302.436 -38.3663 737.258
151.339 -78.8218 794.469
285.096 -68.3142 772.308
204.121 -62.837 771.318
316.97 52.7644 725.122
113.46 -92.5664 819.89
-28.1814 -47.3706 930.134
282.444 -42.8375 744.359
323.48 86.4 746.733
-26.4881 -21.262 924.533
332.535 93.1397 753.329
311.578 90.946 743.34
131.981 -64.3277 773.813
292.89 -107.195 835.574
283.123 -109.596 840.796
253.678 -71.5948 784.735
217.596 106.345 761.346
200.756 134.111 782.814
231.987 78.8591 744.777
194.514 141.074 793.655
282.588 -59.9202 761.101
124.319 9.79806 702.037
116.416 -106.115 840.84
168.485 22.0404 705.617
145.079 -91.9826 814.317
187.822 27.0333 703.217
295.545 -13.4125 708.99
306.488 55.6118 720.709
343.878 67.3102 738.53
243.041 104.15 756.649
-24.8932 48.8749 944.342
300.464 -54.5166 759.461
204.08 -74.2461 781.982
289.793 66.1506 732.517
298.211 -22.6636 723.202
286.072 -16.6978 715.813
19.2725 8.90275 706.411
335.55 100.12 754.79
96.848 75.5884 749.02
324.957 155.549 801.863
294.914 -106.688 843.883
338.184 12.637 697.75
-2.5204 82.6891 751.148
193.018 -3.57778 708.532
-35.6131 72.9219 791.72
192.89 -2.5948 706.227
35.1067 97.6934 770.457
163.918 2.18962 705.658
9.70091 91.4073 760.426
259.02 55.7588 722.709
-5.8984 79.9467 753.068
163.422 221.745 742.121
306.112 -88.7063 793.602
-6.08182 -115.591 876.377
276.537 -78.4304 790.163
29.8041 -100.789 845.44
203.384 -68.7333 777.015
97.6953 -83.5104 805.682
194.761 -54.0303 760.186
113.666 -56.9484 769.835
96.0752 -53.2715 763.922
153.566 -44.6283 751.358
200.772 -25.7253 728.822
295.905 -24.1133 721.004
96.1151 -54.0836 768.55
96.3534 -46.0978 757.105
151.45 -34.7222 734.032
199.977 -23.6325 727.532
179.147 -20.7329 723.173
140.774 -35.9552 742.97
173.572 -19.5277 723.808
251.723 -2.32018 708.567
196.143 -5.22703 708.759
150.491 -28.442 735.168
252.831 3.91445 698.185
95.5135 -43.3957 755.36
14.2717 -28.6748 735.295
289.629 14.3285 697.119
43.9277 7.1488 703.696
169.673 9.11309 698.596
173.934 29.9623 707.298
25.1748 -31.384 746.832
209.379 99.8111 757.623
57.3638 105.904 770.367
291.924 -91.2095 810.576
-38.099 -7.20069 749.41
11.4576 -103.568 845.262
117.554 -87.7559 811.919
34.0237 27.0214 718.849
127.154 -80.5592 800.999
308.687 -42.9344 740.857
30.2384 -63.779 781.625
235.758 -49.3018 751.009
332.26 -32.6457 729.365
311.692 -35.0675 736.346
307.024 -15.9271 714.408
155.315 -23.7606 727.332
253.406 -2.42974 703.279
-31.4996 57.3618 857.942
226.118 -39.6455 735.938
163.015 -2.10822 705.775
-21.8699 9.34245 713.844
322.844 89.3981 749.203
273.984 85.8391 746.346
289.554 111.838 763.292
200.053 4.40699 701.6
204.992 107.476 762.019
121.491 106.556 765.224
114.987 110.685 772.289
-33.0551 85.1387 758.156
328.361 45.4493 718.828
60.7936 115.226 776.465
272.678 8.46648 696.277
204.282 104.227 762.287
114.21 143.56 795.895
87.7718 144.446 799.727
53.4074 141.133 796.556
310.047 -68.2917 776.596
289.369 -53.2868 755.649
227.374 -35.8745 737.107
84.3809 -52.0421 762.879
-10.5492 -63.5584 781.275
189.513 -20.5382 720.886
87.7846 -26.8565 729.935
220.795 9.53622 698.113
118.269 5.68531 703.037
60.0658 6.03275 704.902
185.195 26.3083 704.669
325.819 112.242 765.491
204.302 138.996 787.739
147.984 -101.818 832.189
-22.0293 -33.6312 748
-1.52965 -79.9249 803.16
114.822 -46.8254 752.571
105.505 -48.8506 758.648
116.661 -40.9383 748.1
277.927 6.78527 697.992
58.9148 -35.4563 744.747
100.218 -16.3596 722.119
335.392 20.6699 702.354
128.436 -3.31352 708.702
262.175 89.119 748.011
20.7494 18.8195 711.312
205.981 80.6768 744.197
7.34026 48.5155 730.369
118.345 87.2438 754.088
217.474 85.5307 746.894
168.175 -20.3328 724.436
-27.3002 71.6103 747.397
155.621 110.102 771.691
11.496 90.7241 759.631
298.238 -92.4252 813.37
91.5171 -5.33145 713.636
305.439 -73.3171 784.14
221.123 -37.4658 739.32
292.826 -12.9447 713.506
53.4465 -28.7164 735.759
-32.8709 77.0044 752.801
113.602 -13.6127 719.009
300.578 39.7335 712.973
-30.5543 86.2067 757.885
-33.4505 26.7214 717.792
74.6162 5.05067 704.691
285.946 87.5801 747.225
332.246 132.811 784.599
116.606 -119.795 874.303
233.956 -54.9654 757.183
152.852 -30.3709 736.042
64.5266 -30.3324 740.333
-3.92477 -8.91164 719.631
163.373 19.4125 710.249
-4.85084 146.364 807.71
-34.754 155.072 847.778
273.95 -97.6825 819.196
179.313 -48.5871 751.343
-37.3545 -13.5375 770.343
260.536 -18.1146 718.19
161.715 -31.8237 735.558
47.3125 -22.8114 730.084
-33.6754 20.8821 832.46
150.574 26.8514 705.006
125.648 80.456 747.78
170.677 130.734 777.357
142.773 -94.5962 827.877
-37.6101 26.7646 794.554
227.573 113.006 758.982
132.781 91.1244 749.92
30.1239 92.1691 754.988
321.635 172.861 812.675
326.215 67.1054 738.598
78.3611 79.8216 750.167
252.57 81.2566 744.941
121.209 26.858 707.797
-24.1 148.118 803.18
6.4544 119.733 786.502
273.804 -19.1501 717.463
-13.2241 175.115 823.869
131.048 96.7514 759.412
76.7874 76.6 749.526
-27.8645 57.9172 739.176
102.368 104.877 766.337
156.025 79.8487 735.434
-13.0923 173.641 823.804
7.29516 4.14886 709.227
-36.1633 71.7067 751.392
93.5037 -57.9693 770.034
202.053 -25.2291 726.279
88.6523 -12.2778 719.503
132.466 -6.65781 711.243
107.152 39.8511 719.201
168.572 139.551 789.698
-11.2994 25.1792 714.061
-13.5201 73.1479 752.172
85.0297 107.61 769.924
172.83 -14.7202 716.882
285.39 1.72389 699.927
169.689 -0.386672 705.936
-30.1045 0.962089 876.897
9.89993 30.9442 718.782
-18.582 -8.27656 722.831
12.9228 35.4515 721.037
136.307 41.7559 710.974
234.614 76.5453 741.32
-3.45234 9.50614 701.441
182.948 -19.9959 720.673
117.046 68.3053 737.43
105.726 -20.66 725.559
157.996 97.6875 751.97
-22.2029 145.095 800.618
-2.82058 -15.0834 724.138
89.7911 104.122 767.485
158.472 -50.8255 759.055
186.055 -29.6616 728.829
331.468 54.8502 724.843
284.476 81.7385 743.924
-11.0503 23.3402 713.24
293.821 139.622 785.357
18.455 51.9885 730.088
154.062 -46.4419 751.052
142.075 -27.2661 730.521
106.958 -19.9636 721.08
18.3898 -37.1068 750.336
320.448 54.9351 723.011
315.85 56.4488 723.711
141.204 -29.9652 731.819
126.944 9.36876 698.874
-28.6153 -14.5083 908.569
119.074 -15.7244 719.473
193.551 -10.7937 711.777
116.045 11.0339 698.541
-29.9277 2.54585 887.942
-14.1742 49.4291 732.892
-37.8208 10.8351 709.398
16.5667 71.1737 744.04
2.76016 20.7236 710.735
136.112 98.0767 759.545
-40.8884 29.8385 718.953
53.0885 117.071 776.942
115.702 74.0378 743.609
92.2479 103.571 764.309
286.675 57.8002 726.766
-3.04709 59.2187 740.277
109.02 1.41372 704.029
1.65682 107.109 770.76
133.871 14.3159 700.566
148.53 25.2595 703.725
69.0574 -58.2093 773.685
14.9755 -4.75966 714.519
268.759 11.2835 696.398
108.489 31.8868 712.576
-17.4229 43.4027 727.808
135.713 -3.34035 710.731
34.8083 21.3443 711.067
147.246 92.1922 747.608
160.873 0.58125 704.292
-24.2767 8.09618 710.946
-22.227 74.8412 751.014
238.569 81.3591 742.406
7.22421 81.8655 755.038
23.181 -4.68815 713.695
50.9237 106.549 770.423
24.7509 104.584 770.418
-25.5951 119.099 785.718
178.519 -67.377 777.465
292.104 -28.9551 727.78
186.832 -16.5818 718.014
50.8015 -10.0599 717.616
303.945 -22.1866 720.408
136.826 -45.159 752.098
58.6306 -60.9781 776.705
278.157 7.11596 697.744
93.146 -35.487 743.272
111.164 -27.9443 732.967
134.119 -15.733 720.081
334.852 25.8681 705.007
107.69 1.45182 705.577
253.899 10.9204 695.32
90.5355 -11.5852 717.316
142.57 24.17 704.228
296.755 41.4485 717.908
204.964 36.6922 711.153
312.584 55.5024 723.737
143.239 28.3638 704.659
23.6644 -7.79535 718.417
74.831 31.9143 714.581
-36.7488 -14.1754 728.884
261.693 83.6967 745.04
35.099 17.5727 708.49
28.9709 83.6593 755.826
-34.0126 -1.25585 840.302
13.9003 81.0285 753.726
22.1596 142.095 798.284
-28.9384 1.38073 905.018
115.672 53.8374 725.766
-27.348 19.7566 925.333
185.948 -80.1168 797.87
-34.7017 33.2141 817.063
-37.7173 39.3369 764.695
210.528 111.055 767.908
190.621 108.474 764.08
304.483 8.10186 696.198
-37.5827 56.5005 783.605
74.1216 89.6827 756.231
-37.9344 87.02 769.54
51.9512 137.594 792.48
172.775 0.666557 703.276
-35.0712 121.577 785.615
135.524 -2.91716 707.533
240.095 -52.3447 754.782
227.1 -52.0164 755.528
293.92 11.2503 694.535
256.367 -38.5251 740.673
247.189 14.1612 695.991
256.248 -34.7524 736.052
255.927 89.9344 750.325
152.595 -51.3379 758.253
314.32 3.061 698.927
182.191 -13.9309 715.402
113.679 -24.6945 732.83
108.503 87.1971 752.721
302.563 135.102 784.327
205.849 -1.98217 704.013
122.714 -81.6738 804.445
92.464 -24.6138 732.066
3.63037 -43.4477 758.332
88.5392 -22.0938 727.102
59.5959 81.1326 751.929
98.7823 4.70202 708.522
74.7064 -24.2341 733.522
-31.6015 -5.052 863.614
-7.47846 56.2948 734.504
174.762 2.29716 702.313
111.738 -6.06168 712.188
309.556 39.5698 712.309
135.757 9.2372 699.482
200.836 -3.17577 705.066
330.781 37.4282 715.067
-27.1364 -30.4133 929.987
139.356 26.9661 705.96
301.772 68.8915 736.981
206.056 -23.5996 723.64
5.95457 10.2673 706.231
-41.8783 5.21648 737.039
232.058 34.9608 709.958
271.536 90.0214 748.822
327.221 10.331 696.073
260.032 104.541 755.086
214.22 107.803 766.212
99.0733 78.2812 751.721
271.98 -9.0838 705.799
125.731 -96.3398 823.248
103.884 81.326 750.633
120.561 99.2699 758.579
226.176 134.762 783.73
-32.4956 74.0191 834.469
-30.6117 74.288 750.722
272.707 -1.32492 704.879
54.4153 139.959 792.806
250.541 -74.8428 787.422
221.677 -78.3348 789.808
269.946 -72.543 781.702
314.045 -32.2453 731.119
234.596 64.4204 733.462
104.314 -55.4192 764.585
244.837 -20.4733 720.528
225.876 -23.413 724.699
88.9916 -38.2013 745.804
108.274 -103.294 842.217
282.155 -78.4979 785.553
165.468 -6.00531 706.627
245.403 -35.9708 736.223
83.9434 -10.3165 717.696
13.871 -44.9617 760.843
258.102 93.7684 753.097
185.01 14.6488 697.476
93.5254 6.22679 708.225
277.869 80.2383 742.273
-26.8554 -33.7013 926.391
-32.4428 5.97518 841.939
214.827 -39.7943 738.56
130.052 68.0687 739.028
279.152 90.0687 746.669
117.125 67.8158 736.98
273.693 89.9292 745.682
5.56449 40.4899 724.429
189.281 -38.9101 744.7
104.092 -2.59195 711.491
121.345 89.0247 751.34
-39.4163 52.216 745.487
215.29 134.357 781.283
-35.48 73.0202 817.826
333.203 71.3005 737.164
-29.0456 11.5005 916.945
21.1384 87.5157 758.184
-8.59026 138.393 794.213
89.4522 -1.44208 712.054
17.7679 94.4588 762.626
-27.5607 89.4766 759.785
10.784 124.75 785.709
157.905 -69.0274 779.448
-39.7021 12.2035 715.292
194.248 -27.1198 725.691
147.894 -47.3368 753.833
86.1819 -46.7658 753.138
54.2676 -49.3572 760.946
332.972 8.98519 693.181
286.929 5.43767 697.09
-14.6721 27.0731 716.744
207.749 -6.91662 707.797
30.1017 80.9652 752.995
64.0342 -35.1667 743.588
96.5949 73.4141 748.97
171.126 -4.14445 704.934
70.482 144.387 798.679
112.257 -1.90094 707.855
264.745 101.384 755.672
51.6678 32.9783 717.386
149.168 99.0117 755.973
298.18 -35.162 733.131
157.481 23.4136 702.705
203.271 -50.4203 748.834
246.37 9.81189 694.619
200.983 34.3367 712.542
294.751 -77.4194 787.475
178.749 -55.5457 764.768
231.165 -37.4553 735.331
34.047 -100.031 841.928
131.097 -67.0912 777.553
96.9041 111.817 775.879
99.8798 144.028 796.275
104.396 68.9218 751.586
173.804 -53.1077 761.776
30.1495 -28.2385 739.734
246.876 -47.6329 746.007
192.708 -4.18971 707.253
132.003 -83.2607 802.062
208.795 79.4842 744.149
106.9 -100.285 838.399
260.245 67.8231 733.043
149.69 -88.9727 811.855
292.819 -61.6764 763.988
188.349 -80.0038 796.737
16.6117 72.9031 746.963
143.442 -46.5191 753.48
40.6402 105.67 777.872
184.391 29.9447 709.364
2.86553 78.9421 751.854
72.7727 -35.0534 742.736
-1.78507 72.2622 750.656
49.5549 84.021 756.383
82.7694 89.7937 756.151
164.26 -86.5288 809.685
46.1554 77.4845 750.239
297.538 76.8037 742.459
7.7866 65.5531 744.866
-4.27653 94.5279 756.095
9.35383 14.4195 710.431
65.7267 81.5047 751.206
284.062 65.5134 733.823
308.307 87.1838 744.551
-33.8974 48.9879 732.771
28.2358 65.9515 745.718
-31.8117 47.4603 733.375
87.9595 75.2519 746.079
214.368 109.643 764.11
161.312 94.3262 748.396
276.974 106.553 760.812
332.426 108.051 764.847
145.709 65.452 712.21
96.3848 46.6644 724.964
192.085 11.5651 695.619
-3.19367 12.112 702.266
-41.4272 10.5192 715.755
-3.14482 86.7551 754.811
318.104 90.6706 751.357
244.621 68.9131 729.682
-28.1508 88.1742 759.796
225.39 58.1332 727.805
26.1235 10.6688 706.581
183.497 64.1341 730.432
85.3271 10.9233 699.108
28.9492 54.4535 734.165
151.853 2.00158 703.048
127.993 28.7144 709.832
192.066 9.84043 696.969
137.431 29.3741 709.543
-21.1828 -4.53535 715.018
143.95 23.3878 700.924
49.9211 5.90015 705.416
71.8908 11.0372 701.448
24.6269 -34.2429 746.796
115.161 79.5996 745.956
319.411 61.833 729.042
111.492 -80.4207 803.168
-32.2096 -93.2637 888.435
145.407 33.0083 698.635
-4.1744 20.0187 709.425
-24.9049 -22.1145 734.474
153.418 -68.1446 780.585
120.975 -9.49904 714.987
-38.155 -25.9945 740.828
148.934 23.5403 702.869
185.274 29.0441 710.394
108.066 -27.741 735.147
137.906 -4.46179 711.287
149.192 -30.8669 735.541
324.307 48.9115 730.309
306.661 41.7988 717.161
299.621 55.1946 721.463
211.086 13.6987 697.165
239.733 12.1349 696.448
-32.9437 22.4594 846.023
164.853 -50.3169 757.559
105.394 -84.5399 809.36
-3.66156 73.3246 752.389
97.1501 -63.022 777.66
191.472 -66.263 779.695
208.772 -57.1685 764.356
110.583 -27.1808 734.927
160.786 23.3661 704.543
182.572 -25.8815 726.812
277.743 -4.40392 703.253
125.131 -88.4096 813.54
73.8295 15.094 703.474
97.7514 -60.9122 773.405
-24.112 106.441 775.916
124.732 -46.9516 758.341
139.097 -46.0024 751.928
119.747 -55.8357 763.658
145.434 -48.9834 755.448
28.0582 -94.913 838.03
16.8648 -99.4223 841.593
144.19 -59.7256 770.209
96.2456 -9.12889 713.395
146.079 -62.8089 772.952
215.525 86.914 747.974
-5.77266 104.725 772.784
96.5295 -59.2459 771.713
154.048 -62.6861 774.842
4.95175 -86.1318 819.681
280.272 -35.9417 737.286
183.59 -64.9001 778.462
28.856 -119.424 894.258
146.268 -76.264 794.73
189.085 -63.9419 771.689
13.0281 -106.009 845.593
123.306 -88.276 814.787
294.645 62.5779 729.571
145.741 -103.038 840.2
146.065 -104.923 843.915
282.421 -84.9608 798.713
1.18657 119.826 784.965
205.495 84.7235 746.717
-8.05835 102.999 770.768
-26.5934 90.859 760.842
-25.1959 83.307 757.085
308.243 74.7626 738.16
-13.8218 86.3383 758.646
-25.7812 6.40878 707.096
24.1732 89.7121 758.896
24.859 11.7594 706.489
55.4212 93.326 762.055
333.251 55.393 724.923
-4.90853 74.6345 750.308
148.995 -102.141 830.8
31.4273 76.8324 756.56
19.6775 67.2489 749.225
109.847 -65.5628 780.942
317.135 104.241 765.746
110.436 49.9354 726.368
189.854 -8.76021 709.743
163.063 38.2276 688.555
310.949 59.1785 721.861
148.483 22.0708 702.485
177.432 25.2868 699.851
245.546 98.316 755.998
322.043 47.3956 720.407
175.878 15.5318 700.131
310.153 64.3003 729.167
109.125 -45.2463 753.491
96.999 -70.4917 789.43
313.459 -17.7581 718.744
146.606 -69.9651 786.604
100.371 -88.8607 817.951
151.342 -73.874 789.204
145.575 -88.9226 812.7
275.663 -29.6813 726.925
210.48 -84.6371 791.711
148.648 86.3172 737.832
141.805 67.9783 726.387
274.259 -120.895 876.466
-34.1879 52.4019 802.284
142.203 32.7549 702.763
327.265 28.0684 706.699
43.1414 40.4225 724.129
33.5957 62.8521 740.55
275.756 -82.2885 796.412
164.765 91.6432 747.72
141.009 87.3371 748.63
22.9884 5.37339 708.778
141.316 -14.097 718.073
85.6323 -0.577903 706.698
202.221 -3.28083 706.618
-33.0506 158.071 817.147
103.76 3.7202 706.164
22.2518 166.891 815.16
-22.5749 77.4809 752.609
-40.8806 19.7771 716.696
65.7153 85.7555 753.656
205.994 -3.50547 706.36
123.205 29.8905 709.996
207.692 56.3017 726.442
316.38 78.3328 740.707
203.113 74.6549 741.155
131.294 100.046 762.547
246.44 -23.7143 727.155
149.304 -35.3069 741.563
136.174 -0.974388 707.777
135.305 11.8413 701.398
160.786 99.0385 749.66
65.2668 145.429 795.849
293.619 -64.5331 768.784
287.968 -56.4092 762.652
245.864 -26.8439 725.978
1.92513 -43.1847 753.86
130.775 -0.616658 708.868
230.63 32.4018 710.492
242.403 35.1745 713.963
319.903 79.6028 742.167
-10.07 76.5694 747.039
194.879 138.057 783.534
-18.0813 138.74 794.667
161.791 -60.1397 769.196
202.69 -31.5904 733.08
315.975 8.51865 696.66
305.62 79.7194 741.012
277.922 81.7613 742.385
181.829 101.659 758.317
107.832 110.42 769.99
29.9163 106.699 764.443
243.971 -83.9002 798.603
208.611 -28.9044 730.988
27.7705 53.0461 732.144
16.0659 85.53 754.379
-16.0686 118.61 778.984
306.186 -31.6186 732.948
-9.8103 68.3725 747.773
244.344 -69.5831 790.653
66.0862 66.2575 738.565
221.104 -68.1461 782.651
21.6723 -33.9912 742.586
173.463 -11.5414 714.195
48.0326 -42.6218 751.647
-33.0714 73.8338 833.891
-18.508 113.649 779.712
306.981 -23.835 720.913
115.285 -74.0866 785.527
304.019 -20.8013 718.673
155.207 101.733 748.044
198.52 38.8712 712.968
287.178 55.5859 723.932
126.281 31.4803 710.746
269.83 56.1053 726.009
288.284 65.9463 730.293
54.827 33.8009 719.031
317.485 88.5205 747.598
191.328 66.1094 732.428
205.235 86.927 749.092
194.588 91.1968 751.291
191.179 97.5443 756.42
195.294 103.902 761.983
77.2951 83.1265 753.124
55.9246 78.5816 752.732
133.634 99.9922 762.26
-5.62052 72.7708 747.871
4.10044 86.2617 756.99
-8.74872 92.3723 761.837
36.0282 105.834 769.48
303.427 -96.0766 812.952
268.256 -94.2944 813.322
287.989 -86.0122 795.32
115.058 -100.42 835.54
114.122 -97.4034 829.54
105.852 -96.9377 829.446
121.822 -89.54 814.518
98.7549 -88.8817 815.917
150.414 -80.818 798.824
22.6158 -75.4255 797.16
281.902 -37.3418 743.956
174.176 -41.2699 743.759
225.365 -25.6248 725.796
177.102 -32.6064 736.241
294.605 -2.7391 702.569
155.612 -21.8479 725.446
206.515 -13.7301 714.934
4.65247 -42.5665 750.6
275.354 -1.20945 704.849
278.388 2.84378 696.848
28.2024 -29.8448 741.87
313.558 13.4023 695.689
200.441 1.67799 702.023
91.4449 -11.2047 718.913
216.984 11.8327 697.352
206.424 11.7251 694.924
185.961 11.6337 699.02
43.5857 -10.0211 719.698
104.366 0.790779 707.39
323.039 35.0104 709.784
44.0308 -6.54266 717.036
137.558 16.6629 705.568
335.588 49.1086 721.029
333.844 57.6883 726.406
197.882 36.6371 712.338
332.351 64.7647 733.135
147.609 35.0394 696.425
-41.5685 10.3324 707.888
305.972 71.8341 738.646
326.009 78.3238 741.666
324.833 84.0521 745.007
238.883 72.386 736.58
310.649 87.688 745.893
230.43 76.6542 742.499
195.753 87.9829 748.333
198.818 108.349 760.567
53.0788 80.3902 749.915
17.0293 78.0711 750.581
-8.22997 73.8939 748.256
-11.5282 75.7177 751.034
-7.41343 81.1974 750.236
-28.4419 79.1929 750.266
226.481 137.375 783.238
18.6958 93.3785 761.34
-33.5423 86.8871 757.532
306.394 -78.9208 778.44
233.204 -77.1251 787.341
139.683 -71.7837 789.532
251.684 -55.608 761.61
84.8719 -76.7347 795.835
213.806 -23.4496 729.764
253.071 -15.2149 712.823
138.74 -28.9665 737.567
334.293 0.0260891 700.941
96.3928 -26.6515 733.663
85.666 -24.3038 733.467
109.186 -12.0429 718.126
174.925 6.84204 700.473
235.317 37.7237 712.976
119.868 36.08 720.242
137.757 44.9787 710.226
212.969 58.6951 729.574
266.677 77.9913 743.132
278.546 84.0678 744.964
255.867 93.8383 751.253
217.832 92.7274 752.783
200.032 99.1686 755.786
0.665909 71.0137 746.407
36.0776 78.688 750.39
27.0145 80.1161 753.224
134.848 102.624 764.066
295.133 146.133 792.284
122.065 109.606 765.947
118.269 110.1 768.078
-9.68656 87.5657 758.248
155.062 -86.7308 808.476
230.711 -52.1868 754.364
227.505 -51.9922 757.07
156.791 -55.9353 763.389
-34.5443 -68.2369 786.823
142.66 -35.6648 739.265
202.315 -20.8664 724.032
142.049 -24.2871 730.402
161.321 -20.998 725.934
16.2617 -35.0006 743.57
101.401 -16.5264 724.182
156.311 11.9478 701.006
166.118 20.9704 708.341
-33.0524 10.9278 702.496
77.8137 75.2149 751.637
122.995 89.0009 753.417
202.368 128.945 780.706
44.2339 108.03 771.244
291.102 -72.7077 781.483
129.745 -89.9054 814.759
206.141 -73.3288 781.884
4.9283 -90.7846 821.101
201.716 -54.2207 764.655
207.915 -49.5436 752.099
-2.41078 -50.9473 764.133
153.455 -24.6182 730.913
70.2758 -36.1488 744.933
246.005 5.21139 699.295
212.6 5.74444 699.022
218.121 79.4277 742.75
171.3 98.1306 755.91
-5.99298 86.1443 755.97
286.507 -60.7002 764.927
276.3 -30.1309 728.116
3.01005 -53.6096 766.535
335.856 5.18682 696.878
152.293 -18.7661 720.023
187.597 -3.14125 705.481
194.74 -0.909344 705.668
143.026 -6.17977 711.911
47.2765 1.78099 708.497
333.781 50.0217 721.94
152.348 33.5297 692.836
-21.0645 7.43493 704.804
192.107 86.6553 748.877
-7.15423 50.0826 734.339
291.081 -8.06821 712.617
-27.5999 11.6994 708.211
336.305 12.0251 700.053
32.6517 47.7692 725.898
164.756 50.6247 702.54
118.083 69.2615 737.556
21.9182 71.7729 742.867
199.239 74.4459 739.49
321.282 133.359 782.433
104.833 -120.055 884.096
115.979 -119.42 876.716
23.8814 -103.407 847.253
23.583 -80.6299 806.857
280.406 -79.0679 790.964
3.53554 -69.0778 790.902
116.483 -58.0641 768.329
-2.11483 -28.8162 738.093
122.04 -26.3663 734.539
122.585 -20.8767 729.491
96.0679 -11.0768 716.733
275.667 -8.12507 707.853
-6.24795 0.749662 711.515
103.911 4.37047 705.191
150.524 29.0863 706.856
271.89 27.6554 700.188
173.306 46.4568 711.833
202.421 84.4982 747.411
-20.9909 90.5443 757.927
71.6682 92.7659 753.229
203.027 91.3908 747.321
284.82 132.759 778.303
238.017 139.464 787.852
317.782 148.303 799.804
307.401 -115.715 853.757
269.472 -95.3929 811.797
301.137 -86.1238 799.286
158.409 -48.3761 751.592
3.3766 -25.7282 737.077
189.217 -27.3447 731.832
286.743 -17.3401 717.275
162.425 -13.041 719.936
294.36 -14.55 715.104
201.909 -3.02764 706.75
174.655 4.59335 703.89
167.119 5.02798 702.758
130.616 36.4892 708.908
176.577 39.9891 716.633
78.3742 79.2104 747.55
196.546 90.3107 747.684
225.932 90.3887 751.937
188.84 101.678 758.182
239.182 106.255 764.839
77.1324 -50.9289 760.89
151.413 -28.8675 735.42
194.831 -15.3138 716.043
10.9469 -6.44195 717.154
113.249 4.03414 706.528
130.316 64.27 728.328
198.617 65.8707 732.168
179.428 77.191 731.681
150.349 80.6114 735.373
201.739 100.552 755.176
54.687 163.588 807.466
235.668 -84.2578 797.414
25.9594 -51.5203 767.114
151.365 -9.95993 714.967
79.5977 2.81056 708.912
94.0164 3.49214 708.725
274.001 2.93359 697.154
34.2113 64.0479 745.08
7.02448 65.5897 735.255
4.66037 93.3497 757.279
127.28 -104.712 831.428
36.4481 3.07511 708.215
260.616 3.13125 698.628
184.616 -51.3933 757.968
139.476 134.191 782.739
291.292 151.988 783.816
76.8841 -94.8545 824.334
45.0042 150.612 795.463
70.8011 -3.79736 716.956
308.818 131.102 792.832
312.253 45.6208 719.103
136.498 172.07 814.443
185.169 -80.4103 796.354
203.742 -5.44089 707.393
135.786 31.9076 711.005
272.865 82.5135 744.017
65.1163 -76.0569 796.842
175.94 -22.1438 725.641
102.734 3.27784 707.171
299.973 60.4912 731.164
270.53 57.6482 724.57
245.206 73.4982 736.832
93.7434 -47.3964 757.806
312.322 9.88686 695.929
224.345 35.0827 711.183
109.585 77.9762 747.385
189.178 139.16 788.665
257.881 70.9813 737.962
-20.4609 -123.943 896.244
284.396 -77.5882 791.036
100.641 81.0472 752.125
104.676 87.8882 759.818
78.2429 84.6521 754.818
-19.7691 65.9851 747.8
130.062 101.612 765.054
42.7499 85.7215 758.157
294.047 146.462 794.304
-38.3192 75.3446 754.299
311.141 -106.422 835.385
283.009 -99.9952 822.27
148.955 -96.0333 824.477
296.302 -67.2102 768.322
216.391 -76.6845 787.951
-12.2974 -97.798 832.839
154.408 -71.7009 786.571
2.50705 -85.0544 818.631
218.952 -42.5483 746.467
127.393 -49.5107 755.663
294.638 -25.314 723.597
138.595 -47.8941 756.323
57.2642 -57.7067 773.442
144.145 -32.7811 735.238
292.256 -3.80237 702.573
238.349 8.5778 694.1
294.011 89.9297 747.759
297.982 92.6463 749.246
303.609 99.4962 761.401
93.3964 68.728 746.022
-6.47358 58.2914 747.13
209.275 103.629 762.179
26.5892 68.1603 750.551
59.5053 84.2116 755.692
219.381 138.917 789.609
-19.3109 87.5873 760.789
304.561 82.1597 742.297
229.362 65.5206 738.12
-6.39741 23.7975 713.196
283.502 70.5368 740.668
33.3625 23.3595 712.655
104.504 33.49 718.331
291.445 57.4483 725.173
306.637 59.2605 723.378
322.718 39.1519 713.095
198.482 9.5034 694.654
213.777 10.0292 696.412
31.8749 -23.0479 733.496
91.9933 79.483 751.532
97.8853 71.7931 747.727
289.33 94.4212 748.056
285.491 91.5318 751.921
331.611 93.8221 756.594
-35.6138 25.1113 715.091
217.289 56.4734 728.821
225.711 46.9423 720.487
307.52 58.4307 732.084
294.887 55.8509 726.293
298.799 48.2915 723.236
75.1704 9.81487 703.476
162.989 23.0899 702.192
331.508 47.5622 723.024
70.8417 6.47255 706.5
332.926 40.252 713.781
51.9059 -22.5302 732.062
288.713 12.2844 695.295
55.2383 -26.0195 736.169
31.7442 -37.9588 748.293
179.904 -19.8252 720.928
165.582 -25.2264 726.821
186.71 -41.5217 740.515
149.326 -50.6262 758.711
97.1748 -68.7272 784.905
92.9312 -72.3592 793.091
157.548 -85.6274 807.196
297.103 -68.7381 773.798
285.699 -76.9008 788.954
289.371 -97.0689 813.371
305.295 -97.5808 820.179
300.82 -98.9942 819.966
57.7559 148.177 805.13
131.032 146.71 798.667
-34.8023 76.3074 753.575
25.1214 81.5699 754.481
-35.8677 57.6311 737.631
190.412 96.4537 757.851
-1.30106 26.3078 716.02
86.6508 33.4726 718.211
-42.3023 9.39086 711.12
-42.0533 7.73452 709.819
135.504 29.525 713.587
168.105 1.62614 701.642
235.882 10.4205 694.44
120.715 -18.8913 723.93
179.704 -23.5312 721.943
5.6494 -58.5922 771.952
4.54823 -116.331 876.585
103.294 -100.905 836.556
53.1271 -20.1863 730.223
116.215 -27.9454 733.652
214.476 -35.8184 738.998
53.2362 -35.5985 745.542
-0.495941 -39.9851 748.19
9.02421 -40.9926 753.479
88.9523 -53.7671 766.082
334.77 -62.7096 767.679
152.399 -58.5921 767.591
264.853 -65.4796 771.641
293.961 -82.28 794.061
294.063 -96.5621 818.009
9.84673 123.202 776.879
20.218 114.713 763.112
210.416 99.8965 758.608
79.5301 94.3874 756.984
323.848 90.2253 751.078
329.441 89.0285 747.998
156.189 87.5711 736.362
149.111 86.7442 737.277
169.456 86.2675 742.248
324.306 80.6734 743.62
189.75 80.3355 738
311.439 75.6455 739.778
328.811 42.9265 721.873
-28.2593 45.0298 726.239
179.239 39.9321 710.593
110.073 39.9778 717.224
106.115 12.2293 700.579
221.264 9.34829 699.786
170.234 9.01729 700.024
282.769 5.87532 700.487
36.2104 10.7769 704.228
105.744 8.92791 706.128
-41.9879 10.863 709.835
195.28 5.66431 701.897
120.512 5.89713 708.258
318.648 -1.05658 701.922
291.195 -2.63769 704.338
158.904 -17.5528 720.173
203.922 -24.7984 731.156
58.138 -26.9999 731.424
298.066 -34.4314 739.279
269.817 -51.8513 753.153
289.465 -53.516 755.681
240.367 -52.1347 754.153
134.813 -53.2304 764.384
299.968 -61.2695 764.62
215.169 -74.2011 790.265
216.723 -77.7676 790.098
310.596 -81.7519 795.314
250.005 -81.1739 793.78
120.935 -77.7511 793.401
195.608 -82.1262 800.959
147.047 -86.1387 812.136
261.48 140.156 774.453
61.919 138.865 788.512
48.1423 108.281 773.029
113.821 105.171 753.221
278.592 100.909 748.94
323.642 87.0855 745.289
258.627 85.4674 745.617
131.292 79.201 745.091
267.598 76.1559 739.54
5.24447 79.2925 750.154
139.533 69.647 732.625
-36.9387 64.5772 744.358
113.8 35.9495 713.56
144.047 9.24927 701.516
312.801 -0.542952 703.555
294.813 -4.67206 707.417
200.314 -4.24136 709.51
109.222 -3.2357 709.921
239.063 -23.8695 728.891
196.115 -23.4887 726.873
192.065 -33.2085 735.605
153.953 -40.465 747.826
277.808 -49.5523 754.123
237.393 -49.2438 752.032
204.479 -53.6972 759.709
105.585 -55.1809 766.602
176.633 -60.8384 761.703
135.737 -61.1369 773.145
195.6 -64.4116 776.91
56.7464 -71.8177 792.152
315.704 -84.6161 801.592
312.825 -88.4337 801.567
104.098 -84.1615 806.781
290.072 -97.0974 821.052
121.795 -93.045 819.033
95.6677 -92.5035 821.816
133.828 -94.6638 823.893
153.656 -95.7881 818.398
141.383 -100.942 835.604
119.068 -101.368 837.678
52.9092 107.211 763.44
285.773 102.415 757.203
301.467 100.121 753.031
332.025 92.5944 752.088
276.042 89.7634 751.002
251.429 82.3372 743.666
295.887 79.0807 742.471
331.266 74.9248 738.298
72.0897 77.2178 745.41
131.013 69.7102 733.731
127.618 68.0853 738.142
147.989 62.4959 704.563
315.393 37.3285 712.243
175.479 -2.94586 709.938
5.79174 -18.5696 729.72
288.726 -24.6663 720.383
293.113 -26.8363 728.703
174.654 -36.1307 743.313
219.1 -42.753 747.39
4.00598 -44.7738 749.705
305.781 -54.3824 757.303
154.024 -51.0868 760.322
164.949 -57.43 766.527
149.826 -66.9649 780.089
92.5637 -72.4605 794.183
137.065 -75.9614 789.089
192.513 -79.5096 797.147
225.18 -81.6869 800.842
19.8695 -77.7587 805.901
279.599 -90.3977 808.208
298.472 -113.87 859.852
273.18 -116.765 860.011
232.575 146.018 790.012
-4.38066 119.118 782.035
109.294 104.502 760.965
102.303 104.048 761.388
17.8206 94.9623 761.317
145.909 90.8549 752.669
145.554 85.8411 742.906
224.384 82.5348 747.009
326.131 76.2785 739.443
-3.66366 79.7987 752.483
-3.0377 74.5907 756.891
124.055 70.4574 733.955
184.442 69.2371 737.114
13.6128 67.8365 741.694
178.566 37.4952 711.887
144.957 35.3485 698.23
174.679 31.5948 711.145
122.111 27.0836 708.969
120.233 26.2295 710.301
180.712 -21.7142 723.319
191.274 -36.5018 741.136
187.943 -64.1797 773.872
288.6 -68.1331 768.881
228.409 -75.2316 789.772
75.1672 -72.5022 791.27
109.884 -91.1998 821.461
-24.0028 -88.7819 821.684
289.364 -113.053 853.233
274.187 -114.802 854.413
196.044 94.0507 753.138
50.7209 90.2633 756.605
104.642 74.5572 746.952
329.769 67.9853 737.521
288.825 64.2186 734.181
192.845 34.8844 707.662
292.895 5.35867 699.84
278.586 -3.95146 706.207
199.305 -2.81328 709.999
124.601 -61.6743 774.515
111.292 -89.0606 815.591
299.503 -100.93 822.623
297.39 -106.208 840.631
1.52357 -115.593 880.881
17.4066 -115.864 877.791
4.22885 -116.958 885.116
122.891 -64.3891 784.136
220.031 -4.15718 706.643
346.272 35.435 707.572
307.117 100.686 753.963
143.968 -101.827 792.325
183.969 27.9587 705.898
96.6534 92.47 755.463
142.167 32.1298 707.23
-20.9892 -36.1698 746.115
-2.78969 -59.366 771.232
-13.141 -96.1488 830.952
272.662 -62.2136 764.319
207.943 -79.2147 789.169
-12.1853 96.6461 761.846
62.8717 92.535 754.942
-31.8613 57.5173 731.701
94.0868 81.142 749.062
194.493 75.986 737.399
195.095 2.07123 706.642
81.7359 -15.2957 724.547
-18.9264 -76.2205 797.473
184.714 -58.2346 762.274
-0.593226 -96.4585 828.059
-21.0808 119.548 780.759
-19.519 105.857 771.308
85.8604 97.9088 762.424
274.095 123.479 774.826
21.6837 6.55674 705.985
1.58153 -6.43656 715.951
133.405 -13.7655 718.289
172.91 -27.2978 729.188
-7.86564 -108.882 851.508
69.1792 117.28 775.215
249.013 140.071 788.378
132.758 92.201 756.162
229.76 106.187 761.739
8.2184 53.1996 732.282
159.546 82.1049 733.706
141.842 -76.5494 795.253
192.042 -51.6845 756.662
23.397 -108.774 856.87
157.257 -55.7089 769.217
96.9879 -73.1678 793.387
296.665 -17.3131 716.71
138.36 -57.6393 769.14
181.458 -45.5235 757.86
191.508 -55.6994 761.518
250.217 -45.3128 746.835
272.451 -24.8584 725.639
-0.171848 32.4733 720.655
206.068 -20.6987 721.503
32.7581 13.0035 707.917
233.797 -42.2029 741.539
-30.7764 -25.0162 906.751
168.18 -23.5197 728.823
289.33 -76.2736 787.82
165.763 -23.6518 731.969
277.517 9.9634 697.457
111.233 -30.2845 735.48
-36.6018 8.74359 809.003
4.51736 -46.0666 762.04
194.812 -9.19516 709.595
187.72 91.2188 752.036
-27.1815 -83.2432 936.548
171.395 27.3743 707.221
-26.9496 -72.4883 919.266
-33.9492 78.9265 756.571
-27.2468 81.8975 756.3
336.425 45.8638 722.168
29.7396 -23.2707 738.888
226.932 32.3446 707.815
-30.0737 -50.8555 884.191
138.139 24.0516 705.971
111.023 11.5744 701.332
115.539 142.417 801.969
105.906 11.0605 699.657
4.36637 3.51508 711.716
112.58 9.53373 698.58
237.552 -78.8852 789.68
165.613 25.957 704.046
220.97 84.5386 746.146
28.3435 -33.5572 747.249
244.468 86.1279 745.542
20.5069 0.405345 713.776
39.9327 52.4097 732.336
55.8106 11.1318 700.963
116.09 91.3268 746.588
214.889 49.7032 724.336
6.97571 2.1903 710.777
113.769 -88.1296 813.502
247.198 64.444 737.324
26.8152 13.2058 705.967
15.5877 29.1247 716.057
326.196 87.3875 749.056
16.5391 149.483 809.446
57.9066 89.2108 756.786
119.642 38.8844 716.798
144.86 -26.1255 729.657
98.4875 140.654 794.36
43.5711 76.7465 749.793
50.9453 25.7875 712.295
318.305 94.34 758.86
106.999 -52.1714 764.741
-22.4903 -88.7274 823.009
123.618 1.30846 708.027
257.048 88.3943 747.172
95.4306 101.471 765.212
-33.8856 3.5734 820.979
269.509 -35.6379 734.512
-3.7709 29.1915 719.883
76.7089 50.9392 731.307
53.6503 48.9406 729.371
290.018 9.24738 697.816
152.647 22.912 699.115
156.901 77.9945 734.58
53.4851 168.485 818.234
148.636 -25.6162 728.182
150.086 23.5624 705.165
94.0696 70.6301 744.556
115.822 -109.598 851.5
155.006 90.6266 747.087
128.448 30.6522 710.342
-31.8909 -26.67 861.78
-33.0373 31.3681 832.214
60.6353 64.6979 737.362
22.9037 -38.5085 748.562
-8.17068 46.1266 732.713
155.32 -82.931 804.593
-38.8452 35.4836 761.397
39.4257 75.5755 748.67
35.992 75.4158 749.719
19.7592 -99.2176 836.999
100.68 94.5095 761.616
8.99346 -86.3135 812.193
-35.9551 53.1863 780.403
-20.6764 67.2184 746.432
30.863 -69.5991 788.814
-36.9233 66.8015 781.777
78.3729 -55.6039 767.052
1.42709 79.7364 755.72
-37.8026 73.5842 751.871
113.059 -38.8713 746.99
-6.15484 95.313 766.126
84.4604 139.688 791.589
-7.19633 148.903 806.329
-24.632 142.969 801.782
-34.5484 81.8518 757.205
31.5648 -34.5673 743.767
274.971 -89.0469 805.353
192.783 -64.1511 771.502
284.236 -20.0444 720.55
226.748 -77.0327 783.02
63.0439 91.3106 757.281
196.697 -9.16129 712.628
149.205 -97.5255 832.296
205.136 -71.9522 780.253
178.595 34.3291 712.394
71.7106 92.9972 757.956
161.119 134.98 771.798
273.166 -55.6651 758.182
26.0068 93.3642 766.598
144.545 -23.6015 726.647
106.118 83.4929 750.179
-36.9666 119.966 786.446
-37.9767 128.401 789.323
29.5524 -90.0595 825.597
76.5135 -30.8931 739.67
108.963 -90.664 816.278
5.91479 70.7115 746.6
-25.1578 137.499 789.501
19.0614 92.9704 762.52
56.8524 9.25633 705.252
230.365 -74.6557 786.416
-34.9401 86.1397 813.285
156.765 -61.8981 770.604
143.286 -86.6693 810.22
244.474 84.5562 747.199
133.884 87.1485 748.891
-25.1641 29.6589 921.317
-26.7684 67.6516 744.717
189.708 109.091 767.034
93.5588 -2.91344 711.352
87.457 -59.8985 770.084
256.457 14.8918 699.316
167.265 11.0096 697.45
135.953 26.8516 706.902
178.656 -18.3218 722.888
-27.131 26.8984 907.73
189.663 -11.7673 715.994
92.0274 -29.1192 733.959
117.933 -81.0346 803.715
212.36 -32.2118 731.086
-12.8894 -87.5467 816.557
289.789 -55.9992 762.152
96.5939 -24.0639 731.779
22.2616 91.5225 757.987
98.1434 -74.0995 789.707
278.561 -35.3534 739.331
99.0864 -62.9877 778.624
149.502 -64.2486 774.959
123.801 -67.4756 782.367
54.9286 -16.4888 722.883
-0.739559 -106.475 854.092
132.701 3.00127 705.291
93.3846 -38.0309 745.813
22.6631 110.396 771.928
116.368 50.4857 725.568
-38.818 57.5267 743.616
70.0331 -40.5808 749.257
16.0438 -78.1588 801.339
85.2409 91.7035 755.711
84.5255 -13.8027 722.24
70.8963 68.5264 745.925
76.1523 97.0506 760.784
17.9127 -20.9061 727.913
122.903 64.798 737.9
153.476 -3.15046 709.48
-6.41713 113.294 777.426
249.878 12.4158 697.929
302.107 -37.3579 737.293
162.636 38.8435 693.225
153.68 81.4467 734.136
-27.8758 22.5537 713.233
222.112 -47.0548 750.909
-29.2049 -26.995 902.605
-27.1691 -37.3527 930.962
-35.5205 -0.180638 811.519
310.126 -0.150125 700.325
59.8571 -52.1743 765.332
176.549 74.2002 734.882
311.318 -21.0637 720.418
108.174 -97.4943 831.098
25.9936 70.0071 747.752
247.675 -37.3384 739.541
-5.81486 31.2413 720.076
-10.8687 84.8409 757.27
267.116 -32.7456 733.118
204.372 11.6263 697.473
202.993 38.6935 713.564
-38.4212 44.0597 728.295
284.961 -11.305 711.969
83.9572 85.5725 753.088
116.853 69.213 734.16
253.402 -36.5293 739.501
151.096 -93.0398 817.521
32.8701 19.9358 717.477
188.281 -33.9013 737.656
182.987 77.5174 736.074
244.255 74.3478 738.766
151.825 -6.90655 709.548
290.74 -2.40276 703.771
143.01 -64.8634 777.091
162.876 -56.313 766.304
43.6669 52.5033 720.212
100.923 19.8237 716.071
-36.3828 71.1747 782.889
250.026 156.091 798.521
252.559 -32.4472 734.517
121.134 -1.14638 713.291
-37.9494 79.8528 765.657
298.14 10.6007 694.978
84.5223 68.3829 736.803
309.428 64.5386 730
84.2322 -3.64775 714.38
-2.8949 93.6365 763.634
94.327 63.3964 745.999
121.299 -21.2639 726.737
229.315 110.117 767.038
295.607 65.2868 731.855
75.1224 105.961 769.499
58.8805 76.7094 754.448
99.3605 8.85282 703.852
-35.1196 104.077 771.561
63.3342 158.973 809.524
-33.6556 159.724 826.697
51.1326 10.0201 706.477
13.6105 -86.5365 814.066
-16.4231 174.977 827.706
215.988 91.5902 749.182
305.304 118.646 769.883
51.8147 10.9694 703.231
-19.4656 -0.397199 713.196
112.768 4.03889 705.074
211.558 132.505 779.499
245.785 93.5807 751.441
6.49721 92.7932 762.309
3.73073 81.1625 754.208
113.355 15.0703 701.221
147.328 -38.0994 742.11
33.965 -67.2865 785.902
31.247 -59.2068 776.887
176.838 -57.6246 765.731
247.424 -10.0353 711.057
-7.09507 50.311 729.791
275.82 -6.31105 703.128
-10.3184 91.0956 760.412
336.755 44.779 718.831
8.55046 -16.0654 725.581
60.4188 146.859 808.399
329.986 43.9899 726.208
98.3974 104.115 765.207
5.72459 -70.8289 793.984
306.342 69.4708 737.15
12.7638 -70.5387 797.842
213.582 -36.2701 737.414
4.94792 -54.7464 770.323
189.713 13.2311 697.256
-40.9874 -12.5261 733.394
6.90958 35.6447 721.491
126.237 45.7372 722.242
23.2682 -42.277 756.299
64.9865 -48.9619 761.667
124.906 -61.3421 772.531
-1.48209 -34.4652 746.964
274.657 -54.6963 761.389
42.6893 137.955 799.385
124.6 -60.4157 775.738
136.346 -4.61251 708.434
6.96656 -18.7142 730.879
22.1891 80.8528 754.562
127.304 -107.368 833.914
-12.7721 -27.501 740.345
19.5961 152.379 805.2
233.424 14.4248 695.711
22.0731 -16.8164 727.277
133.523 -62.5119 776.579
305.24 -31.4703 731.93
52.3133 4.72014 703.871
266.069 158.866 798.779
80.9181 161.755 793.893
310.62 4.99306 697.967
17.6883 63.3923 736.376
-36.5723 39.9676 806.587
-15.9827 86.8214 758.242
-12.8244 15.628 710.677
35.3757 81.0629 754.096
150.796 -14.0367 717.284
67.881 81.9183 759.656
105.508 109.808 767.69
144.019 42.8957 703.238
-12.3901 174.15 826.052
97.424 92.0008 755.112
141.748 -17.9126 721.297
-33.2888 38.1366 837.177
268.982 52.9492 724.594
13.7181 21.8518 714.21
-25.9154 8.34307 934.546
60.3159 84.5226 757.063
310.052 9.59344 696.157
114.353 -27.3944 729.552
149.359 39.4399 692.815
-24.6616 83.1582 754.775
141.988 36.0864 711.652
334.723 83.5503 741.699
62.1383 -73.6198 794.808
80.0123 2.97491 708.011
11.2254 -6.71191 717.678
38.4124 83.0776 752.829
295.225 -57.5766 763.856
263.33 77.2997 739.831
6.97184 -91.9451 825.632
-23.0809 91.8145 761.519
161.382 -14.1075 717.105
136.816 93.102 754.118
60.4516 107.776 769.779
82.7857 -76.2201 797.318
93.24 3.23095 706.8
250.839 -11.74 712.059
-30.3524 91.4103 767.278
53.7823 84.5532 755.959
252.435 117.476 760.8
145.748 31.1807 703.291
-31.3757 27.055 829.991
-35.3412 73.6975 796.828
-4.04536 -74.24 796.402
53.0762 -64.515 785.546
166.666 -60.5742 768.918
-33.1642 52.4785 734.723
124.028 -14.9359 721.145
-36.3481 49.8247 740.084
110.919 -11.8036 716.953
253.394 -51.1171 752.771
138.527 73.861 738.033
160.574 83.164 732.179
209.153 96.5273 758.26
82.5273 -24.3204 728.334
2.69334 33.1351 715.424
-8.35247 77.5362 751.531
57.9196 -81.3378 799.752
149.894 58.3569 699.913
92.1758 80.9555 749.282
111.704 9.93191 703.795
290.146 -36.2406 733.218
68.203 -48.3864 764.91
281.118 103.472 758.181
135.163 98.2725 758.691
121.824 -41.1586 748.311
181.571 102.712 760.232
155.683 82.2332 732.107
240.583 -81.3723 794.527
118.414 -71.9558 795.518
187.583 11.2962 696.498
-12.7966 89.9868 762.135
119.28 -71.6514 787.446
106.929 74.0804 743.841
82.5118 -74.7512 796.475
-34.9227 -43.2909 817.244
-21.5218 -27.8938 742.831
114.097 -97.414 827.651
235.749 105.134 761.985
51.9447 -77.0338 801.218
-7.17833 -108.36 853.164
65.289 62.7376 739.763
299.806 -77.2825 785.643
265.364 -23.1764 721.149
-34.9025 -66.8034 844.925
11.3601 21.7013 710.808
310.271 84.1761 745.417
-32.8148 58.3149 737.463
23.1742 -27.1373 736.951
51.0768 84.0781 755.291
254.285 79.08 743.27
-37.9157 29.2938 753.031
184.64 -34.7126 738.611
241.599 64.5814 732.622
142.629 -1.64052 714.756
-28.1892 45.0306 727.99
299.744 -8.70652 710.052
320.011 44.3944 723.427
162.563 135.7 788.244
115.947 -23.9955 729.658
283.674 -96.7489 819.749
-35.564 46.7067 794.685
203.956 111.391 770.457
226.195 80.6077 743.088
29.6674 77.8524 753.521
-3.11604 -39.5143 748.288
161.971 34.5965 698.301
-28.1001 -58.8233 924.298
17.3826 -51.1416 764.555
120.177 137.079 782.112
212.838 13.3628 694.851
318.28 57.3394 726.107
293.19 0.663582 699.957
78.1318 75.0501 749.826
54.0455 -75.2153 794.028
-6.16344 27.0868 716.575
306.757 -61.0203 765.365
273.838 4.17236 697.889
102.016 -11.8846 717.769
278.031 -68.0021 773.574
-8.70894 -55.1089 772.047
-3.57306 107.122 773.967
118.64 62.0162 729.821
158.174 3.29056 701.879
202.105 -49.1875 755.598
154.753 -2.81035 709.218
-35.6653 82.7829 803.562
273.036 12.1634 695.161
-7.37445 118.78 788.645
28.7118 -115.766 876.674
58.2408 79.2059 752.335
-6.59362 74.178 752.121
233.557 -81.8996 793.293
88.196 85.3301 751.474
-37.3807 130.988 785.922
219.036 90.405 749.643
154.963 89.1487 741.942
29.4827 -113.019 870.665
89.8292 143.369 793.896
23.6625 -3.33736 715.265
-24.6787 83.0985 754.156
8.33671 134.517 799.485
330.913 83.6219 744.888
-30.9588 -43.8591 923.356
87.8395 -29.3143 737.306
30.5481 76.5277 750.997
56.6778 162.534 821.402
117.975 -107.483 851.674
10.1553 1.95362 709.445
258.661 49.846 721.044
-14.0396 79.7486 752.345
92.1861 107.706 770.176
25.6241 52.737 730.186
129.145 44.9704 700.465
104.456 9.51224 701.767
74.797 -54.3887 765.116
-5.48174 15.4221 711.869
326.82 83.9172 742.945
307.499 -106.553 842.993
246.285 -55.6268 760.827
279.657 84.9322 746.409
135.875 -62.9602 804.424
319.975 9.84589 695.628
70.1156 137.849 792.286
73.7949 81.7522 752.189
-32.5041 -25.371 852.426
-26.704 109.847 773.194
13.8152 -79.0665 809.015
333.926 30.6371 708.036
171.703 -41.6585 746.439
245.042 77.1994 738.893
-18.797 118.904 780.094
54.5377 106.245 770.584
178.171 -29.3711 728.06
147.378 -10.8924 714.249
134.096 -53.2168 762.885
232.206 -29.805 729.705
86.6586 -79.8355 797.165
315.265 146.583 791.433
237.223 -45.5881 746.36
-18.962 42.54 724.59
109.256 -8.64355 715.812
15.4465 91.7225 760.967
117.597 86.8058 753.16
292.444 113.648 771.376
86.5464 99.416 759.248
125.666 -28.5127 734.39
30.804 -105.006 853.875
201.189 -49.1918 750.396
-34.8419 78.5024 782.151
114.931 30.9039 714.351
-0.778867 139.251 796.953
293.702 -94.6868 816.828
-36.629 34.5375 786.033
124.458 -74.565 790.339
76.8337 22.6847 709.724
21.7271 34.1446 719.653
-38.3662 74.5017 766.011
152.707 -83.3621 801.775
21.5487 -16.538 725.7
58.4096 -69.7086 790.948
-12.6212 4.33121 710.152
157.219 97.8548 746.131
78.1817 35.2128 718.805
231.084 141.185 796.403
167.341 -16.5962 717.889
183.649 3.34646 703.695
9.71558 78.1732 752.385
116.478 32.8845 714.21
126.69 -19.0251 721.709
-34.8943 46.2809 803.144
11.1403 -0.52911 714.71
10.8906 -27.0142 737.228
24.0062 -81.2046 807.657
125.879 -55.1645 765.875
79.8388 90.249 757.079
-18.8017 -18.0342 729.668
171.071 107.81 764.465
126.077 72.3104 738.236
147.129 92.0121 749.073
25.6885 96.7665 766.097
127.692 -1.12207 707.592
211.513 83.8052 745.935
-39.4058 -1.4614 744.932
26.0666 -69.9747 791.606
220.274 -54.7786 757.238
128.607 16.4927 675.81
57.7953 167.336 818.818
-33.4442 2.12115 710.848
33.4027 167.396 814.743
-12.6733 46.5499 732.394
-27.1438 -40.0103 935.428
88.8379 -34.153 741.805
40.755 73.8756 748.365
-33.9748 112.327 826.796
-31.7409 -93.1916 883.05
275.715 57.7959 725.673
252.209 -5.26703 707.998
228.888 96.7953 756.141
12.0155 27.8792 715.373
-36.5734 148.151 795.598
250.201 -59.7406 765.353
238.679 132.426 780.329
7.4045 159.249 827.557
285.019 55.142 722.892
334.595 61.1946 729.439
84.658 -34.2561 741.794
141.952 2.19668 700.005
10.4214 117.798 776.293
88.0851 -75.1228 791.623
65.2919 -54.3383 766.539
-21.7032 96.9673 765.645
59.7993 105.973 770.274
305.522 89.895 748.766
33.6514 92.6739 756.397
249.966 131.825 777.88
-21.9915 74.7249 751.543
239.963 -36.3961 735.657
6.40395 84.7662 756.494
114.483 46.4672 722.84
242.074 -54.9463 755.549
298.932 -115.478 856.945
155.775 106.436 765.349
275.398 132.434 782.217
23.7194 67.8984 750.54
-24.3753 49.5624 725.959
121.99 -13.0553 717.004
249.33 -52.2946 754.027
132.995 -60.9432 770.862
106.306 71.4209 743.351
81.0331 66.7047 741.313
-2.41806 20.3093 712.847
293.014 -80.4094 792.441
292.953 -65.3947 768.569
133.303 -47.0433 753.743
144.048 -54.6781 763.667
155.776 84.3706 729.365
45.388 82.3931 752.226
135.348 31.6405 714.906
3.86295 -60.2113 774.295
194.033 75.9361 737.016
23.0389 -44.7603 762.522
50.6229 107.575 767.935
28.9254 10.081 706.17
325.533 46.8064 726.869
269.847 84.3036 741.786
-37.9211 35.6643 723.341
152.07 -91.531 814.845
163.27 46.9683 691.884
-33.5905 -114.916 870.682
109.936 37.1857 717.868
225.879 106.512 760.618
274.429 -64.1425 765.663
91.4288 64.171 734.288
110.29 -61.8383 772.091
42.9221 -10.1726 718.798
-6.96326 -43.3208 754.808
130.703 -12.1705 713.413
47.1222 11.1363 705.595
43.7427 -6.5961 716.56
125.673 0.113039 705.648
329.27 103.354 758.278
235.033 112.315 766.16
245.807 -76.7662 787.027
327.615 33.2114 711.631
54.547 94.9332 763.352
287.67 85.373 745.63
-38.3371 44.0209 728.1
76.6522 -39.534 749.526
164.104 -26.8066 726.048
143.498 36.5339 695.312
147.328 -15.1305 717.807
188.063 102.156 758.89
-34.591 86.3707 760.658
313.594 52.0056 721.726
23.3637 72.5584 748.823
51.6118 78.3006 749.917
274.595 -43.3824 743.181
-15.7915 143.887 804.144
27.2753 73.1091 746.625
74.7559 86.4369 754.263
274.238 -109.291 841.009
-14.7052 84.2446 755.867
309.889 72.3621 734.095
129.062 9.31418 701.646
87.958 85.7921 752.194
6.99647 70.1243 747.535
142.439 -6.09981 710.261
-38.2992 43.6781 769.817
240.614 84.0575 746.957
282.031 -112.737 848.016
164.548 95.8265 746.662
-8.63658 -78.8125 800.893
7.31443 12.7288 705.46
249.613 -24.2615 723.722
51.9297 -3.02576 710.636
-20.4844 83.6528 757.561
169.159 23.2953 704.647
169.209 -5.84273 712.299
192.341 99.3373 757.187
-34.8045 28.4796 804.721
37.1721 -30.3108 740.007
3.92427 36.8333 722.441
153.318 -27.9735 733.794
-35.4464 92.3126 801.355
24.5575 39.2354 720.679
62.9445 -52.7327 765.52
337.303 66.2318 731.377
131.913 98.761 761.896
279.99 10.6831 696.25
253.977 14.5696 696.346
-27.5324 21.9395 716.268
-36.7651 41.0782 801.67
120.647 91.7864 756.516
185.056 0.947305 705.044
23.0903 33.0959 719.489
68.73 38.4228 719.486
141.812 139.039 789.773
118.396 1.4238 703.266
249.911 88.1515 750.71
-39.5856 8.81494 737.097
-31.6147 -4.91098 857.615
214.827 80.0916 744.58
119.622 -28.1889 732.354
104.987 83.9163 749.974
15.9615 15.3178 707.474
116.774 36.842 717.53
294.189 -31.6479 732.283
316.824 86.9101 748.063
265.018 -78.5161 795.154
-36.752 -5.10028 720.798
327.26 83.9783 742.856
207.817 -67.0499 766.71
137.343 -9.85026 715.012
284.139 48.4033 715.029
134.365 -1.08516 705.12
110.356 25.7216 705.871
313.518 69.584 736.334
