1.5221 7.52594 -2.32268 0.519266 -0.0557713 -0.852791
1.87171 4.04764 1.55852 0.937244 -0.0702207 0.341529
-1.79853 3.1001 1.80607 -0.418539 -0.253613 0.87207
1.19036 6.70706 -2.46856 0.507666 -0.0563705 -0.859708
1.41683 3.20864 -2.09266 0.576217 -0.190015 -0.794901
-0.61764 9.34167 2.34091 -0.198605 0.00948503 0.980034
1.3131 5.2637 2.68336 0.185776 -0.0429192 0.981654
0.46439 5.6592 -2.76428 0.391096 -0.0470509 -0.919146
1.87386 3.79965 -1.82916 0.654427 -0.0771815 -0.752176
-0.295296 3.91103 -2.94034 0.126543 -0.051945 -0.9906
1.14849 4.54843 -2.39608 0.45019 -0.0122604 -0.892849
1.79329 6.60119 2.61634 0.0805324 -0.0323151 0.996228
-1.26886 3.00141 2.01034 -0.323154 -0.273166 0.906064
-0.112673 6.4178 2.44004 -0.168173 -0.0225396 0.9855
-1.05499 4.89453 2.20594 -0.247642 -0.00317258 0.968846
2.29131 8.83604 1.60296 0.937041 -0.0679495 0.342546
-1.2123 6.85841 -2.32678 -0.805677 0.0223507 -0.591933
1.26951 4.42503 -2.33466 0.491203 -0.0169176 -0.870881
2.14141 2.84892 0.55408 0.979644 -0.0142661 0.200234
2.16298 2.8842 0.378594 0.971519 0.19391 0.136195
3.27804 6.55585 2.83639 0.908489 -0.103376 0.404921
2.37831 8.46685 -1.73598 0.618695 -0.045413 -0.784318
1.75921 7.76206 2.609 0.331053 0.0882226 0.939479
1.58085 5.27521 -2.13756 0.592594 -0.0240426 -0.805143
1.05068 4.15674 -2.43705 0.43013 -0.0333147 -0.902152
-0.85524 6.84076 2.29216 -0.259377 -0.00084185 0.965776
-0.964051 3.45378 2.17222 -0.258529 -0.0573205 0.964301
2.64115 5.76454 -1.30488 0.62489 -0.095319 -0.774872
-0.00897154 7.81279 2.44292 -0.145595 0.0188588 0.989165
0.1281 6.7918 -2.93694 0.279752 -0.0332432 -0.959497
-1.00268 6.4551 -2.58646 -0.75664 0.0144993 -0.65367
-2.20981 6.58966 1.70467 -0.857493 0.0217485 0.514036
1.16332 3.0661 -2.22697 0.536053 -0.228871 -0.812567
3.21021 9.28219 -1.12593 0.767157 0.0314983 -0.640686
-0.766293 4.48849 2.25446 -0.156494 -0.00444549 0.987669
3.23345 5.44045 2.57832 0.890545 -0.12672 0.436889
0.372104 6.51409 -2.84713 0.334249 -0.0445609 -0.941431
2.5255 8.84775 0.7817 0.974203 -0.068884 0.214904
2.03367 4.55476 -1.69839 0.714762 -0.0217641 -0.699029
-0.109577 5.77387 2.40776 -0.208815 -0.0422499 0.977042
-1.70671 3.92887 1.90019 -0.383303 -0.032408 0.923054
3.45123 6.19569 -0.361073 0.865127 -0.136578 -0.482599
2.04036 3.22335 -1.62744 0.632818 -0.155067 -0.758614
-0.386473 4.01328 2.3137 -0.228221 -0.00834397 0.973574
0.0787547 5.7899 -2.91406 0.29318 -0.0323597 -0.955509
0.240351 4.69998 2.47203 -0.215897 -0.00573973 0.976399
-1.491 9.06712 2.09989 -0.318288 0.00307222 0.947989
2.95917 2.89756 -0.506258 0.932508 -0.29909 -0.202418
2.00392 9.04251 -2.08098 0.602417 -0.0542948 -0.796333
3.16775 5.112 -0.556403 0.980728 -0.112309 -0.15987
-1.74355 4.30646 1.90998 -0.38319 -0.0458064 0.922533
1.73885 5.73088 -2.03873 0.611601 -0.0616366 -0.788762
3.30075 9.07671 -1.04434 0.82823 0.00459564 -0.560369
1.71254 5.37413 -2.03756 0.623862 -0.0359971 -0.780705
-2.26003 6.82656 1.28426 -0.999064 0.0408942 -0.0140717
1.70635 4.07352 2.06155 0.939339 -0.0813793 0.333197
-0.520252 3.5747 2.27666 -0.232336 -0.0290143 0.972203
2.28254 6.03082 -1.63403 0.627888 -0.0868306 -0.773445
2.26676 4.27235 0.328733 0.977082 -0.0768965 0.19849
-0.852587 7.7284 2.29324 -0.248544 0.00385815 0.968613
-1.24223 6.70431 2.16635 -0.315974 -0.00775222 0.948736
2.1051 3.0428 -1.52736 0.633075 -0.248067 -0.733266
1.84306 2.70831 1.3362 0.915583 -0.067118 0.396489
1.43944 7.34453 -2.35866 0.51924 -0.059234 -0.852573
3.00451 3.11659 -0.482069 0.978986 -0.192892 -0.0661793
3.28943 6.83442 2.87126 0.916986 -0.104873 0.384887
-1.73368 4.09469 1.89904 -0.378106 -0.0478435 0.924525
1.68016 8.95052 -2.30728 0.541705 -0.0358128 -0.839806
2.59204 9.19248 0.583459 0.979094 -0.0680916 0.191672
-0.548208 5.51784 2.30175 -0.181579 -0.0350782 0.982751
-1.89535 6.6473 -0.902613 -0.461928 -0.88017 -0.10919
1.8895 8.44401 2.52412 0.694432 -0.0177628 0.719339
1.48696 4.89983 -2.19786 0.572575 -0.00579207 -0.819832
-0.985536 5.86947 2.23189 -0.262566 -0.046867 0.963775
-1.1028 4.06955 2.16725 -0.31522 -0.0487 0.947768
3.92388 5.00844 0.428609 0.984695 -0.0266654 0.172237
1.49005 3.6853 -2.11795 0.596058 -0.117928 -0.794234
2.57151 8.83641 0.550644 0.978491 -0.0566956 0.198346
-0.491469 6.08917 2.347 -0.184593 -0.0581772 0.981092
-2.01132 3.53766 1.76865 -0.46763 -0.0607277 0.881836
0.727212 7.00562 -2.73777 0.388218 -0.0356739 -0.920877
1.65639 3.36104 1.98233 0.935585 -0.106474 0.336666
1.56096 4.88224 2.53569 0.6884 -0.0970556 0.718809
0.6778 6.57228 -2.7361 0.398286 -0.0540888 -0.915665
4.08703 7.16939 0.504551 0.992111 -0.112677 0.0549535
3.39719 7.02359 2.69101 0.924059 -0.0980816 0.369453
-0.1672 9.31913 2.41619 -0.150224 0.0134924 0.98856
2.76012 5.09191 -1.15256 0.638108 -0.061439 -0.767492
0.503276 6.22187 2.52818 -0.173852 -0.00536748 0.984757
0.471577 8.17848 2.51311 -0.16558 0.00279702 0.986192
-1.22766 6.22256 2.16322 -0.3277 -0.0320988 0.944236
-1.86421 4.82501 1.8716 -0.406236 -0.0103554 0.91371
0.661803 3.73536 2.57728 -0.238457 0.00455596 0.971142
-1.33957 6.32455 2.12592 -0.334636 -0.0289879 0.941902
-0.428991 5.49252 -3.0009 -0.0351259 -0.00663819 -0.999361
-2.20835 6.05124 1.71937 -0.772314 0.017914 0.634988
3.90151 7.34635 1.30588 0.963664 -0.0358858 0.264696
3.09474 4.77881 -0.345145 0.988965 -0.0989296 0.110275
2.05507 4.03085 1.096 0.938246 -0.0681986 0.33918
0.769218 7.51333 2.5726 -0.18543 0.00856756 0.98262
-2.11391 6.66472 1.80749 -0.698802 0.00608352 0.71529
3.69127 6.56928 -0.114748 0.806206 -0.0656413 -0.587983
0.638257 7.16863 2.54923 -0.184058 0.00912311 0.982873
1.48822 4.37226 2.53872 0.703119 -0.0695013 0.707668
2.33048 8.86674 -1.80602 0.621815 -0.06702 -0.780291
-0.643245 6.55715 2.3384 -0.210801 -0.0149787 0.977414
2.03983 7.48119 -1.97818 0.619143 -0.0591685 -0.783046
1.86025 8.36337 -2.14695 0.601959 -0.0466317 -0.797164
-0.685065 3.33624 2.23497 -0.230017 -0.106093 0.967386
-2.09855 5.83564 1.80826 -0.575307 -0.0175186 0.81775
0.394988 5.4009 2.49997 -0.201003 -0.000689294 0.97959
-2.23641 6.20135 1.67836 -0.814312 0.0244768 0.579911
2.62112 9.07237 0.316368 0.980729 -0.0566325 0.186983
-1.50355 6.53914 -1.88144 -0.861596 0.0254934 -0.506954
2.7292 7.64336 -1.40866 0.651798 -0.0485211 -0.756839
0.337376 5.78328 -2.82117 0.355882 -0.0465782 -0.93337
1.00929 8.42722 2.60849 -0.178799 -0.000694654 0.983885
2.65744 3.25162 -1.07507 0.64663 -0.152131 -0.747479
2.37509 5.88674 -1.54092 0.630408 -0.0975089 -0.770115
1.41284 6.66894 2.66276 -0.0144949 -0.0300023 0.999445
1.27589 8.1381 2.66138 -0.0208047 0.00144765 0.999783
1.90936 2.80359 1.21595 0.911525 -0.0770326 0.403964
3.43767 6.47137 -0.44181 0.859505 -0.0811553 -0.504644
-1.19498 8.97475 2.19539 -0.28637 0.00313822 0.958114
-0.595924 5.66975 2.30132 -0.183024 -0.0503072 0.98182
1.38805 6.89966 -2.36354 0.529615 -0.0632443 -0.845877
1.44762 2.94936 -1.99297 0.566674 -0.246334 -0.786257
-2.18189 2.9441 1.56354 -0.63631 -0.359253 0.682676
1.24358 7.90373 2.6527 -0.0761588 0.00072508 0.997095
-2.31836 4.77435 1.63118 -0.487401 0.0134071 0.873075
1.68296 7.24972 -2.20928 0.547559 -0.0757785 -0.833329
1.68538 7.43744 -2.22459 0.537365 -0.0627673 -0.841011
3.38457 5.85305 -0.25158 0.890187 -0.252095 -0.379494
0.143878 5.43134 -2.88181 0.32315 -0.034332 -0.945725
-0.90655 8.04196 2.27668 -0.259195 0.000712884 0.965825
3.47075 9.00266 -0.561164 0.998733 -0.0486805 0.0127431
-0.225718 6.08248 -3.00766 0.0981438 -0.0245526 -0.994869
2.33828 6.70617 -1.64594 0.623403 -0.0708699 -0.778682
2.66101 6.55055 -1.37747 0.626119 -0.0765691 -0.775958
-0.0456004 5.3439 -2.9403 0.218455 -0.0488606 -0.974623
-0.396998 8.78558 2.37721 -0.173525 -0.00569451 0.984813
-0.824639 3.37529 2.20087 -0.233135 -0.0762933 0.969447
-1.09952 3.34413 2.13059 -0.277853 -0.100259 0.955377
2.1311 3.56045 0.756746 0.979822 -0.105595 0.169703
0.900931 4.43129 -2.50622 0.411908 -0.0227146 -0.910942
3.42189 5.27901 2.19418 0.911265 -0.114718 0.39552
-2.0776 6.61867 0.179316 -0.98318 0.0423975 -0.177652
1.31185 5.56135 -2.32471 0.516451 -0.0488204 -0.854924
3.27418 8.43825 -0.241802 0.972343 -0.0579459 0.226257
0.35293 3.54492 2.50367 -0.239783 -0.0326792 0.970276
-1.66902 8.64723 2.04085 -0.348713 -0.00321449 0.937224
0.347411 6.27494 2.50086 -0.159983 -0.0130528 0.987034
0.776012 4.31532 -2.55608 0.401538 -0.0291631 -0.915378
3.8204 5.6743 1.07545 0.971401 -0.0535939 0.231319
2.07431 2.68099 0.756529 0.956514 -0.0949608 0.275796
-2.13633 8.64755 1.81403 -0.451112 -0.00891636 0.892423
1.54628 9.38597 -2.40295 0.508106 -0.012756 -0.8612
-1.46775 5.96379 2.06553 -0.347565 -0.035472 0.936985
3.81048 4.96708 1.02043 0.969698 -0.0481088 0.239525
0.53556 9.01562 2.52104 -0.15507 0.000661403 0.987903
2.64983 5.37624 -1.25176 0.612357 -0.0852224 -0.785974
-1.52954 3.56565 1.97452 -0.388299 -0.0193295 0.921331
1.25911 5.83686 2.66922 0.0065795 0.0111699 0.999916
1.75939 3.66883 1.79911 0.938959 -0.0965337 0.330208
2.26513 4.39642 0.393439 0.975806 -0.071249 0.206704
-0.0175829 7.23052 2.45005 -0.137157 0.00703216 0.990524
2.19093 4.44608 0.762507 0.965113 -0.0662462 0.253313
-1.08863 6.62729 -2.48689 -0.775636 0.0104153 -0.631094
0.250489 6.09558 -2.86697 0.32355 -0.0441065 -0.945183
3.9411 7.11018 1.13669 0.969094 -0.0327239 0.24451
0.218977 4.19746 2.46691 -0.226729 0.00260931 0.973954
1.9279 6.85361 -1.98165 0.59792 -0.087697 -0.796744
0.00598308 6.59284 -2.96693 0.2468 -0.0326026 -0.968518
1.06242 6.61553 -2.53509 0.488441 -0.0560125 -0.870797
3.67454 7.44306 2.06341 0.946207 -0.050176 0.319647
1.31495 3.04543 -2.11992 0.55255 -0.23476 -0.799735
2.08434 3.45276 0.905626 0.961092 -0.0605126 0.26952
2.07979 3.72536 0.957759 0.944963 -0.0617783 0.321293
-2.17806 2.82018 0.183278 -0.965039 -0.0743373 -0.251344
1.23439 7.28393 2.65697 -0.0897326 0.00667678 0.995944
-0.791174 7.96542 2.3062 -0.226636 0.00735437 0.973952
2.47151 8.72684 0.986633 0.96849 -0.0721956 0.238357
-0.602214 3.13398 -2.87843 -0.29753 -0.225329 -0.927741
-0.353306 4.97802 2.32357 -0.228097 -0.0203466 0.973426
-1.10349 7.2218 2.21364 -0.296077 -0.00427559 0.955155
1.54148 5.55281 2.61488 0.26576 -0.0583018 0.962275
-1.45254 6.65393 2.09578 -0.327867 -0.0185103 0.944542
1.49645 3.09385 2.32178 0.834206 -0.195771 0.515533
3.07046 5.14295 -0.206983 0.987621 -0.154736 0.0257392
0.193212 5.74289 2.46611 -0.192187 -0.0155804 0.981235
-2.23825 2.87482 0.387325 -0.966504 -0.112075 -0.230887
0.39423 5.13688 -2.77472 0.386798 -0.0513199 -0.920735
-0.528609 5.70606 -2.9914 -0.202378 -0.00262263 -0.979304
-0.147382 8.11613 -3.07326 0.187394 -0.0577533 -0.980586
1.01329 3.52102 -2.41344 0.471891 -0.104721 -0.875416
-0.963432 5.06463 2.22802 -0.225406 -0.00588176 0.974247
-2.30419 6.11099 1.17989 -0.998237 0.059015 -0.00627867
1.65617 7.00596 -2.19761 0.55714 -0.0811744 -0.826441
-0.949084 5.62568 2.22825 -0.244953 -0.0233397 0.969254
-2.15139 6.59828 0.537939 -0.979242 0.0518635 -0.195949
2.08081 3.19778 0.906279 0.953378 -0.0316203 0.300116
0.680684 5.28617 -2.64623 0.430625 -0.0450098 -0.901408
2.12883 4.60357 1.02086 0.94187 -0.0561112 0.331259
1.64188 8.54198 -2.31793 0.555706 -0.0437821 -0.830225
3.59123 5.5423 1.86491 0.937354 -0.0975842 0.334432
3.50861 6.94591 2.42675 0.926596 -0.0898911 0.365158
1.76464 4.75826 -1.97628 0.667643 -0.0126163 -0.744375
-0.919013 6.08174 -2.70518 -0.67917 0.0273924 -0.733469
1.80189 4.4678 1.84962 0.947098 -0.074846 0.312095
-1.96618 6.65938 -0.589317 -0.563672 -0.817376 -0.119039
-2.16147 7.64467 1.74621 -0.616015 -0.0436545 0.786524
-0.391035 5.37839 2.32634 -0.211749 -0.0311373 0.976828
0.34662 4.62629 -2.76119 0.384825 -0.0401424 -0.922116
2.73017 3.9627 -1.08342 0.648415 -0.0554791 -0.759263
0.311295 3.25808 -2.7037 0.386622 -0.13535 -0.912252
-0.106698 6.42205 -2.99148 0.172624 -0.0182452 -0.984819
-0.395302 3.04403 2.25474 -0.224065 -0.243862 0.943571
-0.228907 3.30326 2.34527 -0.250409 -0.121637 0.960469
0.612692 5.09265 -2.66996 0.423649 -0.0455564 -0.90468
-0.33933 8.20462 -3.09745 0.146544 -0.0381553 -0.988468
-0.0237403 5.11998 -2.92019 0.253495 -0.0520722 -0.965934
-0.030492 8.92286 2.4398 -0.151344 -0.00110661 0.988481
-0.454267 7.34885 2.37826 -0.183448 0.00517196 0.983016
-1.62171 6.59002 -1.65054 -0.890875 0.0540062 -0.451027
-2.39793 3.06344 0.940403 -0.964385 -0.264297 -0.0103904
1.53929 4.53815 2.5095 0.71939 -0.114953 0.685028
-0.834775 3.56556 2.20793 -0.23516 -0.0483492 0.970753
1.10735 9.21605 -2.63046 0.428856 -0.00897831 -0.903328
2.13006 3.02865 0.220741 0.991392 0.114415 0.0636478
1.83269 5.28263 -1.93184 0.65207 -0.0430124 -0.756937
4.07488 7.80234 0.687098 0.980472 -0.0472643 0.190895
-1.26653 4.11882 2.10104 -0.378808 -0.0519104 0.924018
1.69203 3.55987 1.95384 0.936785 -0.104014 0.33409
-0.0336476 6.8735 2.45084 -0.14317 0.00740547 0.98967
3.37555 6.02727 -0.399445 0.868787 -0.201941 -0.452139
1.9799 3.84617 1.24657 0.930359 -0.0762399 0.358636
0.017938 8.52747 -3.04214 0.239915 -0.0105946 -0.970736
1.84151 4.34662 1.70427 0.945328 -0.0665564 0.319257
-1.45998 2.93382 1.90595 -0.377173 -0.315378 0.870791
2.18089 6.99086 -1.80079 0.621265 -0.0839341 -0.779093
1.17516 2.947 -2.18012 0.534342 -0.238204 -0.81101
0.163496 8.07794 2.46161 -0.155428 0.00266199 0.987844
1.66959 5.91297 -2.10674 0.598196 -0.0627373 -0.79889
-0.271605 2.76909 2.16122 -0.221947 -0.297843 0.928455
1.93321 4.51262 -1.80863 0.711768 -0.0154575 -0.702245
2.1918 3.7825 0.546853 0.966979 -0.204734 0.151778
1.57541 4.20555 2.39853 0.846557 -0.0737297 0.527167
0.374159 5.08422 2.49715 -0.207371 0.00277041 0.978258
-1.59291 5.26892 1.99848 -0.389673 -0.0140758 0.920846
0.862758 3.4639 -2.48432 0.435054 -0.101231 -0.894696
2.51939 9.22267 0.915123 0.970469 -0.0662317 0.231955
-1.86874 4.21733 1.85677 -0.38923 -0.0420821 0.920179
-2.26558 6.58329 1.20334 -0.992 0.0664712 -0.107316
-2.09154 7.95232 1.81968 -0.499379 -0.0232318 0.866072
3.41868 8.38809 -0.525909 0.99438 -0.0636918 0.0845726
-0.255023 4.2149 2.34951 -0.243368 -0.000831203 0.969934
-1.3033 6.56302 2.1448 -0.326177 -0.0152062 0.945186
-1.58351 7.20981 2.06239 -0.329844 -0.0112846 0.943968
-0.762192 7.24955 -2.87464 -0.550433 -0.0371831 -0.834051
-1.15359 2.75433 1.92688 -0.300926 -0.359329 0.883361
2.96157 8.10943 -1.23167 0.653341 -0.0580451 -0.754836
-1.88994 5.235 1.86938 -0.428352 -0.019888 0.903393
3.27814 5.69845 2.56598 0.894335 -0.116929 0.431847
0.757098 4.03497 -2.55493 0.3923 -0.0391236 -0.919005
-2.16135 6.77094 0.619394 -0.980083 0.0543654 -0.191
2.16294 4.94477 -1.58815 0.684361 -0.0640333 -0.726326
0.430895 4.77715 -2.73432 0.398458 -0.0520483 -0.915709
1.35624 7.51642 2.66779 -0.0330019 0.0166055 0.999317
-0.546668 7.77474 -3.03831 -0.0407132 -0.0790079 -0.996042
2.04163 3.10177 0.986747 0.921683 -0.0636754 0.382682
-1.13283 6.74605 -2.4325 -0.787649 0.012894 -0.61599
-0.0356363 6.1751 2.4438 -0.177267 -0.0440909 0.983175
-2.01399 2.75834 -0.449781 -0.849378 0.446812 -0.280919
2.16272 9.1137 1.97563 0.937779 -0.062853 0.341497
1.05042 5.91727 2.64004 -0.128938 0.0167299 0.991511
-0.136091 8.66931 -3.07395 0.196196 0.00461104 -0.980554
1.76061 3.5254 -1.88627 0.618615 -0.109555 -0.778019
-0.430206 5.94079 2.34768 -0.18639 -0.0635768 0.980417
2.27602 5.73668 -1.60242 0.632367 -0.100575 -0.768112
0.205027 5.92536 2.4726 -0.17382 -0.027053 0.984406
1.42012 3.24501 2.49273 0.727883 -0.155346 0.667872
3.26063 6.48175 -0.790171 0.819866 -0.0792653 -0.567042
-1.35933 4.43663 2.08047 -0.383808 -0.0398277 0.922554
-1.93656 6.65565 -0.737729 -0.500623 -0.858371 -0.112141
-1.65227 8.38416 2.04375 -0.332012 -0.00618039 0.943255
1.49642 5.09072 -2.19389 0.574655 -0.0101187 -0.818333
2.00031 5.63354 -1.81427 0.640895 -0.0800173 -0.763446
-0.558981 8.7929 2.34779 -0.188746 -0.00532142 0.982012
-0.984049 3.61207 2.17565 -0.272873 -0.0411109 0.961171
3.03728 4.19595 -0.308875 0.981178 -0.0760574 0.177495
1.92419 4.64109 1.51784 0.935504 -0.0857014 0.342764
1.72808 5.38665 2.4221 0.604195 -0.160775 0.780448
3.14504 8.66126 -1.12703 0.705528 -0.0687583 -0.705339
0.371061 8.33659 2.49388 -0.15658 -0.00182274 0.987664
-1.82006 5.70301 1.91911 -0.415004 -0.0340352 0.909183
-1.76822 7.15506 1.99198 -0.412674 -0.00608892 0.910859
1.42653 5.67593 -2.25943 0.544636 -0.0526033 -0.837021
-1.07503 5.53825 2.19281 -0.279855 -0.00780811 0.96001
1.65621 3.0508 -1.8719 0.580999 -0.232094 -0.78011
-0.781498 4.33301 2.25369 -0.181568 -0.0172477 0.983227
-1.28332 9.102 2.16678 -0.294026 0.00546583 0.955782
-1.07271 7.63812 2.22814 -0.284575 -0.000247164 0.958654
-1.74761 6.53789 1.98665 -0.376281 -0.0310126 0.925987
-1.21202 5.46523 2.15161 -0.314242 -0.00135357 0.949342
1.66358 4.20268 -2.05219 0.631812 -0.0572101 -0.773007
-0.545907 4.8358 2.28074 -0.168577 -0.00699517 0.985664
0.110474 6.0552 2.46204 -0.1721 -0.0323181 0.984549
1.35701 7.56904 -2.42359 0.51057 -0.0512601 -0.858307
2.24207 2.78924 -1.28802 0.633827 -0.280323 -0.72089
-2.33602 4.20107 1.61349 -0.495855 -0.0496607 0.866984
0.84434 7.61254 -2.70736 0.397156 -0.0290969 -0.91729
-0.660681 6.15244 2.32371 -0.196605 -0.0473452 0.979339
1.80437 2.81439 1.45015 0.921777 -0.0598926 0.383067
2.14988 3.98964 0.788094 0.965395 -0.0645794 0.252671
2.57198 5.56497 -1.33216 0.619614 -0.0942752 -0.779224
-2.08257 7.8051 1.82619 -0.522475 -0.022954 0.852345
-2.09927 6.60837 0.300585 -0.98208 0.0443578 -0.183169
2.36366 7.04458 -1.65786 0.623431 -0.0741541 -0.778354
2.72312 8.95623 -1.50098 0.627261 -0.0670749 -0.775915
0.120238 8.99088 -3.01051 0.266441 0.00811893 -0.963817
3.29471 5.73997 -0.37913 0.922531 -0.22821 -0.311218
0.0984118 8.59237 2.45655 -0.14766 -0.0123044 0.988962
0.0769054 4.29166 2.43671 -0.231713 0.00183294 0.972783
0.340656 2.81546 -2.56401 0.383528 -0.227042 -0.895186
3.71489 7.68263 2.00921 0.947574 -0.0528486 0.315136
-0.923942 8.49252 2.27181 -0.260327 -0.00630881 0.9655
1.75966 4.90956 -1.98291 0.662409 -0.0166183 -0.748958
-0.362318 3.20718 -2.92455 -0.0216851 -0.147007 -0.988898
1.06823 3.78868 2.6796 0.0114555 -0.0289795 0.999514
1.26452 8.11567 -2.51955 0.482198 -0.0487198 -0.874707
2.11462 2.76272 0.645032 0.970685 -0.071707 0.229412
2.99971 6.49721 -1.09234 0.704592 -0.0822728 -0.704827
2.58821 7.56231 -1.52608 0.638307 -0.0517144 -0.768043
-1.13172 7.36721 2.20536 -0.293447 -0.00545214 0.95596
2.88922 4.50177 -1.00323 0.706492 -0.0592739 -0.705235
-1.53061 2.78777 -1.77032 -0.875254 0.115886 -0.469576
0.526099 5.81777 2.53104 -0.197938 -0.00516317 0.980201
2.66773 4.57835 -1.17726 0.59598 -0.0705589 -0.799893
0.372531 9.40301 2.49403 -0.152339 0.0135728 0.988235
1.37944 4.48707 -2.26886 0.526836 -0.00946136 -0.849914
-2.26257 6.43255 1.09134 -0.990276 0.0686804 -0.120982
2.55313 8.69272 0.612093 0.977188 -0.0521372 0.205877
-0.945288 2.93931 2.08416 -0.255825 -0.275288 0.926698
1.1443 3.86702 -2.37718 0.485618 -0.0806929 -0.870439
2.10145 8.57323 -1.96486 0.622092 -0.0529749 -0.78115
1.55494 6.87612 -2.25585 0.557985 -0.0606098 -0.827635
1.87759 8.67146 2.56445 0.683129 -0.0792991 0.72598
2.06464 4.88383 -1.68485 0.701708 -0.0479124 -0.710852
1.23947 2.85095 2.51625 0.396484 -0.466222 0.790846
0.990533 6.80586 -2.59205 0.471199 -0.0622064 -0.87983
-2.13569 6.6434 0.473233 -0.9797 0.048941 -0.194406
-0.443763 5.7961 2.33428 -0.187791 -0.0583252 0.980476
-0.53586 3.11039 2.24024 -0.229987 -0.214207 0.949327
3.75449 6.91463 -0.0326936 0.819953 0.0205251 -0.572062
-2.3261 4.58752 1.63185 -0.477545 -0.00589122 0.878587
1.18554 6.25939 -2.44909 0.495404 -0.0529355 -0.867048
1.30962 3.28732 -2.18495 0.558229 -0.175578 -0.810897
-1.20324 8.39279 2.18218 -0.296636 -0.011365 0.954923
2.8133 6.13007 -1.20915 0.643787 -0.0834671 -0.760639
-2.34661 4.42331 1.61514 -0.496804 -0.0223512 0.867575
2.94233 2.97391 -0.335947 0.979519 -0.195172 -0.0495042
-0.029625 4.52083 2.40962 -0.243033 -0.00411947 0.970009
0.75543 6.18571 -2.67162 0.428861 -0.0644148 -0.901071
2.17096 7.54837 -1.86477 0.633475 -0.0472772 -0.772318
3.40091 8.02137 -0.619727 0.997758 -0.0574522 -0.0343251
-1.09432 6.33225 -2.48087 -0.780853 0.0163926 -0.624499
-0.262328 6.39216 2.40972 -0.185623 -0.0295129 0.982178
0.359328 7.91 2.49152 -0.157699 0.0056131 0.987471
0.411047 6.30719 -2.82472 0.355832 -0.0475097 -0.933342
-0.620605 7.21328 2.34415 -0.213384 0.000466527 0.976968
-0.541927 8.18437 2.35063 -0.171723 0.00188131 0.985144
1.53557 6.23434 -2.23051 0.567095 -0.0519751 -0.822011
-2.31967 2.86766 1.3618 -0.779752 -0.458658 0.426168
2.24604 3.94538 0.283795 0.980399 -0.124726 0.152516
3.21473 5.92343 -0.779998 0.85781 -0.133657 -0.496284
-0.818696 3.19057 2.18663 -0.24815 -0.181456 0.951575
3.36048 8.97887 -0.301128 0.991454 -0.0552248 0.118189
3.87681 6.94961 1.37838 0.960924 -0.0278712 0.275407
1.88106 3.51616 1.40894 0.928336 -0.0939437 0.359677
-0.443256 7.61443 -3.05405 -0.0163302 -0.0857174 -0.996186
2.41115 3.22346 -1.28227 0.670334 -0.133387 -0.729973
-0.703982 6.80775 -2.9068 -0.531567 -0.00020213 -0.847016
2.23056 3.7033 -1.47907 0.690258 -0.0263602 -0.723083
3.66732 5.64765 1.62666 0.955815 -0.0757281 0.284047
1.0741 8.413 -2.63066 0.433097 -0.0304666 -0.900832
-1.40311 4.03575 2.03273 -0.388559 -0.0431258 0.920414
2.59922 9.09555 0.501842 0.981364 -0.0661706 0.180406
-0.942163 4.60594 2.2297 -0.20008 -0.0103884 0.979725
1.47116 7.29448 2.67412 0.00184269 0.0180783 0.999835
2.19487 4.76356 -1.53847 0.682655 -0.0477002 -0.729182
-1.69069 4.80327 1.94315 -0.394565 -0.0197982 0.918655
0.408065 4.17354 -2.71608 0.393224 -0.0419894 -0.918483
3.70506 5.33425 1.43894 0.953783 -0.0639769 0.293607
-1.69004 2.73449 -1.42949 -0.671966 0.699179 -0.244153
2.3331 2.65275 -1.12302 0.636709 -0.273317 -0.721041
4.03125 7.83088 0.895629 0.97654 -0.0332336 0.212758
-1.34354 5.45752 2.10441 -0.340925 -0.00443048 0.94008
2.44388 5.52253 -1.42995 0.622547 -0.108429 -0.775034
1.6817 3.21317 -1.89231 0.593419 -0.184718 -0.783411
-2.29225 6.41785 1.30383 -0.997169 0.0648036 0.0381384
1.84363 4.45322 -1.90058 0.693182 -0.0166757 -0.72057
-0.292451 5.83531 2.36652 -0.205811 -0.0541581 0.977092
2.13838 8.38453 -1.92194 0.621558 -0.0423883 -0.78222
1.61636 2.91955 1.96917 0.924205 -0.103216 0.367685
-1.26846 5.27261 2.13572 -0.334558 0.00230387 0.942372
0.251736 8.61865 -2.96949 0.324017 -0.0135867 -0.945954
2.06141 8.69117 2.2077 0.913539 -0.0564114 0.40282
0.817595 5.58274 2.59936 -0.204506 0.0148196 0.978753
1.29145 6.50998 2.65498 -0.0603503 -0.014897 0.998066
-0.163631 7.22029 2.43065 -0.148728 0.0056911 0.988862
2.23577 4.41167 0.553989 0.972746 -0.0675187 0.221827
-0.950721 6.47097 2.2653 -0.283817 -0.0170378 0.958727
1.87159 7.45203 -2.10842 0.578409 -0.064976 -0.813155
-0.484072 7.72849 2.36548 -0.182714 0.0160341 0.983035
1.70739 3.68866 -1.94954 0.620429 -0.104183 -0.777312
3.97051 7.51947 1.08267 0.970183 -0.0404677 0.23897
2.86433 2.9154 -0.792838 0.803683 -0.302519 -0.512421
1.76637 8.48086 2.62769 0.536797 -0.0623046 0.841408
1.49845 3.6246 2.46208 0.763521 -0.0991054 0.638133
0.154306 9.20835 -3.00233 0.255726 0.0301379 -0.96628
-0.144793 4.39921 -2.92291 0.222247 -0.029977 -0.974529
-1.89172 6.42369 1.92187 -0.449861 -0.0259998 0.89272
0.139084 3.52518 -2.7967 0.358857 -0.0716184 -0.930641
-1.10214 2.88865 2.01571 -0.296968 -0.316334 0.900968
0.700099 9.26272 -2.80413 0.370583 -0.00434259 -0.928789
3.41853 8.80806 -0.433007 0.983681 -0.0554132 0.171176
-0.944252 2.77799 -2.60025 -0.585881 -0.253995 -0.769565
3.80595 5.11947 1.06467 0.966758 -0.0437262 0.251925
3.70558 7.27473 1.93078 0.946508 -0.0495865 0.318847
-1.98567 6.65658 -0.442684 -0.919722 -0.34716 -0.183281
0.57402 7.34745 -2.80099 0.347388 -0.028397 -0.937291
2.10497 4.13119 -1.61718 0.713207 -0.020289 -0.70066
-0.430889 4.29306 2.30456 -0.208128 -0.000680285 0.978101
-0.743131 7.0825 2.31667 -0.230696 0.00428361 0.973016
-0.869095 3.1637 -2.7159 -0.516099 -0.162232 -0.841024
-0.190251 8.28982 -3.08308 0.19758 -0.0199892 -0.980083
0.479496 7.51656 -2.83603 0.340551 -0.03303 -0.939646
-0.193857 4.78474 -2.94598 0.212768 -0.0350991 -0.976472
0.969506 2.82266 -2.26106 0.496511 -0.269785 -0.825041
1.53311 2.78309 2.12323 0.866606 -0.174391 0.467528
3.43693 8.6385 -0.552121 0.988236 -0.0969391 0.118287
-0.990948 6.26598 -2.59945 -0.749706 0.028346 -0.661163
0.608456 3.62245 -2.59513 0.389188 -0.0469005 -0.919964
-0.096443 3.8186 -2.89353 0.223353 -0.0388098 -0.973965
1.26014 3.15252 -2.18752 0.550914 -0.212475 -0.807061
1.99216 3.39626 0.277146 0.999394 -0.0218718 0.0270764
2.6153 8.8939 0.28253 0.979434 -0.0561338 0.193801
-1.30692 8.78137 2.16004 -0.297933 -0.00832677 0.95455
1.11737 4.50293 2.66425 0.0130642 -0.0225016 0.999661
2.25106 8.92981 1.72126 0.9333 -0.0621134 0.353686
2.83896 5.64566 -1.13375 0.655902 -0.0839772 -0.75016
2.35344 9.43761 1.54154 0.945604 -0.0496037 0.321517
3.36215 7.65885 -0.525266 0.995702 0.0402626 -0.0834007
3.28971 6.09659 2.66501 0.891973 -0.117543 0.436541
2.29653 3.32284 -1.40659 0.672123 -0.0986212 -0.733842
-1.37593 2.79805 -2.03132 -0.834118 -0.0159156 -0.551356
1.32126 8.86147 2.67341 -0.0796725 0.0118097 0.996751
2.70423 2.80186 -0.897241 0.716914 -0.398445 -0.57208
2.1111 2.92418 0.750331 0.967255 -0.0712365 0.243606
1.00077 5.33627 -2.4856 0.460608 -0.03912 -0.886741
2.57364 8.9956 0.603233 0.98003 -0.0689456 0.186513
1.32995 6.25044 2.6554 0.00120289 -0.0104767 0.999944
2.23915 4.08557 0.413055 0.978256 -0.0790285 0.191756
-1.96772 9.41028 1.89158 -0.402864 0.0351603 0.914584
-0.746359 7.58617 2.3184 -0.231309 0.00119735 0.97288
2.1353 7.71515 -1.90273 0.628478 -0.0334809 -0.777107
1.78031 6.16497 2.57728 0.137208 -0.0726425 0.987875
0.231858 5.13273 -2.8384 0.347934 -0.0488265 -0.936247
3.03842 3.98771 -0.331095 0.982291 -0.0792702 0.169767
-0.263205 5.40671 -2.99474 0.132801 -0.0294066 -0.990706
2.10876 4.16352 0.970346 0.94899 -0.0655992 0.308406
-0.559986 3.47036 -2.92246 -0.16972 -0.114434 -0.978826
-0.590676 5.56173 -2.96577 -0.218174 0.0189964 -0.975725
2.31309 3.91032 -1.40205 0.669499 -0.0174578 -0.742607
1.73661 4.79355 2.16855 0.899559 -0.127937 0.417642
2.20927 4.02438 0.55139 0.975796 -0.07617 0.20499
1.2388 7.04126 -2.46543 0.514499 -0.057395 -0.855568
1.68786 2.94428 1.779 0.931887 -0.0844301 0.352787
2.378 9.01413 1.3951 0.947537 -0.0605643 0.313857
1.43797 3.07833 -2.04408 0.573028 -0.225352 -0.787944
0.555737 6.95803 -2.79993 0.352515 -0.0356121 -0.935128
-2.14326 6.71328 0.522956 -0.9797 0.048941 -0.194406
-1.68414 6.03036 1.98729 -0.364423 -0.0400119 0.930374
-1.55467 3.99228 1.96418 -0.384582 -0.0405759 0.922199
2.78533 7.28226 -1.33525 0.650737 -0.0482656 -0.757768
0.0951318 4.52665 -2.85567 0.30602 -0.0376564 -0.95128
2.14634 5.60741 -1.69172 0.638898 -0.0990781 -0.762885
2.31156 6.22547 -1.63013 0.629795 -0.075268 -0.773106
-0.466198 3.04703 -2.89103 -0.0593369 -0.175101 -0.982761
3.2676 8.64258 -0.214052 0.966885 -0.0626493 0.247405
1.96571 4.53843 1.39257 0.931744 -0.07076 0.356154
3.75313 6.99553 1.76146 0.949257 -0.0346402 0.312589
2.46561 9.1908 1.1127 0.964955 -0.0601055 0.25544
-2.34662 2.88878 0.746277 -0.914432 -0.399965 -0.0619808
1.61098 3.05929 2.02025 0.921788 -0.113629 0.370668
2.48244 7.85839 -1.6308 0.630852 -0.0419665 -0.774767
1.18429 4.17654 -2.37366 0.477244 -0.0308662 -0.878228
1.08532 4.89189 2.66802 -0.0597983 -0.00386533 0.998203
1.68415 8.31176 2.6528 0.467825 -0.0239029 0.883498
-0.429598 4.75286 2.30196 -0.202635 -0.00765114 0.979224
-1.93857 8.18522 1.92648 -0.454745 -0.0174516 0.89045
1.10088 8.24238 2.62746 -0.137554 0.00191194 0.990492
1.27903 8.40663 -2.52807 0.481285 -0.0397708 -0.875662
1.17663 6.45495 -2.46305 0.503263 -0.0502913 -0.862668
1.4592 5.82977 -2.24923 0.558585 -0.0609977 -0.827201
-1.55423 8.03728 2.07713 -0.323837 0.00574594 0.946095
1.98325 8.55886 2.40692 0.822646 -0.0563081 0.565758
-0.558522 4.10907 2.27851 -0.187123 -0.0158015 0.982209
3.10945 6.65967 -1.00441 0.744137 -0.0622726 -0.665118
3.78482 7.44256 1.7153 0.9544 -0.0409986 0.295702
-1.06975 5.74196 2.19875 -0.286953 -0.0343188 0.95733
1.76272 8.99663 2.65721 0.417517 0.0622444 0.906535
-1.22111 8.02398 2.17416 -0.295665 0.00524569 0.955277
1.59424 5.44704 -2.13323 0.595863 -0.0355468 -0.802299
3.14135 5.32267 -0.257578 0.971843 -0.226711 -0.0642174
3.81976 5.28935 1.0326 0.969729 -0.0358075 0.241542
2.04284 8.25511 2.21718 0.868698 -0.0331052 0.494235
2.15263 3.02828 0.579064 0.982808 0.152497 0.104086
-1.7559 5.88261 1.95085 -0.370886 -0.0391626 0.927852
0.637496 5.45392 -2.67427 0.425339 -0.0451541 -0.903907
4.11551 7.80908 0.47795 0.982468 -0.0489292 0.179897
0.425303 8.78201 -2.9052 0.346328 -0.0123322 -0.938033
1.17879 5.59249 -2.4051 0.494571 -0.0510888 -0.867634
2.37518 8.68259 1.33839 0.952124 -0.0862493 0.293294
-1.85299 4.47049 1.87477 -0.396017 -0.0285249 0.9178
-2.06231 6.63079 0.0826374 -0.983898 0.050262 -0.17152
2.89528 5.19105 -1.04249 0.681247 -0.0620484 -0.729419
3.76296 5.36647 1.25183 0.959771 -0.0473232 0.276767
1.99123 4.3618 -1.74674 0.713422 -0.020877 -0.700423
1.40344 8.73721 -2.47051 0.495059 -0.0243469 -0.868518
1.19204 9.1982 2.64095 -0.1292 0.0296071 0.991176
1.66472 4.66304 -2.06244 0.640144 -0.00686506 -0.768224
3.2826 5.98936 -0.613099 0.888819 -0.146044 -0.434365
3.12269 4.50454 -0.481301 0.989724 -0.0584598 0.130497
1.28136 6.08215 -2.38315 0.521151 -0.0575136 -0.851525
-2.42614 3.22287 1.30363 -0.92204 -0.156436 0.354075
4.03896 7.08103 0.701331 0.98192 -0.0631637 0.178445
3.44641 6.93873 -0.37854 0.896272 0.076445 -0.436866
-1.14683 7.87598 2.20047 -0.292864 0.00795467 0.956121
0.994899 5.67442 2.63955 -0.115946 0.00237161 0.993253
0.368508 8.37147 -2.91645 0.344339 -0.0327477 -0.938274
1.96907 3.27596 1.15169 0.913044 -0.0544638 0.404208
0.644498 5.62989 -2.68009 0.421419 -0.054437 -0.905231
0.683888 4.36234 2.57426 -0.238019 0.00611014 0.971241
2.21749 3.86175 0.433772 0.972425 -0.18784 0.138227
0.0169483 6.33617 2.45933 -0.163148 -0.026037 0.986258
3.8518 6.65825 1.43783 0.959479 -0.0751018 0.271586
2.50242 5.78624 -1.42143 0.627941 -0.0997835 -0.771838
-1.09552 3.19095 2.11535 -0.284309 -0.175712 0.942493
2.01864 3.42631 1.06212 0.923443 -0.0568695 0.379498
-0.989898 5.91429 -2.63713 -0.703081 0.00996344 -0.71104
-0.152099 9.02966 2.42044 -0.154154 0.00244398 0.988044
-0.0685422 3.79241 2.39979 -0.24884 -0.000737246 0.968544
2.61297 9.28932 0.497828 0.979879 -0.0663379 0.188246
2.12397 8.7598 2.01445 0.939824 -0.0554087 0.337135
1.2301 7.46412 -2.49478 0.503876 -0.0485629 -0.86241
1.80283 5.8751 -2.00058 0.612718 -0.0706147 -0.787141
1.38452 3.58946 -2.18309 0.570411 -0.124347 -0.811892
3.88778 7.13681 1.34038 0.962334 -0.0309471 0.270102
2.00764 6.05773 -1.85442 0.617304 -0.0784859 -0.7828
-0.275106 5.78495 -3.00737 0.0563238 -0.0108965 -0.998353
2.09397 5.05329 -1.66922 0.68856 -0.0673773 -0.722043
-0.936501 8.3469 2.26772 -0.255938 -0.00333717 0.966687
3.19663 7.88355 -0.16691 0.993462 0.032974 0.109297
-0.177541 8.94175 -3.07838 0.162104 0.0239109 -0.986484
2.59335 4.06628 -1.18414 0.611924 -0.0466938 -0.789537
-1.9186 6.25794 1.90282 -0.459479 -0.0247388 0.887844
1.72672 5.16039 2.34964 0.800744 -0.102903 0.590101
1.38922 8.24998 -2.45518 0.502611 -0.0537501 -0.86284
0.598032 7.14506 -2.78855 0.347898 -0.0273155 -0.937134
-1.51581 3.19624 1.96419 -0.393324 -0.191981 0.899133
-1.47683 5.64178 2.05281 -0.358344 -0.0167063 0.93344
-1.61595 6.69089 2.04068 -0.342764 -0.0226516 0.939148
3.34373 7.95269 -0.3981 0.99639 -0.0370836 0.0763647
-0.660647 9.58763 2.32421 -0.210755 0.0265254 0.977179
-1.95042 7.05283 1.91255 -0.515838 -0.00525994 0.85667
0.171538 6.47001 -2.90884 0.300354 -0.043368 -0.952842
1.08216 5.11945 2.67685 -0.0269341 -0.0123985 0.99956
0.126808 4.42822 2.44777 -0.227949 -0.00166041 0.973672
0.367281 5.9368 2.49945 -0.181184 -0.0151183 0.983333
-1.2444 2.93446 -2.24913 -0.745191 -0.1915 -0.638763
-1.00156 7.07209 -2.59648 -0.741302 0.00532079 -0.67115
-2.301 3.2991 1.57456 -0.721213 -0.135314 0.679369
-1.74068 6.20412 1.97579 -0.376527 -0.0370703 0.925664
-1.37046 6.59105 -2.10308 -0.837974 0.0221155 -0.545263
2.91737 3.88064 -0.187524 0.970543 -0.0583621 0.233754
0.317826 5.4802 -2.8186 0.361614 -0.0414745 -0.931405
0.251564 8.84008 -2.97173 0.301758 -0.00610548 -0.953365
0.707684 2.81209 -2.40271 0.443651 -0.26027 -0.857574
-0.683828 9.21088 2.32723 -0.208674 0.00506712 0.977972
0.292785 4.48579 2.48168 -0.220566 -0.00358322 0.975365
1.6322 2.7883 1.90011 0.922451 -0.106594 0.37111
0.196213 3.84759 2.46377 -0.231756 0.00307979 0.972769
0.0907002 8.77474 2.45785 -0.146191 -0.00709643 0.989231
-0.242118 5.29585 2.36353 -0.237395 -0.0182218 0.971242
0.315523 3.37716 2.49104 -0.232236 -0.0978099 0.967729
0.268136 9.29556 2.48046 -0.149613 0.0153466 0.988626
-0.854196 8.19801 2.29018 -0.24295 -0.0023002 0.970036
0.583753 4.56727 -2.65055 0.408994 -0.0414397 -0.911596
2.93821 4.82699 -0.984883 0.756169 -0.0568003 -0.651906
3.01058 3.17567 -0.646547 0.969342 -0.208622 -0.129819
0.734995 3.53422 -2.54283 0.401206 -0.0622557 -0.91387
4.08452 7.46791 0.313512 0.994777 -0.0861296 0.054778
0.355118 4.84584 2.49447 -0.212075 -0.00243443 0.97725
1.74946 7.93715 2.60663 0.353922 0.0200692 0.93506
1.50235 7.09103 2.67331 -0.000519039 0.00453933 0.99999
3.49444 5.23834 2.01878 0.917302 -0.116956 0.380629
1.78866 6.88697 2.63347 0.0838049 -0.0117395 0.996413
0.659689 4.43621 -2.61117 0.407018 -0.035603 -0.912726
3.4337 8.51588 -0.696493 0.993389 -0.0975029 -0.0605988
2.4553 4.92441 -1.34424 0.604037 -0.0742897 -0.793486
-1.00715 9.05886 2.24976 -0.262142 0.00549484 0.965014
2.18376 4.31611 0.744701 0.968925 -0.0689627 0.237547
2.54222 8.35779 -1.60761 0.62371 -0.0424252 -0.780504
4.03504 7.44297 0.802494 0.981186 -0.0463414 0.187423
-0.517827 4.33736 -2.9701 0.164833 -0.0341867 -0.985729
3.82225 7.07052 1.55826 0.956325 -0.0266336 0.29109
2.86382 5.4372 -1.08989 0.658018 -0.079665 -0.748776
1.96458 3.67537 1.23844 0.924783 -0.0808089 0.371814
4.09683 7.39929 0.501867 0.985387 -0.0567227 0.160606
2.82418 9.35454 -1.45398 0.627575 -0.0691002 -0.775484
-1.10885 2.88046 -2.42816 -0.700849 -0.198879 -0.685024
-1.52828 4.33504 1.99908 -0.391545 -0.0491102 0.918847
-0.80059 5.9836 -2.8392 -0.573583 0.0228781 -0.818828
3.54889 5.37803 1.93166 0.926929 -0.104217 0.360473
0.412558 8.17334 -2.88856 0.35627 -0.0368891 -0.933655
1.8321 9.14592 2.62107 0.555755 0.0887165 0.826599
2.86692 8.92202 -1.38014 0.630676 -0.0656748 -0.773262
0.0792392 3.96552 -2.84433 0.334148 -0.0419071 -0.941589
-1.19054 5.66416 2.15774 -0.308854 -0.0163878 0.950968
0.576247 6.38455 2.54489 -0.177296 0.000816966 0.984157
0.356904 3.92142 2.49711 -0.229974 0.00953833 0.97315
3.21255 6.26857 2.88179 0.897278 -0.109905 0.427567
0.253234 4.97579 2.47639 -0.204295 -0.00131463 0.978908
2.59288 8.90413 -1.59993 0.624749 -0.0674199 -0.77791
2.08844 4.73598 -1.6467 0.705562 -0.0371673 -0.707672
2.12377 8.96065 2.0599 0.934096 -0.0666074 0.350754
-1.26348 6.94595 2.16064 -0.309782 -0.00517535 0.950794
2.14722 7.90869 -1.89816 0.623759 -0.0271402 -0.781145
4.00246 6.92095 0.838804 0.980622 -0.0680501 0.183713
3.06024 4.15277 -0.796612 0.905933 -0.0385301 -0.421665
1.61326 6.73948 2.65878 0.0322358 -0.0187332 0.999305
1.77542 6.85906 -2.09627 0.580392 -0.0778071 -0.810612
3.89003 4.99595 0.651202 0.98118 -0.0337889 0.190114
0.862655 7.04375 2.59339 -0.1806 0.00690187 0.983532
-1.3769 3.45058 2.04432 -0.36266 -0.0496297 0.930599
1.26757 7.28784 -2.46197 0.511759 -0.0550991 -0.857361
2.58167 8.71383 0.453556 0.977832 -0.0573674 0.201381
-0.494369 9.01139 -3.08191 0.119009 0.0442881 -0.991905
0.459872 8.98174 -2.89287 0.343387 -0.00744986 -0.939165
-0.450732 6.39464 2.37012 -0.191348 -0.0354645 0.980881
2.59197 8.86941 0.443349 0.979434 -0.0561338 0.193801
3.84743 6.43902 1.37253 0.963691 -0.0990379 0.247976
-0.603155 8.96515 2.34024 -0.194654 -0.00427875 0.980863
-0.235284 6.58778 -3.0284 0.0548372 -0.0119759 -0.998423
-0.333565 6.5211 2.39824 -0.187441 -0.0225841 0.982016
-0.294678 7.1415 2.40715 -0.170184 -0.00107869 0.985412
-0.616436 4.50852 2.27239 -0.161692 -0.00333897 0.986836
-0.7246 5.32654 2.26909 -0.175706 -0.0173383 0.98429
0.329987 3.81143 -2.7264 0.388476 -0.0491039 -0.92015
-0.879348 6.50611 -2.72576 -0.721415 0.0101942 -0.692428
0.931402 5.13272 -2.51306 0.45055 -0.030872 -0.892217
1.18354 9.41467 2.62566 -0.0975382 0.0677647 0.992922
-0.147415 8.45034 -3.07804 0.206149 -0.00820645 -0.978486
0.531858 7.68867 -2.8232 0.344253 -0.0343128 -0.93825
-0.431477 6.49435 -3.03081 -0.227213 -0.0099255 -0.973794
-1.54637 8.53637 2.07879 -0.3138 -0.00732904 0.949461
1.60596 4.01756 -2.07811 0.616509 -0.0882213 -0.78239
1.67014 8.12468 2.64578 0.343044 0.0333179 0.938728
1.93511 2.92083 1.18117 0.907897 -0.073264 0.41274
-0.458422 4.01382 -2.95067 0.123388 -0.0563742 -0.990756
-2.1463 4.00388 1.72391 -0.465583 -0.0569945 0.883167
0.259024 5.64254 -2.84566 0.351284 -0.036917 -0.935541
0.869133 4.2676 2.62863 -0.137965 0.00234038 0.990434
1.72707 3.4478 1.82012 0.936231 -0.104132 0.3356
0.135578 6.20658 2.47016 -0.161975 -0.0266832 0.986434
0.176716 3.52756 2.46414 -0.236082 -0.0356832 0.971078
-0.924075 4.7857 2.23415 -0.192402 -0.0112165 0.981252
2.92011 5.82816 -1.08398 0.674454 -0.0899069 -0.732822
2.0411 7.00498 -1.91708 0.614526 -0.0898867 -0.783759
0.593923 6.22265 -2.7487 0.396194 -0.0561949 -0.916445
0.878073 8.21456 2.58441 -0.180052 0.00435615 0.983647
-0.197079 9.17587 2.41328 -0.152794 0.0069259 0.988234
0.33006 4.94593 -2.78897 0.382634 -0.049248 -0.922586
-1.11882 6.19037 -2.45232 -0.785777 0.011936 -0.618395
-0.433979 8.07449 -3.09067 0.129162 -0.0470739 -0.990506
-0.369812 5.98189 -3.02028 -0.0456553 -0.0307522 -0.998484
2.61862 7.77936 -1.51405 0.642358 -0.0449332 -0.765086
1.50256 5.21165 2.62051 0.505652 -0.0884377 0.858193
1.8129 8.89328 -2.21401 0.579912 -0.0442631 -0.813476
1.74562 7.79421 -2.20415 0.560852 -0.0382653 -0.827032
2.51928 9.0902 0.875224 0.970754 -0.0677883 0.230307
3.39989 6.0675 2.44472 0.90009 -0.117244 0.419633
1.34254 8.95968 -2.50638 0.472014 -0.0191907 -0.881382
2.06649 3.92011 -1.65095 0.701387 -0.0320494 -0.71206
0.261636 6.98703 2.4832 -0.141629 0.014986 0.989806
-1.07291 4.37829 2.19312 -0.272253 -0.0298747 0.961762
0.481544 3.34132 -2.63885 0.39437 -0.0955779 -0.913968
-2.1034 2.7833 -0.108952 -0.964059 -0.0396791 -0.262707
-2.15902 3.82878 1.70428 -0.476275 -0.0598189 0.877259
-2.00696 4.12674 1.79658 -0.428052 -0.043814 0.902691
-0.558599 6.87494 -2.99392 -0.326574 -0.01125 -0.945105
4.02218 7.63108 0.894313 0.977197 -0.0364143 0.209187
3.27314 5.74624 -0.569686 0.919447 -0.217033 -0.327892
-2.09686 4.27679 1.76206 -0.438335 -0.0369604 0.898051
0.842384 8.01726 2.57942 -0.181542 0.0061099 0.983364
-0.0712872 4.02349 2.40012 -0.245561 -0.000602821 0.969381
2.90942 4.13102 -0.159162 0.951767 -0.0640679 0.300058
-0.895045 6.78389 -2.70085 -0.725111 -0.00616521 -0.688604
3.13181 8.3967 -1.11072 0.695533 -0.0584737 -0.716111
-0.295442 3.70217 -2.93615 0.114019 -0.0471397 -0.99236
-1.22345 9.40735 2.18221 -0.284594 0.0154413 0.958524
2.69068 5.99741 -1.29561 0.633274 -0.0913855 -0.768513
0.392038 6.76457 -2.84756 0.328797 -0.0334111 -0.943809
1.7672 7.10487 -2.13512 0.56613 -0.0900083 -0.819387
1.08476 4.0046 -2.41575 0.446846 -0.0560165 -0.892856
1.55742 3.80396 2.39483 0.816591 -0.0619176 0.573886
-0.28378 7.51126 -3.06019 0.00206375 -0.0740783 -0.99725
-2.0339 7.48984 1.86107 -0.547823 -0.0220423 0.836304
-0.139035 9.53073 2.41301 -0.152028 0.023678 0.988093
-0.0735566 7.42147 2.44315 -0.13924 0.012625 0.990178
2.03783 6.23121 -1.84991 0.614985 -0.071635 -0.785278
0.125584 9.22038 2.45885 -0.145817 0.0147046 0.989202
-1.84669 6.64861 -1.07209 -0.864109 -0.422761 -0.273109
-1.391 7.40792 2.1259 -0.30308 -0.0109481 0.952902
2.21667 3.11429 -1.44952 0.65653 -0.190838 -0.72976
-1.77929 8.51571 2.00099 -0.387827 -0.00926687 0.921686
0.794831 3.31317 -2.50241 0.442928 -0.135042 -0.886329
-0.571639 7.0559 2.35283 -0.202328 0.000978865 0.979317
2.50932 4.25806 -1.25339 0.610971 -0.0447887 -0.790385
-0.295383 4.75789 2.33574 -0.233913 -0.00934216 0.972213
-2.00297 4.94628 1.81354 -0.448312 -0.00685013 0.893851
3.30329 7.5557 -0.288165 0.995299 0.082725 -0.0503645
2.21357 5.86958 -1.67149 0.629785 -0.0937087 -0.771096
-1.43013 2.8318 -1.95522 -0.846622 -0.020798 -0.531789
-0.10149 5.71526 -2.96948 0.202641 -0.0403258 -0.978423
2.52466 2.75707 -1.02274 0.6494 -0.279107 -0.707374
1.83006 2.76376 -1.62424 0.591964 -0.306908 -0.745242
-0.994355 9.47871 2.2463 -0.256435 0.0174055 0.966405
0.929444 3.0305 -2.36425 0.485018 -0.234001 -0.842616
2.89428 3.1577 -0.862537 0.794315 -0.183014 -0.579284
3.46442 7.14441 2.55777 0.928837 -0.0803687 0.361667
-0.595478 5.82798 2.31157 -0.182666 -0.0619996 0.981218
-0.431862 5.65934 2.32555 -0.195003 -0.0455275 0.979745
1.08147 3.36297 2.66965 0.0733509 -0.114192 0.990747
-1.73049 3.67282 1.88778 -0.393117 -0.0144365 0.919375
2.6367 9.31366 -1.60272 0.623992 -0.0687538 -0.778401
1.15516 3.571 -2.33784 0.517145 -0.112325 -0.848495
1.37978 2.93839 2.43957 0.629327 -0.348371 0.694684
-0.491623 4.9587 2.29263 -0.191975 -0.0178039 0.981238
-1.42282 8.63749 2.12054 -0.301985 -0.012968 0.953225
-0.220065 8.28844 2.40015 -0.156103 -0.00702052 0.987716
-1.86062 6.08169 1.92144 -0.428782 -0.0364062 0.902674
2.23414 8.53888 -1.85418 0.621242 -0.0524332 -0.781863
2.02773 2.89527 0.97579 0.924602 -0.0891718 0.37035
-2.32422 4.04646 1.60537 -0.546615 -0.0799854 0.833555
-0.428181 7.90375 -3.07822 0.0815549 -0.0848254 -0.993053
-0.0330723 6.5591 2.45491 -0.154697 -0.00643704 0.987941
1.49329 4.44476 -2.19289 0.572075 -0.0191259 -0.819978
0.51531 3.61378 2.54251 -0.244313 -0.017144 0.969545
1.56466 6.54644 2.65167 0.00470806 -0.0215306 0.999757
-0.631051 4.23311 2.26748 -0.173494 -0.0120503 0.984761
-0.622689 8.63774 2.33667 -0.189959 -0.00227747 0.981789
1.41086 4.24141 2.59915 0.478586 -0.02693 0.877628
-1.11225 3.54831 2.13599 -0.302842 -0.0384921 0.952263
0.716453 6.3841 -2.7065 0.416494 -0.0532574 -0.907577
-0.0695477 8.62515 2.43232 -0.153295 -0.0124087 0.988103
-1.03466 6.11337 -2.55684 -0.751784 0.0169551 -0.659191
-0.41369 8.38186 -3.10156 0.107917 -0.0163452 -0.994025
3.75306 5.01006 1.23552 0.959303 -0.0585636 0.276238
-1.5611 7.03606 2.06793 -0.334152 -0.0159398 0.942385
-0.606648 5.98452 2.32206 -0.187672 -0.0608068 0.980348
1.83873 2.91842 -1.69041 0.59504 -0.253067 -0.762813
0.376249 4.62556 2.49896 -0.218636 -0.00297954 0.975802
-2.39161 3.01369 1.31625 -0.876215 -0.294796 0.381238
2.18942 6.38041 -1.74507 0.6214 -0.0663651 -0.780678
1.15873 8.92206 -2.60097 0.44032 -0.0184243 -0.897652
0.954046 7.72127 -2.66304 0.429101 -0.0351949 -0.902571
3.39843 5.45229 2.28247 0.900459 -0.119145 0.418303
1.89785 6.52896 -1.97628 0.604217 -0.0596946 -0.794581
3.36967 7.29717 -0.554027 0.953499 0.0584183 -0.29568
1.73056 5.20227 -2.01694 0.635933 -0.0315925 -0.771097
-1.56232 9.50641 2.07608 -0.341615 0.0256654 0.939489
0.167603 6.77393 2.47575 -0.139517 0.0112707 0.990156
2.43702 2.99864 -1.20495 0.645728 -0.224081 -0.729947
0.549669 7.78525 2.52462 -0.172347 0.00493656 0.985024
-1.25907 3.94318 2.0944 -0.360221 -0.0447227 0.931794
0.471297 4.28137 2.52049 -0.23386 0.00473584 0.972259
3.36772 7.35138 -0.34451 0.953426 0.133451 -0.2705
0.805014 7.23903 2.58195 -0.185056 0.00854489 0.982691
2.69485 8.46707 -1.48909 0.632462 -0.0500276 -0.772974
-0.111983 7.60147 -3.03897 0.160639 -0.0592985 -0.98523
0.744617 9.33313 2.5537 -0.164187 0.00857901 0.986392
-0.592824 2.77566 2.09413 -0.227007 -0.31545 0.92139
-0.0946305 5.44892 2.40501 -0.228044 -0.014508 0.973543
-1.09604 6.65921 2.21794 -0.309008 -0.0071575 0.951032
0.0582805 2.98405 -2.74754 0.3407 -0.201763 -0.918267
-2.22671 6.93648 1.03341 -0.98932 0.054382 -0.135237
-0.512254 9.26021 2.36237 -0.181943 0.00797711 0.983277
-2.00451 9.26221 1.88027 -0.417476 0.0278369 0.908262
3.4684 9.18138 -0.765435 0.958075 0.0930735 -0.270977
0.0111576 4.69391 2.42305 -0.241483 -0.0120538 0.97033
-1.49279 3.35006 1.99337 -0.385131 -0.0865023 0.918799
1.71711 8.13921 -2.23696 0.566431 -0.0481226 -0.822703
3.11463 4.25974 -0.672094 0.964912 -0.043401 -0.258961
-2.35582 3.61316 1.52782 -0.69076 -0.083312 0.718269
2.52944 3.15932 -1.16449 0.641563 -0.171071 -0.747751
4.04821 6.66754 0.336008 0.95873 -0.078845 -0.273168
3.02765 7.04683 -1.11669 0.71359 -0.0531435 -0.698545
-2.00734 9.09963 1.88772 -0.42877 0.023494 0.903108
2.4601 3.98731 -1.2805 0.63783 -0.0422106 -0.769019
1.88317 5.02108 -1.87361 0.684 -0.034074 -0.728685
-0.937783 6.64665 2.27016 -0.269664 -0.00506613 0.962941
-0.238405 4.08207 -2.93162 0.205251 -0.0380555 -0.977969
-0.252843 6.80172 -3.03512 0.0359106 -0.0279035 -0.998965
-1.15634 5.18345 2.17604 -0.30223 0.00356072 0.953228
-0.134768 2.85423 -2.7777 0.177801 -0.303003 -0.936256
3.416 8.20974 -0.626335 0.991509 -0.0719575 -0.108318
-2.08286 6.14061 1.81719 -0.583592 -0.0194709 0.811813
0.19513 6.61387 2.48018 -0.143479 0.00252866 0.98965
-2.37004 2.98481 0.832394 -0.931653 -0.359695 -0.0513999
-0.221969 4.91176 2.35854 -0.247691 -0.0167545 0.968694
2.53211 8.55245 -1.62172 0.62164 -0.0468414 -0.781901
-1.68332 9.09431 2.0336 -0.358572 0.0129712 0.933412
-1.58233 3.02718 1.88537 -0.396887 -0.271015 0.876945
0.755345 6.74165 -2.71181 0.414553 -0.0488107 -0.908715
0.779963 7.72436 2.57024 -0.182813 0.00848258 0.983111
1.92982 3.10653 1.21328 0.906721 -0.0578017 0.417751
0.180311 3.35403 -2.76745 0.372914 -0.10302 -0.922129
-0.599499 4.6858 2.27281 -0.162636 -0.00189868 0.986684
3.57244 5.74555 1.9838 0.928475 -0.0887706 0.36063
3.53276 5.90908 2.13423 0.922033 -0.0881197 0.376949
3.09771 3.88556 -0.521242 0.99649 -0.0616033 0.0566848
0.920925 7.37182 2.60446 -0.174133 0.00907912 0.98468
3.79599 7.72271 1.75279 0.953953 -0.0433639 0.296806
-1.92808 7.79531 1.92694 -0.480981 -0.0130786 0.876633
-2.27377 6.55077 1.55813 -0.954453 0.0528315 0.293647
2.48972 3.61737 -1.23776 0.639829 -0.047951 -0.76702
-2.2532 7.07652 1.55308 -0.952097 0.0401772 0.303145
-0.412195 6.72347 -3.03197 -0.143725 0.00887985 -0.989578
3.25851 7.00786 -0.866147 0.830617 -0.0227512 -0.556378
1.87285 4.75181 1.70858 0.942473 -0.0989373 0.319304
1.73257 4.61686 2.11089 0.922098 -0.109725 0.371075
-2.24604 7.01467 1.17153 -0.995748 0.0561773 -0.0730007
0.990616 6.88364 2.61939 -0.150162 0.00407659 0.988653
-0.158549 9.12679 -3.07691 0.152601 0.0663577 -0.986058
-1.55283 6.12504 2.04121 -0.350336 -0.0385498 0.935831
-1.70523 7.5157 2.0243 -0.364641 -0.0136583 0.931048
-2.25988 4.30716 1.67342 -0.469401 -0.0413251 0.882018
-0.749836 8.45731 2.31422 -0.220212 -0.00169783 0.975451
1.17975 3.27562 -2.26928 0.538868 -0.176581 -0.823675
2.77255 4.83249 -1.12669 0.631357 -0.07481 -0.771876
1.77211 3.21599 1.61036 0.930795 -0.0875584 0.3549
-0.974836 3.26502 -2.60905 -0.605088 -0.133064 -0.78496
2.21125 4.16636 0.581637 0.973704 -0.0712561 0.216386
-2.0037 3.89133 1.78397 -0.43266 -0.0426063 0.90055
-2.13572 8.88178 1.81118 -0.450451 0.0156503 0.892664
-2.21463 6.782 0.917153 -0.984585 0.0507122 -0.167396
-0.239875 8.04023 2.39732 -0.156207 0.014154 0.987623
-0.908104 8.95016 2.27684 -0.244541 0.000160857 0.969639
3.14107 4.6677 -0.555578 0.996065 -0.0785866 -0.0409679
0.0184612 5.14625 2.43307 -0.224538 -0.00742183 0.974437
1.62444 4.97693 -2.09764 0.614454 -0.0108799 -0.788878
0.664035 3.39776 -2.56841 0.407844 -0.0953111 -0.908063
0.00432109 7.06695 2.45371 -0.138019 0.00853658 0.990393
1.78068 7.41875 2.61771 0.116758 0.0314163 0.992663
2.24988 6.51681 -1.70687 0.622027 -0.0663233 -0.780182
0.499648 5.90244 -2.76344 0.385309 -0.0526158 -0.921286
0.668525 3.25766 2.56907 -0.22717 -0.137907 0.964041
1.60655 3.59345 -2.01367 0.606735 -0.118414 -0.786035
-2.02263 6.64193 -0.176765 -0.984836 -0.0295868 -0.170949
3.05854 4.37411 -0.33051 0.974358 -0.0589533 0.217145
1.6244 5.09573 2.50446 0.649629 -0.135013 0.748167
1.6182 6.02429 2.62122 0.154072 -0.0490101 0.986843
0.432088 2.96496 -2.58846 0.388539 -0.206538 -0.897986
-1.91919 8.59451 1.9409 -0.405913 -0.00694329 0.913885
2.86473 7.11864 -1.25999 0.654551 -0.0530186 -0.754156
1.66499 6.7821 -2.1708 0.572283 -0.0687104 -0.817172
-0.245642 5.47293 2.36332 -0.231382 -0.0240994 0.972565
1.54767 8.84435 2.70528 0.19414 -0.019467 0.980781
1.91214 3.69506 1.38256 0.929256 -0.0882914 0.358732
1.44799 3.44184 2.51006 0.682375 -0.122081 0.720736
