0.343868 4.48897 2.47875 -0.16875 -0.00533528 0.985644
2.69048 3.03793 -1.02634 0.564461 -0.2144 -0.79713
3.89118 4.97521 0.69268 0.982626 -0.0304973 0.183074
-2.1196 4.52744 1.76651 -0.397169 -0.00733385 0.917716
-0.667921 8.29987 2.32702 -0.166354 0.0281801 0.985663
2.75355 5.55976 -1.19927 0.59972 -0.0922622 -0.794873
2.6899 7.09856 -1.41421 0.653184 -0.058095 -0.754967
1.24179 5.61037 -2.36801 0.517755 -0.0728706 -0.85242
0.0637444 8.14027 2.44565 -0.191783 0.0333584 0.98087
-2.19214 7.83605 1.50406 -0.950792 0.0556581 0.304789
2.05185 7.49544 -1.97989 0.695692 -0.0221918 -0.717998
3.49899 8.57316 -0.695784 0.995339 -0.0802062 -0.0535378
-1.49391 5.4977 2.05043 -0.382941 -0.00198995 0.923771
-2.07712 6.6636 0.222055 -0.992759 0.00936782 -0.11976
-1.9523 8.77878 1.95546 -0.352015 -0.0251673 0.935656
1.10711 4.03023 -2.42836 0.421349 -0.0321858 -0.906327
-1.25014 6.5149 2.16596 -0.339875 -0.0119804 0.940394
-2.39717 4.24753 1.58676 -0.645047 -0.0406161 0.763063
0.231323 8.59516 2.47255 -0.117626 -0.0342784 0.992466
-0.139905 4.64418 2.37294 -0.32184 -0.0236649 0.946498
1.6253 4.56976 2.38372 0.897249 -0.0784948 0.434491
1.96102 3.17014 1.14725 0.862084 -0.0272317 0.506033
-0.785299 5.96783 2.31691 -0.201932 -0.093757 0.974902
3.3302 8.15797 -0.93299 0.746008 -0.0977279 -0.658727
2.70066 6.30781 -1.33807 0.583664 -0.0838451 -0.807655
0.221924 4.83539 2.47407 -0.086476 -0.00618879 0.996235
1.78355 5.10378 2.158 0.931668 -0.105976 0.34751
0.191629 3.33462 2.47176 -0.168158 -0.0839829 0.982176
-0.340925 3.71506 -2.95326 0.155135 -0.0063348 -0.987873
-0.517246 9.00858 -3.0932 -0.0784288 0.0430356 -0.99599
0.172736 5.40006 -2.87023 0.299452 -0.0246205 -0.953794
0.653846 7.14937 -2.78175 0.31715 -0.00215085 -0.948373
-0.174947 7.11434 2.44656 -0.169795 -0.00679676 0.985456
-1.41726 2.65376 1.79483 -0.288056 -0.372949 0.882005
3.89247 7.0546 1.34218 0.966605 -0.0123799 0.255972
0.661726 5.44379 -2.65727 0.445744 -0.0139659 -0.895051
-1.69287 7.4276 2.04022 -0.408964 -0.0330747 0.911951
2.76394 8.33471 -1.43013 0.658752 -0.0606175 -0.749914
1.74977 9.58029 -2.28934 0.524029 -0.00280173 -0.851696
2.61179 9.13134 0.520274 0.983679 -0.0910586 0.155189
2.42903 9.27765 -1.7685 0.610011 -0.0516708 -0.790706
1.90595 8.94396 -2.14876 0.601351 -0.0803069 -0.794939
1.12452 6.11579 -2.4878 0.479563 -0.0351324 -0.876804
-1.99591 6.69485 -0.375971 -0.971209 0.189463 -0.14442
0.523958 4.12482 2.54182 -0.2963 0.0166987 0.954949
-0.826706 3.0162 -2.75118 -0.714388 -0.0790818 -0.695267
-1.05397 8.31642 2.23613 -0.359063 -0.00196194 0.933311
0.719424 5.2045 -2.62461 0.451624 -0.0668502 -0.8897
-1.83552 7.14441 1.94836 -0.421783 0.0044074 0.906686
1.57173 6.53223 2.66581 0.202095 -0.0660738 0.977134
-1.31613 9.10287 2.14743 -0.314741 -0.00304185 0.949173
-2.16078 6.67293 0.513046 -0.975554 0.028158 -0.217947
3.94762 4.937 0.186575 0.992955 -0.0166268 0.117318
-2.4145 3.72378 1.53462 -0.857902 -0.0527363 0.5111
0.377192 3.61446 -2.67187 0.432645 -0.0355245 -0.900864
2.10252 9.32364 -2.02327 0.629071 -0.0471245 -0.775918
2.96449 5.05982 -0.0971507 0.866382 -0.134346 0.480971
-2.20147 2.84977 0.253258 -0.971039 0.0200606 -0.238078
2.63466 6.76797 -1.45279 0.586271 -0.0698291 -0.8071
-0.830911 3.67112 -2.77263 -0.634031 -0.0398402 -0.772281
0.404574 7.8639 -2.87016 0.352108 -0.043478 -0.934949
-0.05916 5.37739 -2.94682 0.311618 -0.0450149 -0.949141
-2.11826 8.95768 1.89316 -0.647987 0.0415614 0.760516
3.15596 8.03324 -0.0854425 0.878645 -0.0321015 0.476395
-0.825942 5.82598 2.28051 -0.232734 -0.117078 0.965468
1.79994 3.15928 1.47235 0.932954 -0.0609182 0.354803
-0.457568 6.03052 -3.03547 -0.101332 -0.0494621 -0.993622
-0.109108 5.29851 -2.96108 0.281158 -0.0558179 -0.958037
1.60765 6.7093 -2.21718 0.606065 -0.0277848 -0.79493
1.25849 8.47128 2.66506 -0.150387 -0.0413635 0.987762
1.81267 8.0353 -2.18306 0.570392 -0.0324221 -0.820732
0.287072 2.70791 -2.51486 0.315229 -0.510293 -0.800145
-0.882333 7.58492 2.29884 -0.27729 -0.012772 0.960701
-0.0202351 2.78992 2.22858 -0.184086 -0.445725 0.876037
1.43809 7.40355 2.68766 -0.0819591 0.0154323 0.996516
2.31565 8.86667 1.56455 0.932966 -0.0892198 0.348733
2.757 7.97669 -1.39566 0.680208 -0.0555037 -0.730915
-0.185188 3.50815 2.37224 -0.317679 0.0353318 0.94754
-1.29313 6.65492 2.13859 -0.309437 0.0104043 0.950863
-1.11805 4.29006 2.18629 -0.386714 -0.0423532 0.921227
-1.52412 6.3022 -1.94466 -0.835898 0.0924368 -0.541045
1.00132 4.59441 2.6551 -0.189527 -0.0418478 0.980983
2.10918 6.91276 -1.85609 0.612429 -0.0990784 -0.784292
-2.42342 2.87284 0.957326 -0.981322 -0.0312695 -0.189816
1.50347 6.56531 -2.29172 0.56122 -0.0381751 -0.826786
0.0285262 5.09863 2.46308 -0.185233 -0.0053836 0.98268
-2.43347 3.65673 1.21714 -0.997398 -0.0130398 0.0709034
3.14917 5.69879 -0.891558 0.750984 -0.067705 -0.65684
1.70891 4.02773 2.05819 0.929702 -0.0694986 0.361696
1.71479 5.83495 2.54163 0.449385 -0.167067 0.877577
-1.62741 7.81854 2.08103 -0.325822 0.00521793 0.945417
-1.41701 2.74034 1.8289 -0.309079 -0.424051 0.851264
3.79105 5.68831 1.15352 0.96028 -0.0431521 0.27568
0.679338 3.52703 -2.56163 0.315467 0.0055875 -0.94892
0.524412 5.66129 -2.73519 0.454838 -0.0662701 -0.888105
2.15702 3.42164 0.69691 0.956849 0.0292183 0.289112
-1.91804 7.08851 1.91619 -0.38919 0.0127022 0.92107
-0.5189 6.99285 -3.02985 -0.26595 0.00799839 -0.963954
1.94181 4.58325 1.40578 0.814436 -0.16072 0.557551
0.666071 2.81205 -2.43078 0.391594 -0.441775 -0.807149
3.39826 6.1463 -0.374492 0.920767 -0.184526 -0.343713
2.27133 8.15743 -1.79649 0.583913 -0.0308227 -0.811231
0.90323 5.87026 -2.57933 0.409531 -0.0694632 -0.909648
-0.640601 5.48391 -2.97688 -0.311856 0.0123748 -0.950049
-2.28886 6.77778 1.65302 -0.954123 0.0666571 0.2919
2.63484 9.43992 0.23133 0.995941 -0.0345704 0.0831097
3.31894 8.71639 -0.968393 0.711145 -0.0675867 -0.699789
1.19986 5.02906 2.69687 -0.0818474 0.0131162 0.996559
0.0979674 7.6513 2.46806 -0.0595843 0.00037536 0.998223
-1.44993 5.81154 2.06536 -0.339286 -0.0187817 0.940496
-2.13359 7.84396 1.85319 -0.589346 0.0184637 0.80767
-0.758294 6.77248 -2.8881 -0.699877 0.0242633 -0.713852
3.10896 4.39916 -0.82213 0.792924 -0.0464139 -0.607551
2.07148 9.12259 2.27452 0.95414 -0.069705 0.291134
0.255402 4.13633 2.46298 -0.143145 -1.2429e-05 0.989702
0.708545 4.22756 -2.57954 0.409438 -0.0262457 -0.91196
0.15743 5.05018 2.47173 -0.0641044 0.00915522 0.997901
2.83554 4.17208 -1.02628 0.628296 -0.0676323 -0.775029
-0.456329 4.13409 2.29081 -0.239134 -0.0114759 0.970919
-2.26407 7.47155 1.60992 -0.950784 0.0426937 0.3069
-0.81957 7.00059 2.30383 -0.23519 0.0375705 0.971223
2.54355 7.59941 -1.59329 0.591357 -0.0572361 -0.804376
2.12415 2.98334 0.820019 0.946039 -0.0955135 0.309655
2.1303 9.14832 2.04143 0.949714 -0.0689116 0.305441
-1.15751 7.1203 2.19261 -0.346889 -0.00618285 0.937886
0.796594 5.3584 2.59959 -0.231099 -0.00113719 0.97293
-1.12783 9.47619 2.20317 -0.267403 0.033082 0.963017
-0.245345 6.63144 2.43233 -0.256415 0.0202325 0.966355
1.06772 4.23347 2.66405 -0.115295 0.0386659 0.992578
-0.793953 8.08326 2.31812 -0.196476 -0.00366399 0.980502
-0.5656 8.12845 2.35706 -0.128207 -0.0112417 0.991684
2.24118 3.95479 0.426226 0.98296 -0.0362761 0.180205
2.61362 4.17604 -1.18857 0.562576 0.00402771 -0.826736
2.64843 8.86192 -1.54241 0.624938 -0.0999098 -0.774255
0.329516 8.03309 -2.91385 0.38762 -0.0433864 -0.920798
2.43152 6.62647 -1.53712 0.623638 -0.0885755 -0.776679
2.12022 3.48229 0.194188 0.873265 -0.225713 0.431812
-0.752158 5.9694 -2.91966 -0.629166 -0.0674444 -0.774339
-1.06462 6.36533 -2.48953 -0.684565 -0.0266332 -0.728465
-0.518958 9.14884 2.36351 -0.215456 -0.050184 0.975223
2.05946 5.33903 -1.74081 0.668285 -0.0667775 -0.740902
2.10248 4.45225 1.05422 0.947556 -0.0979205 0.304218
1.63276 8.69981 -2.34139 0.559814 -0.0159948 -0.828464
2.29004 7.35346 -1.72335 0.655663 -0.0302101 -0.754449
2.38014 5.57146 -1.52621 0.650719 -0.124331 -0.74907
-2.20314 7.84132 1.80428 -0.844717 0.0681332 0.530859
-0.887959 3.09462 -2.66661 -0.7492 -0.0289098 -0.661713
0.820517 6.73848 2.58097 -0.15551 0.0389779 0.987065
-0.568449 3.80392 2.26082 -0.164225 -0.0235492 0.986142
-0.520098 3.30776 -2.97373 -0.0813906 -0.0773112 -0.993679
1.96303 2.95533 -1.63519 0.559617 -0.32572 -0.76206
2.29229 9.36153 -1.87571 0.610829 -0.0511542 -0.790109
1.83553 5.03351 2.04495 0.930711 -0.14001 0.337896
3.9608 6.97489 1.02261 0.974224 -0.0377456 0.222401
0.158428 6.0093 2.47033 -0.0949559 -0.0327272 0.994943
2.96735 8.90848 -1.2963 0.648374 -0.075102 -0.757609
-0.603907 7.60358 -3.02772 -0.359272 -0.0716267 -0.93048
2.5851 8.89051 0.480287 0.986486 -0.0855357 0.139745
3.48444 7.10412 2.56 0.926597 -0.0697533 0.36953
0.221214 3.45855 -2.76518 0.426436 -0.0311251 -0.903982
1.5302 6.01738 -2.22159 0.550733 -0.0867262 -0.830164
0.965202 4.72719 -2.485 0.417651 -0.0241769 -0.908286
2.15116 5.52783 -1.66849 0.620788 -0.106675 -0.776687
-1.7628 8.75115 1.99309 -0.323619 0.00340588 0.946181
2.16398 3.62765 0.652688 0.96517 -0.0318839 0.259674
0.33709 7.51927 2.47302 -0.117951 0.00378938 0.993012
-2.16363 2.84296 0.0988122 -0.972057 0.00694117 -0.234642
2.35935 2.90328 -1.23807 0.648429 -0.326965 -0.687484
0.942658 4.70183 2.64492 -0.229859 -0.023513 0.97294
-2.22985 7.66119 1.77258 -0.834461 0.0384511 0.549724
-1.15569 6.73802 -2.43194 -0.68434 0.0199533 -0.72889
2.2509 6.35465 -1.73144 0.675609 -0.0569877 -0.735055
1.83494 9.37535 2.69944 0.376414 0.180734 0.908652
2.09301 8.77724 2.07591 0.953997 -0.0667354 0.292294
-1.52893 3.02517 1.93721 -0.483793 -0.30336 0.820924
-0.444831 9.39171 2.38595 -0.183652 0.0146262 0.982883
3.94853 7.24738 1.10343 0.968389 -0.0385416 0.24645
1.13314 8.16353 -2.60108 0.446507 -0.0360389 -0.894054
2.16156 3.04279 0.449409 0.995324 0.095525 0.0143058
-2.07347 7.30498 1.86836 -0.426153 -0.00873572 0.904609
2.23523 7.38504 -1.7778 0.695283 -0.0323819 -0.718007
2.24898 3.63965 -1.42655 0.729602 0.0192411 -0.683601
0.422043 8.24299 2.51073 -0.181865 0.0160154 0.983193
3.27093 5.32899 2.46414 0.862968 -0.108094 0.49356
0.239577 3.85937 -2.78107 0.44123 -0.0829334 -0.893554
3.54063 5.83166 2.11744 0.898123 -0.0997897 0.428272
2.44898 9.18793 1.16857 0.973044 -0.0385562 0.227374
2.07555 2.63058 0.680533 0.926559 -0.295281 0.233018
-0.0734037 3.27654 2.41423 -0.28976 -0.120685 0.94946
1.56657 5.19681 -2.15522 0.605564 -0.0155601 -0.795645
-0.493027 3.62739 2.27411 -0.21865 0.00390021 0.975795
2.14456 3.21805 -1.54334 0.710339 -0.0977643 -0.697037
-1.00358 3.43731 2.16077 -0.219634 -0.0340096 0.974989
2.00775 8.96024 -2.07632 0.609695 -0.0723375 -0.789329
-2.20128 8.99877 1.66613 -0.790525 0.0811483 0.60703
1.03602 6.40064 -2.52835 0.484878 -0.0199441 -0.874354
1.73752 5.64189 2.44165 0.777334 -0.138982 0.613544
1.53646 4.1174 2.58857 0.691212 -0.0498372 0.720932
-1.18987 6.82284 2.1739 -0.344973 0.00681487 0.938588
2.30195 2.93306 -1.30673 0.662143 -0.330299 -0.672658
1.61865 8.50763 -2.34416 0.54673 -0.0691035 -0.834452
1.8086 7.48438 2.63908 0.528319 0.0212452 0.84878
-0.739609 5.38591 -2.92865 -0.414738 0.0250872 -0.909595
3.92145 5.49809 0.519209 0.991237 -0.0190937 0.130706
3.23252 7.0174 -0.932829 0.728938 -0.0611582 -0.681842
2.17543 3.72122 0.636923 0.966269 -0.0595156 0.250563
-1.04708 4.31619 2.22361 -0.325601 -0.034026 0.944895
-1.42801 6.5687 -2.01777 -0.801875 0.0419449 -0.596018
-0.943195 3.97038 2.23232 -0.188969 -0.0661446 0.979753
3.27484 5.68785 -0.621027 0.984139 -0.162386 -0.0714293
2.76621 5.66198 -1.20167 0.595346 -0.113793 -0.795371
0.0126049 9.62774 2.41475 -0.127474 0.0731845 0.989138
1.03955 4.89306 2.67227 -0.199334 0.0172115 0.97978
1.0958 5.16853 -2.43687 0.461461 -0.012624 -0.887071
3.89609 7.86597 1.40294 0.957833 -0.049241 0.283075
0.186291 6.9118 2.4663 -0.0751428 0.0228041 0.996912
0.124601 9.43528 -3.03323 0.339826 -0.0308181 -0.939983
0.984283 3.23808 -2.39439 0.551391 -0.187276 -0.812955
0.533858 5.54085 2.53014 -0.275881 -0.0498404 0.959899
2.88478 2.63667 -0.406447 0.901697 -0.411193 0.133649
3.75963 7.09612 1.75315 0.940538 -0.0253184 0.338744
-1.7871 5.63535 1.92441 -0.402427 -0.0392166 0.914612
-0.520127 4.50024 -2.98655 -0.00296614 -0.0410951 -0.999151
2.49742 9.19665 0.932966 0.964407 -0.0550311 0.258633
2.20395 8.50202 -1.86732 0.618499 -0.0641885 -0.783159
3.17952 3.95927 -0.571769 0.984115 -0.0835161 0.156659
3.27988 7.27341 -0.922841 0.761949 -0.0467788 -0.645945
1.39 9.02454 -2.47814 0.481658 -0.0112619 -0.876287
-0.609382 7.03788 -3.00483 -0.428371 -0.0122543 -0.90352
2.38168 8.43713 -1.73728 0.588542 -0.0211756 -0.808189
2.51558 8.49409 0.794851 0.976659 -0.0313736 0.212494
1.57855 4.99127 2.60858 0.696298 -0.142999 0.703363
-1.99579 6.63138 -0.517905 -0.961076 0.222856 -0.163302
1.35502 5.28151 2.71329 0.0859248 0.0141505 0.996201
-2.19356 8.64625 1.76288 -0.71902 -0.00103932 0.694989
0.71936 4.86051 2.59355 -0.262911 0.011047 0.964757
-0.303328 5.52728 -3.01867 0.0987065 -0.0376198 -0.994405
2.10301 8.98105 2.10739 0.952777 -0.0723164 0.294935
-2.06883 6.67952 0.0224865 -0.988888 0.0982797 -0.111539
-2.04335 6.53493 -0.133305 -0.985163 -0.0884973 -0.147046
0.81253 4.03836 2.62427 -0.227172 -0.000903825 0.973854
3.06079 5.25648 -0.162331 0.883595 -0.176107 0.433873
0.967766 5.24608 -2.50421 0.454506 -0.0406028 -0.889818
2.64917 3.25922 -1.0793 0.595678 -0.0760045 -0.799619
1.75007 3.78491 1.82729 0.941256 -0.0842156 0.327024
0.185798 5.12015 -2.85134 0.268921 -0.0432501 -0.962191
-1.74758 3.58272 1.88267 -0.390474 0.0275769 0.920201
-2.28846 6.85746 1.58082 -0.986975 0.0679371 0.145822
1.85306 3.61976 1.59045 0.93794 -0.0944913 0.333676
-1.32542 8.33258 2.12227 -0.288865 -0.0413536 0.956476
0.691539 9.30059 -2.81246 0.339518 0.0204452 -0.940377
-2.08587 6.61644 0.0315176 -0.994198 0.0489992 -0.09576
0.58905 7.066 2.54426 -0.228202 0.00720541 0.973587
1.24001 4.7893 2.7167 0.0195679 -0.0277278 0.999424
-1.23772 8.69602 2.18 -0.290579 -0.0420848 0.955925
-1.25965 9.16498 2.17203 -0.316292 -0.00160008 0.948661
1.95687 3.76574 1.2786 0.922289 -0.110966 0.370229
-1.57033 2.73822 -1.68665 -0.874733 -0.152124 -0.46011
-1.58001 2.59531 1.73519 -0.395618 -0.312464 0.863628
-1.50354 4.98098 2.0313 -0.468609 -0.0380813 0.882584
-0.473503 8.43825 -3.11141 -0.00735235 -0.022628 -0.999717
0.317339 6.0088 2.476 -0.148291 -0.0124377 0.988866
-1.21887 6.71892 2.16432 -0.338493 0.0159999 0.940833
2.84531 4.95346 -1.07828 0.735907 -0.028208 -0.676495
-1.02877 3.26542 2.15073 -0.191366 -0.0602078 0.97967
1.94233 7.29937 -2.06257 0.61041 -0.142742 -0.779117
3.57142 4.81629 1.66504 0.908713 -0.146947 0.390701
-0.569252 4.78607 -2.98633 -0.0675164 -0.00981819 -0.99767
-1.09874 5.88181 -2.54029 -0.686646 0.142917 -0.712806
1.82602 4.01841 -1.90134 0.668776 -0.0778642 -0.739376
0.443648 8.19973 -2.8698 0.36464 -0.0604205 -0.929186
0.0328704 4.19567 2.452 -0.208218 -2.81909e-05 0.978082
4.08358 6.82045 0.23908 0.93774 -0.315227 -0.145861
1.06081 3.95003 -2.44292 0.392972 -0.0377259 -0.918776
-1.5053 3.60396 1.9934 -0.384494 0.0749275 0.920082
1.11807 6.97746 -2.53344 0.508432 -0.120732 -0.852596
3.37701 7.0891 -0.488549 0.986628 0.108664 -0.121482
1.4301 4.43409 2.63948 0.366053 -0.0517739 0.929153
0.887861 3.59801 -2.49634 0.376618 -0.0332819 -0.925771
2.16211 4.71176 0.947351 0.953029 -0.118687 0.278656
0.0132475 8.62798 -3.04344 0.226202 -0.00594644 -0.974062
1.32369 8.9579 -2.51304 0.471515 -0.00532887 -0.881842
3.30576 8.92268 -0.266888 0.872956 -0.036502 0.486431
1.51891 3.8618 -2.11588 0.586876 -0.128515 -0.799412
-0.449385 7.48204 2.38115 -0.18099 0.0231632 0.983212
-0.550713 4.99778 -2.9853 -0.0873035 -0.00599649 -0.996164
-2.23346 7.24505 1.12567 -0.992861 0.0375469 -0.113217
-0.746936 3.76889 2.24343 -0.149336 -0.0671023 0.986507
-1.79336 5.74916 1.9318 -0.399183 -0.0572307 0.915083
-2.23545 2.88598 0.418281 -0.964632 0.022496 -0.262637
-0.443322 5.5891 2.30042 -0.116618 -0.0406763 0.992343
-0.388531 6.04474 2.3539 -0.191818 -0.0703014 0.978909
-1.8421 2.73199 -1.03212 -0.927468 -0.18861 -0.322845
3.15881 5.5045 -0.230294 0.929625 -0.268111 0.252814
-1.18304 6.14525 2.17352 -0.38062 -0.0248217 0.924398
1.3788 5.41902 -2.27893 0.504789 -0.023903 -0.862912
3.18926 5.5669 -0.32463 0.944452 -0.255866 0.206261
2.55077 4.60228 -1.27064 0.515271 -0.120335 -0.848537
2.30959 4.66064 0.302908 0.980869 -0.115826 0.156463
3.215 8.88462 -0.0830258 0.87345 -0.0384042 0.485396
1.02393 8.02271 2.60482 -0.183744 0.00941095 0.982929
0.138823 3.07596 -2.75415 0.378809 -0.222679 -0.898286
2.38118 6.69122 -1.58697 0.649329 -0.0664558 -0.757598
3.76958 6.43268 -0.10364 0.696505 -0.0254752 -0.7171
3.56924 5.42856 1.8798 0.952655 -0.0915106 0.289955
3.40293 6.74065 -0.429929 0.932035 0.0171695 -0.361963
2.92275 3.76813 -0.913842 0.635666 -0.0478661 -0.770478
2.47129 8.67971 -1.66452 0.628866 -0.0548181 -0.775579
2.34657 6.93456 -1.63885 0.632112 -0.0758136 -0.77116
0.495729 5.22702 -2.74279 0.441292 -0.0373324 -0.896587
1.18855 8.64443 2.6639 -0.185068 -0.0135364 0.982632
0.278111 7.89342 2.46945 -0.0943959 -0.0316076 0.995033
3.03255 9.32684 -1.26673 0.643874 -0.0447922 -0.76382
2.94335 3.10082 -0.849618 0.812931 -0.20344 -0.545669
1.794 4.02467 1.80868 0.94771 -0.113646 0.29821
-2.25257 7.10954 1.21185 -0.993476 0.0359076 -0.108238
2.2067 5.31954 -1.58071 0.659637 -0.129934 -0.740267
-1.71348 8.28312 2.0312 -0.342813 0.0163345 0.939262
-1.11493 6.19484 -2.44289 -0.673402 0.0301923 -0.73866
-2.29522 6.20307 1.2138 -0.992664 0.0479211 -0.111
2.48254 3.06957 -1.18049 0.632184 -0.181398 -0.753285
2.15394 3.3743 -1.5417 0.741961 -0.0494871 -0.668614
-0.894822 6.61642 -2.68658 -0.788632 0.0234783 -0.614417
0.849837 3.01848 -2.42911 0.51594 -0.298033 -0.803108
2.40201 9.46529 1.43098 0.950984 -0.065715 0.302176
-1.22842 3.42672 2.09539 -0.297066 0.0257115 0.954511
2.0752 3.97913 -1.64513 0.75954 -0.0434628 -0.649007
0.753966 8.37829 -2.76686 0.374009 -0.0232705 -0.927133
2.45659 5.84679 -1.46911 0.714252 -0.0700432 -0.696375
3.5869 6.97419 -0.0923027 0.781472 0.173668 -0.599284
0.55264 4.77622 -2.6672 0.433557 -0.0602138 -0.899112
-1.06241 6.15103 -2.4862 -0.691951 0.054089 -0.719915
2.00488 4.72682 1.39217 0.84519 -0.154384 0.511682
0.0574891 9.36696 2.44044 -0.16502 0.047936 0.985125
2.99969 3.50621 -0.852449 0.783037 -0.0660747 -0.618455
0.112654 9.4297 2.44993 -0.181295 0.0673678 0.981119
-0.468385 6.30568 -3.0452 -0.110645 0.00267783 -0.993856
-0.492833 8.3311 2.35689 -0.153204 0.000325691 0.988195
-2.29222 6.54119 1.69703 -0.902356 0.0473848 0.428379
-2.43231 3.30472 1.3206 -0.997932 0.000407303 0.0642838
-0.73194 6.73403 2.34932 -0.184928 0.00889752 0.982712
1.21289 8.27847 -2.57051 0.471834 -0.0442653 -0.880576
-0.304766 6.08271 -3.03643 0.100174 -0.0235945 -0.99469
2.90285 6.9736 -1.21821 0.663805 -0.0470608 -0.746424
2.59741 8.92946 0.395071 0.988371 -0.0933801 0.120013
2.09324 8.40755 2.02842 0.948083 -0.0619892 0.311923
1.43657 8.17355 -2.41238 0.551432 -0.0848913 -0.829889
0.0784437 5.81933 -2.89921 0.326371 -0.0195267 -0.94504
-0.103842 8.82436 -3.06624 0.168376 0.0195212 -0.98553
-1.74852 9.23027 2.01001 -0.344476 -0.0012755 0.938794
1.75414 9.1028 -2.28354 0.536232 -0.0448996 -0.842876
-2.27266 2.71592 1.34492 -0.64317 -0.609584 0.463401
1.80681 5.15768 2.11477 0.937259 -0.0996482 0.334088
2.61766 9.34831 0.59152 0.984242 -0.0551834 0.167998
3.22281 6.34891 2.9039 0.920713 -0.130963 0.36761
1.0842 7.79374 2.62021 -0.176142 0.00489083 0.984353
1.89553 9.15675 -2.18714 0.59844 -0.0592097 -0.798976
-0.696666 5.67172 2.2914 -0.157573 -0.0787247 0.984364
-1.72388 2.75862 -1.37817 -0.915598 -0.111701 -0.386269
-0.191486 9.02434 -3.07373 0.126399 -0.0135354 -0.991887
1.68838 8.53838 -2.29627 0.569661 -0.0421809 -0.820797
3.44978 6.80034 -0.343297 0.917932 0.085386 -0.38744
-2.06601 7.91883 1.88446 -0.526233 0.0310842 0.849772
-0.042872 7.95879 -3.06259 0.267376 -0.0425519 -0.962652
3.71133 5.31317 1.45186 0.952368 -0.0306921 0.303402
1.48764 7.94881 -2.35817 0.539012 -0.0656087 -0.839739
-1.66625 2.78831 -1.5163 -0.901626 -0.127624 -0.413259
-1.84412 5.56844 1.88744 -0.377847 -0.0279799 0.925445
-2.27629 6.45146 1.17863 -0.991866 0.0491499 -0.117413
-0.328392 2.99262 2.25419 -0.177579 -0.347241 0.920809
-0.575247 7.20281 -3.03782 -0.37208 -0.0523917 -0.926721
2.18868 8.75164 1.82705 0.912063 -0.0994144 0.397815
-2.10176 2.74219 -0.119781 -0.96696 -0.0686621 -0.245507
-2.24211 6.47158 0.939642 -0.980471 0.0570336 -0.188212
0.452832 4.20279 2.50429 -0.264166 0.0152615 0.964356
1.6313 6.4115 2.62162 0.249993 -0.0434115 0.967274
1.55137 5.48666 2.64801 0.537865 -0.0162226 0.842875
0.0555193 7.10735 2.46761 -0.0517207 0.00884198 0.998622
2.14112 3.04973 0.778005 0.956944 -0.0683951 0.282101
2.08764 2.98836 0.913154 0.916693 -0.0975322 0.387506
-0.0601829 2.67735 -2.60433 0.276368 -0.541586 -0.793918
-0.705826 6.36083 -2.97133 -0.559344 0.0351107 -0.828192
-0.220388 3.152 2.33328 -0.273517 -0.23044 0.933855
0.74398 7.14616 -2.75039 0.362199 -0.020981 -0.931865
1.148 9.32412 -2.61888 0.41855 -0.0151471 -0.908067
3.61965 7.37478 2.19516 0.95073 -0.0729515 0.301315
0.0818588 7.3762 -2.97285 0.355613 -0.020207 -0.934415
-1.53584 9.21514 2.08827 -0.306144 -0.0147081 0.951871
3.816 6.93121 1.57372 0.952003 -0.0158842 0.305677
1.95648 9.35541 2.59775 0.751007 0.0789912 0.655552
-0.494708 4.85813 -2.99802 -0.0540633 -0.0119639 -0.998466
-2.4296 3.22969 1.27167 -0.999933 -0.00609487 0.00980778
1.38431 3.73381 -2.19055 0.605671 -0.107416 -0.788432
3.30604 8.31635 -0.321471 0.878033 -0.0644967 0.474234
-0.183278 8.0375 2.39354 -0.17411 0.0461063 0.983646
2.87276 3.75287 -0.104532 0.849387 -0.0328123 0.52675
0.124592 7.81732 -2.99426 0.364198 -0.0842406 -0.927504
1.77841 3.04807 1.53149 0.937339 -0.03259 0.34689
0.997227 9.53291 -2.68037 0.395547 0.0058087 -0.918427
-1.56048 6.93737 2.08821 -0.285317 -0.0323326 0.957888
1.45472 6.001 -2.26516 0.541884 -0.0872489 -0.835912
-2.00723 6.61002 -0.481698 -0.960996 0.226098 -0.15927
2.43601 9.31008 1.21414 0.968317 -0.0727322 0.238897
2.35676 7.31972 -1.66725 0.611615 -0.0508733 -0.789518
1.17591 7.57278 -2.53223 0.536994 -0.0553526 -0.841768
-0.774796 3.80834 -2.86617 -0.496242 -0.0318498 -0.8676
-1.54402 9.58247 2.09521 -0.292712 -0.029818 0.955736
2.49814 9.48989 1.08598 0.957589 -0.128904 0.257696
2.37704 3.64444 -1.32657 0.622406 -0.0531404 -0.780888
0.627357 6.76644 2.56184 -0.191777 0.0293611 0.980999
1.22398 6.83308 -2.45423 0.489429 -0.070228 -0.86921
-2.0059 2.74738 -0.470775 -0.955433 -0.187658 -0.227885
-1.2343 8.99476 2.1791 -0.319191 0.0125475 0.947607
-1.79717 3.50188 1.86442 -0.401377 0.0104441 0.915853
0.109571 5.93224 -2.89039 0.318556 -0.0259771 -0.947548
1.52711 4.55688 2.56899 0.751941 -0.0645658 0.656061
-2.07677 3.71 1.73186 -0.391933 -0.0462714 0.91883
3.53822 7.02317 2.42409 0.92573 -0.0698023 0.371687
3.05478 7.00134 -1.08202 0.645786 -0.0506465 -0.761837
0.111262 6.13111 2.47214 -0.0953796 -0.0308154 0.994964
0.0236404 6.04181 -2.92926 0.344407 -0.0329864 -0.938241
2.98775 3.87118 -0.870213 0.720105 -0.0532828 -0.691816
0.843368 4.71379 -2.54102 0.415781 -0.020344 -0.909237
2.8122 3.24865 -0.0842418 0.858758 -0.0599703 0.508859
1.76117 8.63744 -2.24276 0.609287 -0.0157455 -0.792793
2.43155 6.42022 -1.50084 0.645174 -0.0888103 -0.758856
0.870436 4.44698 2.61546 -0.218952 -0.00737202 0.975708
-1.37847 3.44146 2.04862 -0.358405 0.0434217 0.932556
3.18338 6.31378 -0.895504 0.732014 -0.0852096 -0.67594
3.21626 8.99395 -0.0762605 0.872941 -0.0422944 0.485989
1.64428 2.82469 1.91473 0.93355 -0.0754314 0.350419
3.40327 7.61825 -0.766041 0.950598 -0.0773546 -0.300633
-2.18623 2.75159 0.211612 -0.972137 0.0123973 -0.234085
-1.26039 9.48245 2.16736 -0.269198 0.0178335 0.96292
-0.408167 6.61932 2.37693 -0.22518 -0.0285722 0.973898
1.05621 6.05477 -2.51884 0.46574 -0.0419527 -0.883926
-1.83912 4.32919 1.88126 -0.354298 -0.0459936 0.934001
3.34867 6.19808 -0.545716 0.956975 -0.0800248 -0.278919
-0.337265 6.84788 -3.06494 0.00686544 -0.00576768 -0.99996
-1.17348 4.35242 2.15542 -0.398615 -0.0445188 0.916037
-1.02122 6.52364 -2.53839 -0.716386 -0.0106256 -0.697623
-1.04385 3.09803 -2.49889 -0.703795 -0.0484499 -0.708749
3.91208 5.92171 0.703514 0.981957 -0.0951126 0.163446
-2.42381 4.06705 1.52237 -0.693872 -0.0629451 0.717342
-0.0638147 7.41584 -3.01688 0.265553 -0.0228903 -0.963825
2.00961 8.78685 -2.05561 0.609468 -0.0748977 -0.789265
3.46928 8.23401 -0.764966 0.971238 -0.116221 -0.20782
0.0499152 4.56759 2.45137 -0.252678 -0.0200081 0.967344
-1.70569 2.70862 -1.4004 -0.914278 -0.105244 -0.391177
0.504053 6.74788 -2.81216 0.271717 -0.0189018 -0.962192
2.05522 5.65796 -1.76719 0.632076 -0.0773994 -0.771031
1.82552 2.73735 1.40746 0.908231 -0.071968 0.412234
-0.932125 9.33379 2.26984 -0.265321 0.027317 0.963773
-1.38385 3.79384 2.01194 -0.42982 0.0204099 0.902684
-0.250852 6.95529 2.41428 -0.232314 -0.0222457 0.972386
3.13147 5.17474 -0.330652 0.904332 -0.140465 0.403054
-1.0174 7.99203 2.25487 -0.352422 0.00655268 0.935818
-0.481339 3.05688 -2.94512 -0.0229876 -0.241689 -0.970081
-2.12962 4.65719 1.76342 -0.406563 0.0209458 0.913383
-1.90124 6.67419 1.91139 -0.394533 -0.0267724 0.918492
1.93904 4.15178 -1.80887 0.708039 -0.0538612 -0.704116
0.10902 3.20259 2.45086 -0.19844 -0.191327 0.961257
1.47406 3.48757 -2.10253 0.610224 -0.101171 -0.785742
1.67033 5.58627 -2.09723 0.617813 -0.0490317 -0.784795
1.08132 5.51732 -2.44751 0.488683 -0.0813197 -0.868663
-2.10299 2.65162 1.39244 -0.511459 -0.536713 0.671081
1.15097 4.05062 2.68659 -0.0443122 0.0382146 0.998287
-2.03329 6.11449 1.84267 -0.359131 -0.0218426 0.933031
2.43085 7.27536 -1.61641 0.562792 -0.064088 -0.824111
3.36963 6.29674 -0.466726 0.937861 -0.0954793 -0.333617
3.74514 7.25965 1.81062 0.942584 -0.0426489 0.331235
0.475172 4.76356 -2.70618 0.441827 -0.0863941 -0.892931
-0.557267 3.3903 2.26843 -0.220141 0.0273329 0.975085
3.77006 6.4764 -0.106433 0.689819 -0.00257233 -0.723977
0.0453543 2.82361 2.26848 -0.204266 -0.467671 0.859976
-0.414737 5.08601 2.30196 -0.207878 -0.0361438 0.977487
-0.178982 7.78479 -3.0819 0.162786 -0.0881851 -0.982713
-0.997389 9.45906 2.2376 -0.286495 0.0429268 0.95712
-0.878261 8.56993 2.3016 -0.233855 -0.0262357 0.971917
2.89441 3.26095 -0.92144 0.650948 -0.109276 -0.751216
-1.62972 3.6141 1.93035 -0.379994 0.0523151 0.923508
3.10471 8.575 -1.13853 0.653031 -0.055913 -0.755265
-2.30186 5.93148 1.16357 -0.992842 0.0359418 -0.113901
4.06596 7.88031 0.73675 0.976718 -0.0238184 0.213199
-0.123772 5.28303 2.4079 -0.351708 -0.00109235 0.936109
-2.2089 7.45418 1.80296 -0.710056 0.00990469 0.704076
3.11718 5.4268 -0.170866 0.913958 -0.20415 0.350719
1.8236 2.9126 -1.70481 0.558457 -0.342972 -0.755312
-1.7434 4.14221 1.89273 -0.354989 -0.0925752 0.930276
-0.933578 6.69169 2.28565 -0.324959 0.00699529 0.945702
1.65756 5.32213 2.53548 0.815127 -0.0345486 0.578251
1.15069 3.35405 -2.30999 0.541586 -0.179668 -0.821221
-0.407595 6.90207 2.3646 -0.196588 0.0110296 0.980424
2.67261 2.80304 -0.941474 0.562572 -0.381128 -0.733658
-2.22415 8.13313 1.69793 -0.851413 -0.0470962 0.522377
2.21615 9.40347 1.84049 0.915858 -0.0516507 0.398166
-0.835374 4.0554 2.23808 -0.0864767 -0.0301723 0.995797
2.9135 3.29819 -0.235624 0.868726 -0.0816135 0.488522
1.06852 6.83728 2.62845 -0.203352 0.0156102 0.978981
1.84002 4.25537 1.7845 0.945312 -0.0649361 0.319638
2.27819 3.80827 -1.38329 0.656694 -0.00662336 -0.754128
1.59221 6.9901 2.69419 0.108361 -0.0413115 0.993253
-2.37557 4.08723 1.61673 -0.610625 -0.0261953 0.791486
-0.0913073 7.68779 -3.05563 0.231868 -0.102575 -0.967324
3.14998 3.96096 -0.729525 0.874174 -0.0803591 -0.478918
1.24394 5.31641 -2.35108 0.487234 -0.00484544 -0.873258
-0.254767 6.53981 2.432 -0.264125 -0.0186206 0.964309
-1.56662 6.57479 -1.74426 -0.902539 0.0758532 -0.423875
0.0838475 7.03627 2.46602 -0.0488749 0.00748372 0.998777
1.8802 8.07956 2.55434 0.801312 -0.0423718 0.596744
1.71244 3.66147 -1.94306 0.607577 -0.143798 -0.781135
-1.12193 2.80529 -2.41061 -0.750646 -0.1232 -0.649117
2.85575 3.24015 -0.157945 0.868454 -0.0645193 0.491554
1.69271 5.53131 2.49437 0.801461 -0.109807 0.58788
1.5095 9.32604 -2.41618 0.498943 -0.0233623 -0.86632
3.18634 5.80009 2.85181 0.941065 -0.113948 0.318455
1.22396 4.48546 -2.37375 0.439596 0.00490131 -0.898182
3.60974 5.58481 1.74605 0.961252 -0.0852447 0.26216
1.7276 3.78365 1.93896 0.942467 -0.097339 0.319814
1.89062 4.21048 -1.86207 0.699536 -0.0506557 -0.7128
1.83463 9.34119 -2.23766 0.553245 -0.0152695 -0.832878
3.05501 4.58752 -0.285988 0.863043 -0.0742444 0.499645
-0.13441 6.3297 -3.00692 0.245165 -0.0240315 -0.969183
-1.06592 7.34772 2.23099 -0.357326 0.00167763 0.933978
-2.09121 4.24013 1.77332 -0.38859 -0.0498936 0.920059
-1.10645 2.86731 2.01522 -0.255473 -0.534965 0.805324
-0.951214 3.3141 2.16457 -0.225215 -0.0432406 0.973349
3.1416 3.78267 -0.681892 0.903967 -0.120205 -0.41036
-1.42778 3.08403 2.02311 -0.460149 -0.233539 0.856576
-0.940233 4.22064 2.24477 -0.169308 -0.0589135 0.983801
-1.95635 6.6157 -0.718042 -0.942707 0.25109 -0.219676
-0.177269 9.25631 -3.09864 0.111475 -0.0495815 -0.99253
2.5725 8.87264 0.574881 0.982134 -0.0894202 0.165578
-1.53729 2.73345 1.77511 -0.36928 -0.330195 0.868679
-0.566579 4.89454 -2.98347 -0.0613007 -0.00949246 -0.998074
0.747074 3.40215 -2.54768 0.346194 -0.00476996 -0.938151
1.54405 5.42038 -2.18303 0.575868 -0.0256638 -0.81714
1.18767 7.81922 2.64448 -0.182021 0.000259343 0.983295
-2.14787 3.88891 1.72491 -0.405585 -0.0707607 0.911314
3.25998 9.28042 -1.08903 0.663363 -0.038525 -0.747305
-0.28292 3.92062 2.34321 -0.294359 -0.0455297 0.95461
-1.12416 5.70218 2.1786 -0.286083 -0.0399372 0.957372
0.457198 3.17208 -2.63813 0.35514 -0.13039 -0.925675
0.271999 5.15513 -2.83592 0.299226 -0.0332403 -0.953603
-0.59452 8.85207 2.33147 -0.144509 0.0122344 0.989428
-0.729877 5.20045 2.27361 -0.107075 -0.0522189 0.992879
2.63831 2.71028 -0.904171 0.569181 -0.415424 -0.709546
-0.868468 5.83239 -2.75589 -0.737748 0.0296538 -0.674424
2.60407 8.3747 -1.56942 0.634028 -0.013522 -0.773192
-0.536402 6.04579 2.33412 -0.0998359 -0.0439256 0.994034
3.37399 5.08192 2.22105 0.875819 -0.199931 0.439282
-0.126882 8.7103 2.43731 -0.163443 0.0109401 0.986492
-0.350207 8.9187 -3.0953 0.0296863 0.0231547 -0.999291
1.00528 3.81606 -2.45778 0.381435 -0.0483705 -0.923129
2.90125 3.84091 -0.935979 0.630713 -0.0659089 -0.773213
0.237385 9.65813 2.45362 -0.187986 0.0918079 0.977871
-1.51606 2.90625 -1.83372 -0.860637 -0.0935653 -0.500549
2.09152 9.05571 2.17998 0.959356 -0.0757005 0.271856
2.23605 3.70496 0.189935 0.977353 -0.203289 0.058782
2.71767 2.77017 -0.889007 0.577756 -0.403615 -0.709431
-2.24691 6.91231 1.75393 -0.794652 0.0321818 0.606211
2.18425 2.8397 0.255405 0.990527 -0.0666421 0.120059
-1.698 2.75356 -1.43535 -0.909053 -0.127528 -0.396684
2.1485 3.18766 0.772261 0.961229 -0.0167126 0.275245
0.708526 3.80955 2.58565 -0.262181 -0.0222287 0.964763
-1.41934 3.86307 1.99217 -0.42427 -0.0187614 0.905341
1.96908 7.81489 -2.04726 0.636303 0.00570107 -0.771418
3.44965 6.05363 2.32547 0.862638 -0.0964639 0.496538
0.759071 7.06163 -2.7424 0.391304 -0.0326704 -0.919681
-0.143464 4.79258 2.38224 -0.33277 -0.0426987 0.942041
-0.889103 6.2588 -2.70339 -0.821005 0.00459881 -0.570903
-0.326673 6.42519 -3.03929 0.080654 -0.0182213 -0.996576
2.42201 9.24019 1.27588 0.96763 -0.0449669 0.248334
2.43372 6.52187 -1.51455 0.636933 -0.0985766 -0.764591
-2.07203 2.73441 -0.219855 -0.965219 -0.0960674 -0.243151
0.910336 9.41455 -2.71683 0.392121 0.01469 -0.919797
-0.642763 4.6026 -2.96713 -0.0691464 -0.0221113 -0.997361
0.275004 9.2268 2.49239 -0.175641 -0.00216345 0.984452
-1.68153 9.06445 2.03457 -0.323776 -0.00179084 0.946132
2.93525 4.99605 -0.0720981 0.86173 -0.123068 0.492215
-1.36568 4.36491 2.0914 -0.3891 -0.0416048 0.920255
-1.4259 4.43296 2.07293 -0.404825 -0.00525807 0.914379
-0.62958 9.16423 -3.05235 -0.1963 0.0504143 -0.979247
3.24504 6.19157 -0.824098 0.807028 -0.0847532 -0.584399
-1.7137 6.55461 -1.47972 -0.891528 0.0537815 -0.449761
-0.95002 8.68679 2.27902 -0.283426 -0.000407014 0.958994
-0.446873 5.81735 2.31973 -0.131375 -0.100459 0.98623
1.55808 4.55196 -2.1514 0.604031 0.0140959 -0.796836
2.21964 3.1322 0.111033 0.982983 0.120455 0.138693
1.70547 4.04363 -2.01542 0.632455 -0.105504 -0.767378
2.24932 9.18319 1.75219 0.903894 -0.0512676 0.424673
1.9894 4.66125 -1.73392 0.728396 -0.0194689 -0.68488
0.787937 3.06604 2.58285 -0.247615 -0.26468 0.932004
-0.516537 4.58455 2.28294 -0.189443 0.0220232 0.981645
-0.0640118 4.70984 -2.89738 0.301309 -0.0319254 -0.952992
-1.23293 6.49813 -2.36211 -0.77478 -0.0282412 -0.6316
-1.09573 2.8949 -2.44008 -0.711258 -0.0785523 -0.698528
0.0312082 8.72346 -3.04561 0.223653 -0.00655379 -0.974647
2.87685 5.65627 -1.09997 0.663216 -0.0848169 -0.743606
0.93391 4.88751 -2.502 0.416497 -0.020826 -0.908898
1.78037 3.83945 1.74919 0.94311 -0.0713187 0.324743
-2.02619 8.11292 1.89749 -0.497455 -0.00968567 0.867436
3.39949 5.4529 2.28174 0.849976 -0.0956176 0.518072
2.93511 3.465 -0.900988 0.676953 -0.0632599 -0.733303
1.6779 8.98427 -2.3179 0.53243 -0.0379248 -0.845624
2.04461 7.17447 -1.95849 0.62375 -0.141841 -0.768646
-0.0729535 9.44646 2.41723 -0.103178 0.0616021 0.992754
2.21476 3.55263 0.124505 0.967128 -0.226087 0.116395
2.36792 3.44764 -1.31342 0.664019 -0.0386717 -0.746715
2.97841 2.93728 -0.744026 0.836368 -0.290762 -0.464699
4.05066 6.98149 0.609036 0.978005 -0.0968425 0.184736
-0.0758013 4.323 -2.91399 0.257749 -0.00367958 -0.966205
3.06703 3.30668 -0.706318 0.908131 -0.165932 -0.384401
-1.0555 7.58808 2.23284 -0.362593 -0.0188463 0.931757
0.345854 4.00258 2.47711 -0.206863 0.00699537 0.978345
3.92059 7.19201 1.20504 0.96837 -0.0232114 0.248437
-1.39432 7.5505 2.13259 -0.223272 -0.0167266 0.974613
-1.94633 2.72399 -0.717902 -0.938882 -0.234092 -0.252392
3.89298 5.58371 0.72827 0.988021 -0.0253278 0.152228
-2.19538 2.69919 0.287226 -0.970776 0.0137035 -0.239598
1.49172 4.96166 -2.20141 0.565799 -0.0220565 -0.824248
-1.91103 6.50521 1.90253 -0.412752 -0.0350312 0.91017
2.0853 9.29364 2.26942 0.953265 -0.0475778 0.298365
1.92296 7.62085 2.41856 0.776992 0.053196 0.627259
2.40442 6.18807 -1.52851 0.708714 -0.0337054 -0.70469
-0.321073 3.81153 -2.94283 0.170608 0.00992793 -0.985289
0.274173 5.53075 2.46487 -0.105261 -0.0185005 0.994273
-0.423484 3.86502 2.29204 -0.237103 -0.0228296 0.971216
-2.16204 9.31348 1.72327 -0.730612 0.100273 0.67539
1.04357 7.26085 2.62489 -0.159904 0.00420008 0.987124
-1.3468 4.77379 2.10154 -0.421203 -0.0519226 0.905479
-1.45532 7.32941 2.10261 -0.24074 -0.0255 0.970255
0.252546 5.94062 2.46873 -0.118215 -0.0178367 0.992828
2.52848 9.50527 0.983964 0.956926 -0.129606 0.259799
-1.68419 3.9505 1.89706 -0.335087 -0.0617455 0.940162
3.8446 5.07977 0.911245 0.974028 -0.0370594 0.223373
2.85882 4.87687 -1.06045 0.729228 -0.0456259 -0.682748
-1.92058 2.73319 -0.818689 -0.929035 -0.247829 -0.274727
0.928931 7.4572 2.60605 -0.137367 0.0219348 0.990277
4.04558 7.33341 0.771294 0.967664 -0.0600816 0.244983
1.39457 6.13367 2.69703 0.0908841 0.0657583 0.993688
-1.34046 4.03971 2.04274 -0.455491 -0.0974661 0.884889
1.29037 2.91325 -2.11425 0.515263 -0.291261 -0.806022
1.56778 5.69632 2.65007 0.454225 -0.0761747 0.887624
1.25108 5.24554 2.70459 -0.0647383 0.0221172 0.997657
0.529174 8.25345 -2.84202 0.358725 -0.062362 -0.931358
2.7909 6.6837 -1.29479 0.672277 -0.0591856 -0.73793
3.05507 4.86889 -0.277055 0.875606 -0.0766015 0.476913
-1.96131 6.68322 -0.635509 -0.940086 0.280813 -0.193343
3.80512 5.39602 1.11831 0.966865 -0.0183191 0.25463
-0.185713 5.552 -3.00013 0.229749 -0.0572509 -0.971565
3.21313 5.61141 -0.400769 0.958804 -0.262076 0.1096
-0.173678 5.82897 2.39098 -0.28202 -0.0885296 0.955315
1.24834 7.42751 -2.47746 0.560426 -0.0293465 -0.827684
2.11676 9.31088 2.16247 0.959728 -0.0578924 0.274903
2.15963 2.95118 0.684894 0.975826 -0.116728 0.184768
2.02693 8.41342 2.24689 0.941753 -0.101394 0.320657
2.02675 9.07354 -2.06926 0.619744 -0.0634559 -0.782234
3.09644 8.05849 -1.10343 0.650096 -0.0503528 -0.758182
0.195405 9.27452 -2.99718 0.361048 -0.0284948 -0.932112
0.192863 5.15203 2.46676 -0.0500173 0.0159238 0.998621
0.0891124 6.25011 2.4703 -0.0887859 -0.0240651 0.99576
2.16557 3.06006 0.258315 0.977548 0.206163 0.0435556
0.204362 2.77231 -2.60185 0.339816 -0.470541 -0.814319
-0.860574 6.61757 2.3089 -0.272405 -0.0245463 0.96187
1.64897 6.81102 2.64142 0.197506 -0.0669336 0.978014
-0.967373 2.70792 1.93857 -0.24755 -0.579242 0.776658
1.01444 2.84823 -2.25998 0.483043 -0.338537 -0.807504
-1.23153 7.27476 2.16126 -0.31766 0.00170125 0.948203
2.52526 4.1027 -1.24195 0.564801 0.0104145 -0.825162
3.12657 3.45208 -0.593357 0.98912 -0.137138 0.0532419
-2.12133 5.09757 1.7535 -0.494598 -0.00840396 0.869081
-1.33833 9.17614 2.14283 -0.312419 -0.00843708 0.949907
0.828818 4.31494 2.60719 -0.217428 0.0235941 0.975791
2.16537 9.01993 1.90906 0.924795 -0.0566256 0.376227
-1.74708 6.51903 -1.41552 -0.913793 0.0519411 -0.402845
-2.42913 3.47944 1.14212 -0.999583 -0.00262381 -0.0287642
0.802583 5.45858 2.60108 -0.216804 -0.0111164 0.976152
1.36372 2.76335 -1.99345 0.529236 -0.447734 -0.720724
2.2111 9.0008 1.82646 0.910719 -0.051386 0.409818
-2.33936 5.46441 1.60749 -0.904656 -0.0324745 0.424903
-1.55729 5.08469 1.99657 -0.442288 -0.0442439 0.895781
-1.94031 7.82137 1.92619 -0.399885 -0.00980954 0.916513
0.187621 3.53819 -2.77678 0.432636 -0.0346566 -0.900902
2.13063 5.20291 -1.65463 0.714991 -0.0713376 -0.695485
-2.39518 3.33178 1.58018 -0.789182 -0.016241 0.613944
1.78754 5.32508 2.18912 0.922259 -0.110886 0.370328
-0.740186 8.39208 2.31143 -0.170445 0.00174418 0.985366
3.67669 5.0598 1.49595 0.93659 -0.0937755 0.337646
-0.225723 3.20904 -2.92646 0.253567 -0.0960523 -0.962537
-0.957156 7.95119 2.27754 -0.31534 0.0123124 0.948899
0.892697 3.91901 -2.49598 0.344377 -0.033008 -0.938251
2.0828 8.99383 -2.02244 0.61666 -0.0660138 -0.784457
-2.17965 6.44475 0.633093 -0.977352 0.0158304 -0.211027
-0.016801 8.61075 2.44797 -0.127463 -0.0369626 0.991154
1.11092 3.06488 2.63317 -0.00273336 -0.302682 0.953088
-0.294066 3.06944 2.29201 -0.218023 -0.274031 0.936682
1.91306 9.35327 -2.18296 0.592515 -0.0274768 -0.80509
1.88534 8.05343 -2.12663 0.614538 -0.0284463 -0.788374
-2.18495 6.7596 0.758714 -0.987783 0.0545056 -0.145991
-1.39447 7.38775 2.12102 -0.231918 -0.0251119 0.972411
0.793889 3.0684 -2.49827 0.488762 -0.2573 -0.833612
0.144458 8.85643 -3.02995 0.295091 0.0355603 -0.954807
3.1947 5.06302 -0.510524 0.985303 -0.0965777 0.140896
-2.33382 5.23906 1.59466 -0.755101 -0.0156669 0.655421
-1.10868 4.719 2.19946 -0.348262 -0.0143598 0.937287
1.98502 7.4848 -2.04502 0.659392 -0.031349 -0.751145
1.96138 3.27847 1.14894 0.874874 -0.0352713 0.483064
1.1855 6.64839 2.66199 -0.187886 -0.00898647 0.98215
0.984385 3.76237 2.65686 -0.207719 0.0127071 0.978106
0.0725601 9.69216 2.41302 -0.147341 0.0792858 0.985903
0.86516 5.12316 2.61745 -0.233656 0.0332786 0.97175
0.112413 4.20249 2.4624 -0.134911 -0.00892114 0.990818
2.06006 3.33786 0.287479 0.999907 -0.0132738 0.00311982
-2.24143 5.51059 1.75072 -0.58918 -0.0967061 0.802194
1.80853 4.0082 1.70658 0.95006 -0.104203 0.294156
4.02072 7.70078 0.945003 0.971273 -0.0390497 0.234741
0.237278 7.40945 -2.90502 0.345379 -0.0317888 -0.937925
2.4027 9.08543 1.35982 0.960598 -0.0490246 0.273584
-2.35184 3.38888 1.62918 -0.690791 0.00817893 0.723008
-0.359363 4.92857 2.3139 -0.263605 -0.0125519 0.964549
2.87349 3.06975 -0.912351 0.655045 -0.223415 -0.721804
1.12178 5.99766 2.65387 -0.212535 0.0482023 0.975964
0.2259 6.41195 -2.89483 0.281107 -0.032853 -0.959114
2.46449 5.32885 -1.38639 0.627411 -0.161697 -0.761715
0.908894 8.73286 -2.70924 0.395161 -0.0503675 -0.91723
-1.15473 6.75296 2.18963 -0.357367 0.0160117 0.933827
1.34295 5.17546 2.7094 0.10024 -0.0036678 0.994957
3.67546 7.08256 1.95302 0.941561 -0.0348241 0.335039
-0.318694 4.27155 -2.96717 0.125424 -0.0725495 -0.989447
1.59681 5.08844 -2.1307 0.607607 -0.0106697 -0.794166
-1.75478 3.24456 1.86503 -0.389836 -0.171929 0.904692
-0.650878 3.93604 2.25723 -0.129699 -0.0124053 0.991476
2.29008 5.61653 -1.58904 0.603614 -0.128843 -0.786797
0.130716 6.43253 -2.92491 0.297136 -0.0369457 -0.95412
2.23454 6.81377 -1.7469 0.655409 -0.0416898 -0.754122
1.28812 3.38655 -2.21833 0.555183 -0.148275 -0.818405
3.86645 6.84401 1.42121 0.961807 -0.024829 0.272599
2.08661 4.60016 -1.64003 0.740054 -0.0293576 -0.671906
3.34528 7.18374 2.78107 0.92784 -0.0622035 0.367756
2.16093 8.47 1.82808 0.925084 -0.0269767 0.378803
0.594107 5.07832 -2.6733 0.476981 -0.0749912 -0.875708
3.22579 8.44436 -0.150195 0.872451 -0.0666578 0.484134
-1.66427 7.66927 2.06368 -0.378599 -0.0233628 0.925266
-1.19638 5.87924 2.16732 -0.336975 -0.0337551 0.940908
-1.38705 6.27242 2.09296 -0.301796 -0.0578516 0.951616
1.79079 4.79889 2.02319 0.932754 -0.166277 0.319877
2.08791 4.12708 1.06809 0.928859 -0.029991 0.369217
-2.02199 7.51958 1.88837 -0.414058 -0.023929 0.909936
1.58905 2.62113 -1.67539 0.507076 -0.499838 -0.702165
3.03684 8.1877 -1.15987 0.653651 -0.0652337 -0.753979
2.52907 5.00346 -1.29852 0.455902 -0.0538556 -0.888399
4.01887 7.10874 0.766575 0.970546 -0.0672013 0.231353
3.19087 4.62566 -0.599181 0.997714 0.00444806 0.0674259
2.22382 3.96093 0.510722 0.973171 -0.0311964 0.22796
2.11578 3.30631 -1.58421 0.683515 -0.0821344 -0.7253
1.59913 4.75003 -2.11525 0.603462 -0.00695962 -0.797362
3.93616 5.08595 0.353102 0.992989 -0.014007 0.117371
-0.432857 3.77615 2.2866 -0.223269 -0.0173834 0.974602
3.49384 6.00165 2.23228 0.872836 -0.0855327 0.48046
0.313797 8.73531 -2.96317 0.368538 0.0196915 -0.929404
2.15049 5.76466 -1.69944 0.579111 -0.100563 -0.809022
3.57612 6.53149 -0.243035 0.734993 0.000523284 -0.678074
3.91176 5.57856 0.587649 0.989935 -0.0257731 0.139155
-1.19466 6.315 -2.39129 -0.686066 -0.00922507 -0.72748
-1.02392 6.65665 2.2501 -0.356681 0.0116954 0.934153
1.72468 5.19314 2.28558 0.931025 -0.0856696 0.354758
0.097873 6.89562 2.4643 -0.0664563 0.0131682 0.997702
-2.42939 3.115 1.23432 -0.999174 -0.0238955 0.0328777
-1.63321 6.65026 2.0441 -0.356559 -0.0105599 0.934213
0.36097 7.22192 2.47374 -0.159032 0.0153194 0.987155
0.332992 5.81409 -2.8423 0.287321 -0.040237 -0.956989
-2.25156 7.18633 1.45505 -0.998675 0.0417734 -0.0300553
0.387594 5.53721 -2.80801 0.38337 -0.0271938 -0.923194
0.0914564 3.95365 2.44306 -0.191067 -0.0274583 0.981193
2.33751 3.37838 -1.33074 0.684399 -0.0234544 -0.728731
-2.04817 2.79 -0.330596 -0.962643 -0.12913 -0.238001
1.91975 7.95251 2.41859 0.889651 0.0184399 0.456268
-0.396615 4.31913 -2.9803 0.0631582 -0.0774567 -0.994993
-1.0394 3.35847 2.14928 -0.219383 -0.0179132 0.975474
0.224666 8.81139 2.48092 -0.129458 0.0030466 0.99158
1.81955 5.08008 -1.93999 0.681972 -0.00111158 -0.731377
1.54281 8.30348 2.68479 -0.0362113 -0.0210626 0.999122
-0.589259 4.53246 2.26598 -0.133095 0.0161412 0.990972
2.07363 8.06363 -1.95572 0.655359 -0.00886194 -0.755266
-1.71283 6.75178 2.00691 -0.406452 -0.0235836 0.913368
-0.471111 6.00614 2.3374 -0.126992 -0.0744405 0.989107
-2.11361 5.88445 1.82696 -0.413217 -0.0269892 0.910232
0.0385262 7.59519 2.46792 -0.0848487 -0.00129843 0.996393
0.0644563 7.16274 -2.97759 0.3628 -0.0183518 -0.931686
4.03326 7.21584 0.772554 0.968148 -0.0672446 0.24118
0.912832 9.483 2.5809 -0.163393 0.0273307 0.986182
1.03921 7.91634 -2.6427 0.436325 -0.0275626 -0.899367
-0.386759 3.06239 2.27324 -0.163269 -0.271363 0.948528
0.571221 5.29268 -2.7068 0.459557 -0.0308604 -0.887612
-2.42443 3.48743 1.51619 -0.912694 0.0130421 0.408436
1.52867 8.56208 -2.40185 0.523404 -0.0465208 -0.850814
2.34701 4.15187 -1.36053 0.619009 -0.0150901 -0.785239
0.762834 9.47489 -2.7842 0.367126 0.0218311 -0.929915
2.44264 9.08477 -1.74609 0.615525 -0.0751082 -0.78453
1.48452 4.1633 2.62909 0.620937 -0.0447816 0.78258
2.83612 5.1247 -1.08705 0.715799 -0.0116794 -0.698209
3.27402 7.37507 -0.920789 0.76616 -0.0237002 -0.642212
-0.0511294 8.75476 -3.05807 0.184709 0.0135789 -0.982699
2.19593 4.80687 -1.55371 0.751908 -0.0844414 -0.653838
1.52639 4.72237 2.59136 0.719158 -0.0965337 0.688109
1.89926 3.28323 1.26966 0.901704 -0.076605 0.425513
-2.27709 6.4587 1.73467 -0.824057 0.042226 0.564931
0.522999 3.59262 -2.61068 0.358256 -0.0131514 -0.933531
-1.80434 2.52588 1.59935 -0.510338 -0.323807 0.796683
2.32342 8.0898 -1.75787 0.581085 -0.0378708 -0.812962
-2.31716 6.42289 1.515 -0.996162 0.0633918 0.0603621
-1.48088 9.55175 2.10789 -0.285786 -0.0164503 0.958152
3.68527 4.91917 1.4267 0.938088 -0.0995163 0.331795
-1.73072 2.88938 1.7555 -0.413836 -0.373207 0.830335
2.14364 4.33441 0.918037 0.957753 -0.0588649 0.281504
0.302597 5.70321 2.4748 -0.152845 -0.0192676 0.988062
3.30429 5.60149 2.45736 0.858551 -0.0963502 0.503593
2.99188 4.00677 -0.859587 0.685391 -0.0606606 -0.725645
2.42393 4.57046 -1.33374 0.559946 -0.0882762 -0.823813
0.603092 4.63942 -2.64481 0.3941 -0.0414931 -0.91813
-1.53112 2.71854 -1.75369 -0.862798 -0.151693 -0.482254
-1.82758 6.69256 -1.07901 -0.9447 0.176989 -0.276073
-0.159337 6.28263 2.43873 -0.221336 -0.0625946 0.973187
-2.03136 4.48512 1.80585 -0.371291 -0.0143289 0.928406
-1.39524 8.48593 2.11385 -0.256108 -0.0729816 0.963889
3.5679 5.50461 1.92213 0.949222 -0.103562 0.297072
-0.654868 4.02729 2.24853 -0.124508 -0.00513921 0.992205
-0.166368 7.92876 2.4045 -0.184639 0.0760145 0.979862
-0.998434 7.21594 -2.57402 -0.759896 -0.0255665 -0.649542
3.17757 5.19919 -0.427285 0.941528 -0.107751 0.31924
-0.0865577 6.81739 2.4567 -0.141763 0.0362488 0.989237
0.499253 9.53947 2.51561 -0.154095 0.0701747 0.985561
0.175084 7.07414 2.46632 -0.0473825 0.0166447 0.998738
-0.306934 4.58664 -2.98389 0.178166 -0.0379457 -0.983269
0.0418809 5.98076 2.46347 -0.137283 -0.0510367 0.989216
2.31086 3.04619 -1.35762 0.69791 -0.229126 -0.678544
1.62011 6.0207 2.6043 0.29007 -0.0332544 0.956427
3.40587 8.24961 -0.513227 0.939246 -0.0567735 0.338518
0.0333143 9.20018 -3.04465 0.262189 -0.0422505 -0.964091
-2.24118 2.70294 0.468989 -0.961436 0.0235699 -0.274016
-1.34855 6.44384 -2.10404 -0.841035 0.0589761 -0.537756
1.2997 2.69778 -1.97962 0.51515 -0.476839 -0.712211
-0.664796 9.42815 2.34158 -0.212792 0.00966224 0.97705
2.24428 4.10041 0.424653 0.982548 -0.0315652 0.183311
3.16169 8.33077 -1.07635 0.629756 -0.0705841 -0.773579
-0.648549 5.66351 -2.96113 -0.456111 0.0229695 -0.889627
2.40139 8.80134 1.25898 0.95952 -0.0419624 0.278498
-2.20721 6.82028 0.922355 -0.984229 0.0526309 -0.168891
-1.90545 6.34007 1.89766 -0.42541 -0.0458645 0.903838
1.44529 5.33077 -2.23983 0.528772 -0.0152441 -0.848627
1.69288 5.65429 2.52009 0.683423 -0.102856 0.72274
-1.03579 4.05262 2.22045 -0.276542 -0.0405697 0.960145
-0.856479 6.08154 2.30966 -0.26533 -0.049989 0.962861
1.42525 7.35799 -2.3564 0.502238 -0.0482106 -0.863385
-0.432015 2.7935 -2.80667 0.0501092 -0.484219 -0.87351
-0.621291 5.34711 2.29806 -0.113115 -0.0145839 0.993475
-0.483032 4.2198 2.28543 -0.224305 -0.0191648 0.974331
-0.0849184 5.20988 -2.94442 0.292925 -0.0610817 -0.954182
0.341556 7.02105 -2.85913 0.290752 -0.0152813 -0.956676
1.88997 2.81859 -1.6173 0.554866 -0.409949 -0.723924
-2.07888 3.45806 1.72977 -0.412104 -0.00823033 0.9111
2.95753 3.69357 -0.25664 0.84972 -0.0381154 0.525854
-1.76413 5.41711 1.92996 -0.398052 -0.0162961 0.917218
0.633062 7.45344 -2.7819 0.305286 -0.0176767 -0.952097
1.19607 5.14514 -2.38248 0.475702 -0.00486587 -0.879593
0.390769 4.48789 -2.71938 0.433883 -0.0296837 -0.90048
0.765776 5.06477 2.59964 -0.260913 0.0411131 0.964486
1.49535 5.05137 -2.20423 0.562603 -0.0205893 -0.826471
-1.75919 7.12885 2.00012 -0.424177 0.00946842 0.90553
0.97566 6.51251 2.61365 -0.146506 0.00443811 0.9892
0.0862836 6.72382 2.46988 -0.0445855 0.0212329 0.99878
-1.40773 3.63441 2.02868 -0.387576 0.0642407 0.919597
-1.15616 3.95188 2.16986 -0.44616 -0.0583934 0.893046
0.830441 4.62718 -2.54693 0.416113 -0.0337699 -0.908686
1.1344 3.91601 -2.4094 0.456302 -0.0605189 -0.887765
2.76361 7.32798 -1.35891 0.696464 -0.0453326 -0.716158
2.0175 5.92862 -1.8171 0.630039 -0.0872914 -0.771642
-2.17485 9.26897 1.64521 -0.778189 0.102734 0.61957
0.660449 6.95143 -2.77875 0.33631 -0.0229039 -0.941473
0.345838 3.82472 -2.71184 0.442732 -0.0955395 -0.891549
2.03494 9.13716 2.38825 0.930893 -0.0574461 0.360747
1.67118 9.08554 -2.32847 0.504278 -0.0323846 -0.862934
