-0.637788 9.27015 2.32812
1.64387 4.30219 2.26188
1.92132 8.14892 2.41294
-1.50517 9.47092 2.09474
0.982385 8.99379 2.59827
1.30909 6.97391 2.67083
2.0331 3.45111 1.02219
-0.523419 9.50414 -0.263244
1.8833 6.09514 -1.9583
-2.01482 3.36139 1.76709
3.09692 7.36909 -1.06615
1.06915 9.28202 -2.64763
-0.584727 5.80382 -0.341621
0.954026 3.07821 2.62004
-0.401886 10.1624 -0.010168
1.3128 4.79727 -2.30939
-2.06615 6.71006 0.0594066
-0.491572 10.1308 -0.308026
2.13556 8.52712 -1.91991
2.9718 7.29509 -1.17208
0.529502 8.19418 2.54361
-1.47849 5.18823 2.05681
-0.624999 5.74645 -0.107565
-0.17645 8.16083 -3.09392
-0.776407 9.28684 2.30911
2.62744 9.19597 0.424422
2.30158 3.93804 -1.36454
1.47743 8.85563 2.68961
-1.94902 6.66701 -0.710045
-0.523102 4.91745 -0.553617
1.00516 5.30824 -2.48916
2.16975 3.02304 0.552072
1.81588 7.79345 2.64099
1.56257 9.35042 2.69067
2.12374 6.27636 -1.80613
0.870709 4.70686 -2.52964
2.12646 4.89854 -1.64801
-0.098765 7.41594 -3.02881
1.43497 7.16597 -2.35126
-0.625096 5.20838 -0.203464
-0.624266 3.72742 -0.156204
1.82609 4.74979 1.87169
-1.91088 8.27866 1.94552
0.34156 4.8321 2.4709
3.60999 6.91812 2.10485
1.36601 4.52914 -2.29124
1.91431 3.55183 -1.79204
-0.97644 9.26404 2.26052
-1.17291 4.89002 2.17701
-0.559624 7.40062 -0.332693
1.85192 3.55374 1.59828
2.54987 6.66369 -1.49284
-0.49676 10.0393 -0.32601
1.23221 8.3665 -2.56121
2.24068 3.70711 0.21309
-2.01618 5.38098 1.82569
-0.513903 9.00271 -0.177545
-1.34378 9.3038 2.14968
-0.0517168 6.94419 2.45498
-0.948554 7.35089 2.27669
0.108864 5.21023 -2.87452
1.88354 3.93857 1.51265
-0.663431 6.76442 2.36681
1.97404 8.50439 -2.06669
-0.495822 8.11414 -0.605998
1.53367 5.64674 -2.19272
1.83879 8.14877 -2.16202
2.56424 9.37429 0.787764
-2.02066 6.62586 -0.279217
2.14 9.33684 2.11768
1.55973 6.21241 -2.21816
-0.616988 5.87681 -0.222069
-0.442368 9.76492 -0.0820753
-0.629312 4.02133 -0.146363
3.39152 7.95144 -0.819149
1.28996 4.93223 2.72228
0.0789046 3.62446 2.44959
3.86196 6.74723 1.4169
-0.451187 9.88971 -0.0877111
4.12687 6.92234 0.198874
-0.751698 6.41215 -2.92705
1.95446 2.68563 -1.48632
4.09452 7.06976 0.424253
3.58911 5.32023 1.79279
0.979916 7.13264 2.62365
1.02452 3.15054 -2.33924
-0.477506 9.64458 -0.141096
2.45874 8.63028 1.01976
0.278355 6.08894 2.47455
-0.567306 7.25148 -0.342271
2.19225 5.31471 -1.58835
1.58667 3.38117 -1.99851
-2.43311 3.05481 1.46192
-0.507628 7.34807 -0.528545
-2.41921 3.19933 1.53909
1.67884 9.01333 -2.32084
0.719113 4.20926 -2.5704
0.0823437 9.26872 2.45322
2.28929 5.82448 -1.63067
2.11021 4.5552 1.11201
1.92619 4.92673 -1.82593
1.36865 5.47638 2.70885
0.700188 8.20572 2.56439
0.187875 5.85724 2.46957
1.57322 3.79989 -2.07147
-0.41998 5.30435 -0.760344
-0.608282 5.94478 -0.267152
-0.559807 8.18437 -0.207437
-0.438794 5.72936 -0.745357
3.79427 5.9667 1.24215
-0.274942 2.8988 -2.84634
1.08655 5.17293 -2.4426
-0.281622 3.8955 -2.92395
3.02076 2.90051 -0.619734
-0.183377 3.68937 -2.90748
-0.949052 6.17807 -2.58972
0.193666 4.76612 -2.84401
3.10707 8.62055 -1.13702
-0.521452 7.66003 -0.485076
3.04652 7.11207 -1.09346
-0.597507 4.94832 -0.261387
0.743938 5.63411 2.60042
-0.619655 4.08246 -0.196856
0.754848 6.20754 2.59108
3.82585 4.86442 0.958633
2.3779 5.77384 -1.56346
-1.60089 3.36226 1.94814
0.389453 5.23461 2.47359
-0.486124 9.95803 -0.159552
1.96692 8.13635 -2.05412
1.94717 4.79747 1.47091
-2.17594 5.95082 1.8126
1.17077 3.13565 -2.24507
1.94875 9.31146 2.62166
-0.558668 7.87274 -0.152216
-0.319895 4.69684 -0.918138
0.818955 8.55208 2.56916
-0.61245 3.59334 2.2474
-0.437391 4.28284 -0.75975
3.28612 5.31687 2.43664
2.26764 3.97363 0.148923
0.285885 7.05048 2.47025
-0.495192 7.48911 -3.05819
-1.01583 5.95762 2.23176
1.00285 5.22135 -2.48769
1.40757 3.30755 2.63448
1.56998 3.70423 2.32664
-2.11278 3.77069 1.72004
-0.5631 4.07109 -2.96038
3.28633 6.24246 2.68295
-0.886389 6.97621 2.2863
0.493462 3.39331 2.54991
-0.43597 4.04685 -0.757658
2.01436 3.28037 1.06131
2.98235 6.84441 -1.14239
-0.626896 5.78198 -0.119665
-0.460256 7.62736 2.36841
3.86973 5.48248 0.869663
-0.622654 4.47296 -0.173802
-0.605417 4.29943 -0.345977
2.63314 8.46443 0.131779
-1.07737 3.17125 -2.48669
2.37375 6.86824 -1.60617
-0.322987 8.43852 2.3979
2.22002 9.00381 -1.9124
-0.400499 8.75903 -0.679213
1.66004 5.35822 -2.08647
2.15906 4.44294 0.883118
-1.89366 5.58563 1.8627
-0.532965 9.15704 -0.493378
-0.498526 9.89046 -0.352378
-0.959687 2.63447 1.83211
3.32435 7.33699 -0.35504
-0.54383 5.77641 2.31411
2.76445 6.58808 -1.32181
-0.406447 3.7251 -0.761869
-0.53592 3.54202 -0.486621
0.361117 7.46648 2.47322
1.45464 5.89178 2.71686
-0.509272 9.1423 -0.103502
-2.29153 6.46525 1.3727
0.55018 4.35308 2.54046
-0.367554 4.39308 -2.98346
2.64491 9.16208 0.202411
-1.08521 8.12457 2.22424
2.57221 7.5255 -1.58315
0.75315 3.64181 -2.53022
1.5418 3.72694 2.39693
-0.55237 7.26931 -0.395831
-1.42216 6.34633 -2.02248
-0.555435 8.13735 -0.155053
3.5789 7.06489 -0.0760041
2.95014 5.06754 -0.0875024
-1.10933 4.33031 2.18062
3.4874 8.77593 -0.81988
2.10241 9.0894 -2.00688
2.25113 3.81816 0.322889
-1.23009 4.16044 2.11753
2.28627 4.782 -1.39783
1.00027 3.93802 -2.46268
1.8655 9.05706 2.66605
-2.23062 2.89331 1.55985
0.628395 8.99881 -2.83604
0.612488 6.50413 2.56639
-1.90171 6.27489 1.89111
4.05094 7.01269 0.540621
0.337928 3.06246 2.43733
0.203671 8.11513 -2.9683
-0.463701 9.99219 -0.0982977
-0.485744 10.0504 -0.386459
-0.479965 8.90971 -0.104565
-0.426814 7.77802 -0.728488
1.83837 9.18782 -2.23863
-1.86058 7.376 1.92819
-0.44297 8.99729 -0.654769
-0.844181 5.18072 2.27118
-0.0340234 4.09855 -2.89509
-0.539009 6.37849 -0.464436
-0.592949 6.03044 -0.334571
4.01482 6.07646 0.187464
-0.174557 7.06458 2.44475
1.5976 7.84731 -2.27835
0.309698 7.94704 -2.91444
1.49421 8.51961 -2.42054
-0.479356 8.51605 -0.0847724
-2.25369 6.46482 1.76119
2.74909 5.64294 -1.21408
2.18116 4.5822 0.84154
1.95868 5.94964 -1.87559
3.36152 7.04497 2.72172
-0.513309 9.33348 -0.546145
-2.16474 7.45032 1.84109
-0.481967 8.41446 2.35958
3.68285 5.63481 1.55145
0.57927 6.59642 -2.78977
-0.341492 3.38303 2.31346
3.94806 5.79121 0.347286
0.0736674 9.52434 2.43478
-0.236716 6.23108 -3.02949
3.9983 5.99993 0.343932
0.51121 4.7657 -2.68127
-0.481293 6.18109 -0.666286
-1.01186 7.90618 2.26006
0.396483 7.95547 -2.88004
1.85619 6.64209 -1.99828
-0.602325 6.36644 -0.231399
2.56486 4.767 -1.29719
0.0333802 9.33263 2.43636
-0.481043 4.18665 -0.710266
-0.882041 3.26235 -2.67832
3.14537 3.73354 -0.688805
1.46796 8.26688 -2.40571
3.54825 5.35333 1.90393
3.22907 8.82728 -0.109358
2.2164 7.22172 -1.79987
2.14067 9.33076 -1.99469
-0.541338 5.52514 -0.553978
-0.446584 10.1164 -0.073139
-0.289084 7.99561 -3.10634
-0.384034 9.09125 -0.762281
-0.176921 8.05226 -3.09083
-1.3828 5.41025 2.09752
3.19779 6.15197 -0.861214
0.649004 7.22688 2.56931
-0.56247 3.94001 -0.427993
-0.62555 3.79651 -0.166059
-0.0467481 9.08494 2.41895
0.736815 6.28179 2.59435
2.92058 2.8255 -0.753396
-0.52667 8.0254 -0.517097
-0.293349 6.78628 2.39698
1.78524 7.53788 -2.2203
-1.2633 9.17288 2.16917
-0.198365 5.06641 2.36646
-0.454158 9.61645 -0.0986419
-2.44056 3.35373 1.47692
-1.94596 6.34429 0.129532
1.77621 2.71027 1.49439
2.61305 8.48681 0.395307
-0.546982 8.14597 -0.419747
1.74921 2.63515 1.51716
-2.40928 3.75286 1.56387
-0.943027 3.2196 2.15556
2.00957 8.47204 2.36361
-0.463374 8.17152 2.36649
2.17963 2.76949 0.244118
-0.631577 5.11816 -0.108864
3.5797 4.99027 1.70138
-0.515191 9.57021 -0.235765
1.29385 7.64992 2.65711
2.46858 9.16314 1.03861
-0.544497 3.22553 -0.423338
1.97665 2.79544 1.09172
2.88067 3.49395 -0.949756
0.765543 8.06743 -2.75089
1.58407 5.97474 -2.18682
-0.580222 6.18205 -0.366968
-0.533034 8.73405 -0.356795
1.49014 2.8643 2.26475
-0.405654 9.78456 -0.67806
1.21282 3.45415 2.71008
2.29582 5.12888 -1.43802
-0.453982 5.85423 -0.731384
-0.589978 3.30294 -0.284718
1.90796 3.63856 -1.80222
0.984173 6.50045 -2.55722
1.00895 8.29745 -2.6619
2.60106 8.58504 0.387979
0.116046 3.40569 2.46475
1.2135 5.96527 2.68872
1.64293 3.07597 -1.89116
0.821661 8.00029 -2.73046
2.57973 7.05896 -1.5048
3.81193 5.83776 1.12936
1.23801 8.66338 -2.5727
-0.440088 5.34123 -0.737494
3.74386 7.58454 1.89911
0.0871577 5.62777 -2.8838
1.79772 2.90621 1.49694
2.49756 7.88276 -1.62429
-0.529678 7.58043 -0.450085
-0.529452 4.93306 -2.99034
2.36548 7.9712 -1.72787
-0.596688 3.70244 -0.260752
2.04622 4.8599 -1.70419
-0.336462 9.81795 -0.758785
1.29103 3.12779 2.64112
-0.565478 4.99638 -0.382486
-0.5877 5.23829 -0.3359
-0.575268 7.29864 -0.296368
0.149597 6.15872 2.47582
1.9049 3.07828 -1.70821
3.41553 8.8279 -0.444023
2.78839 7.34111 -1.32668
-0.485561 8.79769 -0.539922
-0.516848 6.17638 -0.594758
-0.391693 8.98029 -0.719311
-0.0139147 3.89154 2.40754
2.96449 6.45861 -1.11245
0.378645 4.31288 2.4775
-1.07072 3.71649 2.17683
-0.541669 8.28512 -0.164216
3.43283 5.15693 2.2148
3.12604 4.46362 -0.825179
-0.0677281 4.38043 2.39187
-0.307254 8.78508 -0.803366
3.5348 9.06124 -0.697535
-0.480856 8.85018 -0.103633
2.81132 8.92591 -1.4237
0.357716 3.95662 -2.72004
1.67841 2.55946 1.63614
-2.38215 3.15195 1.59399
-0.337457 5.82434 2.33741
-1.86643 9.01027 1.97445
2.15231 9.07178 1.93162
-1.15824 9.59685 2.19577
1.89191 8.20709 2.50031
1.51804 4.41825 -2.18637
0.748334 9.17526 2.5526
-0.623671 5.66331 -0.129182
3.38006 7.01555 -0.750252
-0.616283 5.40787 -0.220417
-0.333179 7.2175 -3.05799
0.917167 5.14866 -2.51703
-0.030745 6.34213 2.46289
1.37286 8.50055 -2.48823
-1.99107 6.65871 -0.515692
0.821479 8.24006 -2.73605
-0.589531 4.64398 -0.277556
1.80576 7.30879 -2.15702
-0.379353 9.02434 -0.748195
1.76896 9.21838 -2.2821
0.37881 7.58889 -2.86066
-1.58223 6.28799 -1.88431
-0.472138 8.89375 -0.0854427
3.82247 5.2105 1.01326
0.175375 3.57595 2.47796
0.855379 6.61232 -2.66122
3.20902 6.17719 2.87774
0.528636 6.802 2.54124
1.75541 5.61378 2.38311
1.15214 7.78623 -2.58904
-2.25164 7.24915 1.50241
2.49548 8.70059 0.87735
2.12351 3.41752 0.835237
2.00884 8.32361 2.25081
0.14995 8.41138 2.45898
-0.608444 4.84708 -0.232274
-1.89309 3.83115 1.83014
-0.46499 3.36308 -2.96131
1.77898 3.84733 1.74451
0.426089 6.72467 -2.82824
-1.90687 5.207 1.87259
1.13863 8.7653 2.65963
1.65586 8.56298 -2.31969
-0.430119 9.09233 -0.711028
1.57697 8.50272 -2.37009
-0.534059 9.05809 -0.438276
4.03345 6.03032 0.241506
-0.405499 8.33103 2.3726
-1.29847 8.7685 2.16644
-0.483622 8.66108 -0.545403
-0.593405 6.50806 -0.242336
-0.544689 9.18789 -0.443136
1.15062 8.62219 -2.61033
-0.533363 5.86473 -0.603033
0.304392 7.25546 -2.87314
1.40313 8.98816 -2.46952
1.47306 8.63171 2.68956
-0.585357 4.00555 -0.328629
0.20875 6.39829 -2.90205
-2.41092 2.91523 1.32046
2.26181 4.1322 0.311233
1.7119 3.37837 1.82156
2.16284 4.26926 0.84714
-0.553171 4.9945 -0.484264
3.07633 4.8533 -0.31701
2.1766 4.26289 0.746736
1.55487 6.76762 2.6909
-0.163564 3.55481 -2.90347
-0.512554 5.68363 -0.632949
1.08479 5.08576 -2.43975
1.39093 4.98252 2.69933
2.98961 3.56099 -0.306814
0.62661 7.83005 2.5399
-0.452874 8.7433 -0.600702
-0.612624 5.99101 -0.130601
-0.567127 5.07885 2.27505
2.18576 2.74808 0.166846
-0.907903 6.73581 -2.66481
0.907621 6.55932 2.60361
0.425582 8.82892 2.50828
0.725212 4.70075 2.59765
1.40046 3.98825 -2.23188
0.339506 6.03994 2.47445
-1.50655 5.78537 2.0384
-0.607079 5.98389 -0.0828212
-1.76213 8.18749 2.0042
0.861571 5.97184 2.59171
1.2675 4.87011 -2.33342
-0.626011 4.11824 -0.177026
-0.590782 5.1899 -0.324289
3.28967 8.80746 -0.23526
1.25298 6.10327 2.67558
3.49244 6.8776 2.49512
-2.00201 6.64971 -0.416946
-0.389447 9.62438 -0.690176
-1.37914 3.64579 2.0337
2.87547 8.25891 -1.32434
2.66134 9.1961 0.133325
2.78414 5.9752 -1.23264
0.452502 4.25528 -2.69792
3.93895 4.7674 0.243939
-0.604277 9.71873 2.30972
3.83093 7.19354 1.59742
-0.408609 7.99279 2.36263
2.11127 9.46179 2.21985
1.58816 8.82142 2.69327
-0.47652 10.1315 -0.142861
-0.54997 4.9431 -0.460579
-1.20119 9.10798 2.19077
-1.7583 2.687 -1.24693
1.40054 7.39316 -2.35959
-0.60323 3.91672 -0.240455
-0.470281 9.35038 -0.0398069
1.36706 2.98339 2.54016
1.33856 2.89418 -2.07743
-1.83714 2.7492 1.6273
-0.506656 7.83004 -0.541104
1.47867 3.27211 2.44248
-0.481938 3.6332 -0.65949
0.103332 6.9178 2.4644
-2.25795 7.07724 1.21153
-0.412248 3.9977 -0.781997
-0.587692 5.14934 -0.329667
-0.619833 2.69937 2.02356
0.0398179 8.17306 2.43664
-1.97518 4.57464 1.82715
-1.30414 8.3999 2.12914
-0.618289 5.77427 -0.207635
-0.471206 9.58886 -0.125328
1.99586 8.07839 2.22105
-0.546026 6.0075 2.33081
1.07855 3.40444 -2.35597
-0.163238 6.4391 -3.01127
-0.456672 3.63544 -0.707817
1.75407 3.76458 1.79418
2.09574 8.83003 2.07522
1.24979 4.07617 -2.35457
3.16754 5.09937 -0.416227
-1.0109 5.6631 2.20955
-0.55917 8.13185 -0.360997
2.59975 8.72252 0.321625
0.556913 8.28986 2.539
1.02447 4.25111 -2.45254
3.77195 4.76701 1.11715
3.25197 6.40459 2.92192
0.789622 8.1917 2.56815
2.59433 9.11072 0.621206
-1.53771 9.32575 2.08673
-0.499706 8.93905 -0.152869
-0.534189 4.00336 -0.63833
-0.445991 9.38766 -0.64302
-0.910441 6.522 -2.67871
-1.23722 5.80708 2.15069
-0.558701 3.27306 -0.37013
2.24152 7.16867 2.71
1.55081 9.22141 2.68904
1.39851 6.14217 2.68899
2.54945 8.70725 0.590204
2.03945 3.12853 1.03375
-0.493333 10.0108 -0.172517
-0.70603 3.58773 2.22636
3.17466 5.75852 2.85432
-0.0773469 9.22387 2.42423
-0.533986 3.31866 -0.450707
1.01264 7.50636 -2.62787
-0.622526 4.58559 -0.141228
-2.31034 6.15261 1.44463
-0.43438 9.78654 -0.0667705
0.56072 5.09881 2.5265
0.0796224 2.74921 2.21629
2.61579 8.86865 0.187548
-1.55807 2.88617 1.86471
-2.17287 8.17073 1.82826
-0.920315 5.6208 2.22178
0.653671 9.59429 2.52784
-0.72176 6.60821 2.34204
2.98451 5.38569 -0.967259
-2.29412 5.26043 1.66793
-0.480801 5.68128 -0.688121
1.8634 4.27492 1.72606
-1.28269 5.9863 2.13871
1.81952 2.69513 1.41875
1.14963 8.43991 -2.60367
-1.11164 6.59611 -2.46868
-0.612006 6.29669 -0.103122
-0.526534 4.0498 -0.660401
-0.571747 7.17719 -0.360908
-0.614479 3.63905 -0.205307
0.945151 5.54949 2.62898
2.16563 8.93802 -1.95437
0.558585 9.61519 2.51852
-0.458533 3.71732 -0.703572
1.10029 9.38021 -2.64192
-1.6732 3.08502 1.84946
-0.57826 4.82189 -0.308164
3.4984 8.58219 -0.775283
0.348982 6.74029 -2.8468
-1.39732 7.92173 2.10517
-0.624374 4.62096 -0.100573
0.788739 8.84593 2.55512
-0.74436 3.51275 2.21316
2.36713 3.61383 -1.32884
1.77677 8.50591 2.6939
1.62675 3.44063 0.364605
-2.22819 2.91547 0.392302
-0.531796 7.44687 -0.446376
1.85092 4.34068 -1.90648
1.89387 4.11079 1.4406
-0.276545 9.27883 2.41172
3.3173 7.50513 -0.433417
-0.195066 6.86391 -3.0664
-2.43587 2.76173 1.03623
1.91431 2.51087 1.12451
-0.603018 6.44478 -0.225441
2.14124 6.37936 -1.81764
3.9599 7.67643 1.22256
-0.380653 4.00063 -0.816446
1.72376 6.65134 2.55631
-0.515717 6.12862 -0.618805
3.65977 5.4186 1.63042
3.82228 7.64146 1.56582
-2.02509 7.57482 1.88911
2.20049 3.85684 0.599622
-2.24672 2.86446 0.448826
2.0853 3.1974 0.291255
0.26843 9.50765 -2.97042
1.25856 7.75165 -2.51942
1.61234 3.56421 2.15855
2.00324 3.71582 1.18391
-0.623113 5.38074 -0.192581
2.67803 3.52529 -1.04094
0.24967 6.54185 2.47128
2.07456 7.1948 -1.94118
-0.991363 8.27255 2.26055
-0.626687 8.17887 2.3525
1.42853 5.50385 -2.25312
-0.0822699 5.1207 2.42707
0.171901 4.96259 2.47459
1.42608 4.31771 -2.25002
-0.573098 7.44511 -0.240482
-2.20552 7.38857 1.80959
3.88709 5.46493 0.765277
3.63108 5.76888 1.71984
-0.217474 8.93752 -3.07842
-2.0781 6.67136 0.129062
-0.00920892 3.80576 -2.87709
2.10154 8.60541 2.03318
-0.603462 6.34629 -0.22401
0.248087 3.02844 -2.68321
-0.385591 4.59557 -2.98858
2.1275 8.90119 1.98993
0.379925 6.24654 2.49319
1.24194 6.38582 -2.42493
1.11475 4.79845 -2.42174
1.84172 4.61318 1.50045
1.5131 4.94161 2.64444
-2.1196 9.07283 1.88309
-0.726585 6.05633 -2.97065
2.17085 2.87983 0.572971
0.962886 5.05446 -2.48893
-0.427347 7.37628 2.38862
2.04222 4.08501 1.15123
4.12935 7.38562 0.308016
2.36388 8.59198 1.41381
-0.541574 3.70347 -2.9946
-0.496651 3.20287 -0.602937
1.28882 3.39743 -2.2254
-0.490232 9.02118 -0.567938
1.8617 2.97151 1.32253
2.49732 9.20201 -1.70957
0.0444562 8.91643 -3.04662
2.33366 8.12797 -1.75319
0.583088 5.61286 2.56076
0.506029 7.51799 2.51164
-0.608287 6.41555 -0.209551
2.58582 9.15017 -1.63613
-0.885491 7.67279 2.30553
1.514 8.75985 -2.42192
-0.718733 3.20695 2.2361
1.63926 3.20702 2.01069
-2.109 4.09186 1.75283
-1.84549 2.5325 1.56434
-1.04146 5.84739 -2.61566
-0.445152 9.59855 -0.607486
1.78075 2.83625 1.52475
-0.519347 8.92478 -0.218909
2.911 4.50709 -0.961799
-0.941297 5.35812 2.23243
3.04072 4.40632 -0.881621
-0.586537 3.1778 -0.307656
-0.416536 9.04209 2.37894
3.36495 6.85918 2.68706
2.19232 4.5373 -1.49234
2.40054 7.02733 -1.60395
-0.444717 9.58677 -0.0785834
-0.535689 8.54001 -0.365336
1.62926 5.73318 2.59038
3.29331 7.60145 -0.397633
-0.368452 4.41684 -0.842733
0.95127 4.62741 -2.47974
1.46693 5.02138 2.6757
-0.35921 10.0444 -0.720872
2.10743 9.19352 2.16694
-1.61764 2.73909 1.7152
1.83374 3.68255 1.63864
-0.615602 6.53508 -3.0123
-0.517802 9.6234 -0.263817
2.04567 9.29084 -2.07753
0.152089 2.99438 -2.72426
-0.596272 5.59546 -0.278196
3.20289 5.40444 -0.450425
-1.80502 6.715 -1.13904
-0.418971 8.04905 -0.742422
0.469655 8.26671 2.52129
3.19251 8.66289 -1.06329
-0.488606 5.70783 -3.02022
-1.03283 7.63074 2.24426
-0.00605481 8.39401 -3.05469
-0.580477 3.88134 -0.305962
-1.36589 3.55169 2.0488
1.83737 9.38913 2.69223
-2.18575 6.95753 0.810901
0.191627 9.49594 -3.00735
3.44646 9.35104 -0.435847
-2.05094 6.57868 1.86228
-1.28438 9.09179 2.15614
-0.835286 2.96064 2.15048
2.04936 2.59501 0.719829
0.890996 9.09724 -2.74423
-0.329374 8.5592 -0.777419
-0.362627 4.34002 2.31923
-0.111363 6.34468 2.45548
-1.66134 6.94297 2.05561
2.3313 9.01466 1.56433
0.737044 3.83847 2.59062
1.99588 3.04937 1.09081
1.19274 6.18236 2.65154
-0.611953 3.76973 -0.210082
0.954132 8.08683 2.58393
1.48685 6.24271 2.68164
0.607566 5.49969 -2.6739
2.53994 8.26228 -1.62405
-0.516399 5.09949 -0.612025
-2.22697 6.65117 0.915678
0.948852 7.6801 -2.67519
1.69496 7.44033 2.69943
2.18229 4.12611 0.660457
0.34969 4.08806 2.47097
0.72316 3.24876 2.61117
-2.337 3.54746 1.63129
2.44307 9.09038 1.24593
0.944465 5.92539 2.60441
-0.533115 3.90074 -0.538837
-0.568148 5.06534 -0.392331
0.316074 9.43381 2.49552
-0.546868 7.58656 -0.384634
-0.583492 6.42422 -0.29697
3.95254 6.16702 0.754112
-0.504747 9.73063 -0.220217
1.07219 8.34407 -2.63587
-0.758165 3.17533 -2.83445
1.84852 2.673 -1.55936
-0.0156931 9.5123 2.41943
0.184045 7.77534 2.4655
-0.614552 5.92466 -0.232789
-0.540443 8.18426 -0.450591
-1.33311 9.6751 2.15152
-0.480257 9.72611 -0.515339
3.0416 7.2732 -1.10958
2.0324 9.31922 2.44768
-0.511467 6.3127 -0.539679
1.72526 4.08569 2.02836
3.05277 4.53214 -0.305642
-0.593432 6.41682 -0.26312
-0.593023 6.09953 -0.0828284
2.9727 8.90989 -1.29355
0.0473429 3.37699 -2.83369
-0.295734 8.09815 -0.847912
-0.315768 2.99198 -2.90462
-1.57791 4.16657 1.98381
-0.482945 10.1367 -0.165439
-1.79992 6.09428 1.94454
1.0333 8.8725 -2.66328
-0.36071 8.05772 2.37336
-1.19308 9.19925 2.19858
1.48691 7.37539 -2.31164
0.153982 3.40246 -2.79855
-1.44077 3.7384 1.99893
-0.581838 7.2823 -0.278624
3.18016 5.81084 2.87979
3.44368 6.08729 -0.277098
0.907975 2.9405 -2.34201
0.239249 4.37374 -2.81724
-0.568536 7.85315 -0.301085
-0.601169 9.3982 2.35003
0.0489724 9.333 -3.05951
1.31107 8.72048 -2.52514
-0.951185 4.38738 2.26726
-0.564175 7.42724 -0.297714
2.03554 9.39691 2.44116
-0.384801 4.95309 -0.797256
4.01822 6.76646 0.788964
-0.516437 8.58385 -0.214274
-1.0725 6.36209 -2.48433
-1.13074 9.1605 2.22077
-0.55446 9.23036 -0.370712
-0.378922 3.89295 -2.94861
-0.462156 5.05568 -2.99974
-0.20218 6.38868 2.44518
-0.311226 7.88321 2.38122
1.97832 3.3444 -1.72438
-0.388882 9.57566 -0.687313
3.52545 9.0861 -0.788194
-0.590769 8.6404 2.33913
0.57762 6.95872 2.54877
-2.07356 8.67917 1.91125
1.20853 4.20179 -2.37574
2.28424 8.82683 1.64275
0.513515 8.88358 -2.85657
1.80227 4.28276 -1.94983
2.62728 9.57019 0.558413
-0.580687 5.83922 -0.377298
3.75487 6.61826 -0.100784
-1.3776 3.0057 -2.03557
-0.610309 4.20536 -0.290687
0.452933 4.5334 2.50618
-1.39353 9.53708 2.12822
0.583082 2.79227 -2.46862
4.02126 7.86505 0.941632
-0.52658 9.34721 -0.503946
-0.609157 4.16735 -0.277059
1.88793 3.45716 1.33152
1.58669 6.27221 2.64485
-0.493915 7.64876 -0.588101
-0.983327 2.86625 2.05475
2.88343 8.16088 -1.29353
-1.88755 7.74825 1.94196
0.193505 3.92456 -2.81072
1.54067 4.40832 2.56916
0.330695 6.62048 -2.85356
2.4925 9.51507 1.14536
-0.322199 8.9491 -0.796351
-0.900704 5.97981 -2.68202
-1.28018 4.10337 2.07554
0.1293 7.22727 -2.94632
-0.885148 7.59131 2.29961
0.174514 3.79443 2.46432
1.7403 3.90478 -1.95681
-2.29345 6.11498 1.34
1.70397 6.71365 2.60043
-1.3534 7.4954 2.13331
-0.610754 3.51357 -0.270775
-0.626263 4.5294 -0.0539
-2.28913 2.75132 1.35551
-1.04444 2.83936 2.01136
0.931376 2.75271 2.48092
2.78918 7.76415 -1.33531
-0.0807541 9.30748 2.42362
0.0770235 4.84112 2.46955
1.98184 9.43749 2.5832
-0.554445 7.36401 -0.365976
3.33722 7.71912 -0.878338
-1.79971 3.31804 1.86425
-0.424993 5.44225 -0.752004
-2.13619 7.81441 1.85173
-0.507486 4.98323 -0.611209
0.0161446 5.5684 -2.91626
1.60226 5.08561 2.6065
-0.450012 5.67712 -0.729943
-0.568298 7.9333 -0.209825
1.40799 7.99285 2.67978
-2.27504 6.95771 1.71761
2.2471 4.45139 0.482883
-0.508989 8.42465 -0.131898
-1.63739 9.12415 2.06024
2.23459 8.90851 1.79225
1.94635 7.86718 2.33177
0.857953 6.49119 -2.64257
1.33958 2.76765 2.50362
-0.559584 5.07474 -0.462949
3.43828 7.9344 -0.708731
0.80855 5.77529 -2.61643
-0.515488 8.39008 -0.129194
-0.037242 9.37061 2.42333
2.92548 3.52002 -0.21967
3.13733 9.40304 -1.1763
2.40069 9.35444 1.37642
3.94765 7.8376 1.27045
0.816268 9.27529 -2.7604
-0.923847 9.60854 2.2543
-0.484112 9.17809 -0.0462446
-0.549974 9.2482 -0.191295
-0.581519 6.30823 -3.02334
1.40062 8.89189 2.68803
-0.237132 8.11353 2.38405
-2.0492 2.67385 1.45115
-0.0244542 5.82335 2.43146
-1.09597 2.68347 -2.41015
0.598205 8.01401 -2.80385
-0.610919 3.09333 -2.94699
-1.03553 3.11426 -2.5099
2.21329 4.64849 0.78065
0.348382 7.86144 -2.88934
0.251705 3.03611 2.42924
-0.0444097 8.77093 -3.05632
0.274513 9.64931 2.46175
-1.48034 4.75012 2.02928
1.53662 8.98386 -2.39806
-0.335181 9.65763 -0.75446
-1.53685 8.342 2.08403
-0.36449 5.35658 -0.809846
0.539923 4.18188 2.5471
-0.615795 7.93795 2.32841
2.69722 8.32889 -1.48601
-2.3145 3.08349 1.61613
-0.504899 5.04337 -0.625188
1.73599 8.82826 -2.26271
-0.0846235 7.4476 2.44251
2.92433 4.76983 -0.0837224
-0.61532 3.61213 -0.206888
2.78747 7.43684 -1.32203
1.17829 3.30191 -2.28294
0.937376 9.19 2.58677
-2.0534 3.83369 1.74925
1.25826 5.47942 2.68832
-2.20685 8.57891 1.67446
1.77476 6.97552 -2.11
-0.735851 6.92809 -2.90696
1.74465 4.46347 2.00537
-0.631357 5.19792 -0.172761
4.08408 6.84902 0.374073
-0.520494 3.43626 -0.512131
3.87111 5.24844 0.813359
-0.37714 4.2257 -0.822206
3.38452 7.01607 -0.547876
-0.430274 7.90202 -0.7304
2.06287 8.39505 2.10697
-0.506495 4.1699 -0.682764
-0.506707 7.41249 -0.525198
2.86493 3.42457 -0.169652
3.25419 7.08658 -0.930688
2.49846 4.4471 -1.27401
2.69976 4.77418 -1.2325
1.51952 4.4947 -2.18171
0.570845 8.89047 2.51168
-1.58546 4.03864 1.94218
1.22289 4.32363 2.66554
2.96244 8.39963 -1.25922
1.81046 6.22484 -2.02658
3.08458 8.15174 -1.11701
-1.02517 6.56684 2.25391
-0.460805 5.78087 2.31566
-0.988594 6.64714 2.26915
1.46326 4.96284 -2.22248
0.907113 3.5333 -2.49273
-0.414681 8.238 -0.738607
0.868 9.40017 2.57465
1.08951 3.97969 -2.43382
-0.384885 2.62618 -0.360703
0.205098 4.27355 2.46005
3.32936 7.4637 -0.854203
1.65274 6.7684 2.65278
-0.862141 3.33876 -2.70453
-0.625459 5.72432 -0.149358
2.54175 3.39798 -1.18426
-1.85361 6.59601 -1.08229
-0.38544 2.91354 2.20194
-1.96596 3.29214 1.79445
-1.23705 7.01515 2.1631
0.551999 2.98251 2.45102
-0.602929 2.94897 2.20862
3.87831 7.40376 1.3581
-0.742258 7.20116 2.32396
-0.477563 7.50443 -0.630105
-0.355185 5.5185 -0.810432
1.85206 7.93537 -2.15035
-0.574919 5.733 -0.369675
-0.541841 8.40962 -0.320871
-1.88282 4.23352 1.86388
-0.477067 9.06376 -3.09864
1.32686 3.58653 -2.23873
0.925865 9.42063 -2.70954
1.84601 9.44695 -2.22548
-1.73858 8.47685 2.0141
3.83727 7.79454 1.57774
-2.24391 6.0144 1.77792
3.01784 4.868 -0.893954
-1.51601 8.14318 2.09814
2.76164 9.20113 -1.50007
2.0854 2.87641 0.880195
-0.484303 8.58273 -0.534913
-0.298005 8.69691 -0.809962
3.13657 5.26451 -0.838002
-2.42484 2.86839 0.957406
2.99605 4.6439 -0.904021
0.0856409 8.69419 2.46477
-0.554219 4.46857 -0.52201
1.8775 2.76688 -1.59716
-0.510305 7.98467 -0.603592
-0.600091 4.67549 -2.97696
1.528 3.67584 -2.09215
2.12819 3.2646 0.846769
0.608094 4.62153 -2.64324
0.368578 4.49795 2.48431
1.8181 8.90842 2.67939
-0.459794 3.98589 2.28636
1.34359 6.82538 -2.38636
2.46496 5.43505 -1.4238
-0.607865 4.81748 -0.0681475
-1.04058 4.48167 2.23472
-0.898816 3.08045 2.15274
-1.49613 5.44915 2.04957
2.68107 6.96176 -1.41823
-0.572007 5.61153 -0.379759
-0.48975 9.59536 -0.484056
3.99135 6.86569 0.87409
2.22824 4.2415 0.536278
0.822945 3.03866 2.57601
-2.124 6.88264 0.468015
1.78212 4.3747 -1.96713
-0.175263 9.00159 2.4163
2.08857 5.2412 -1.7115
0.782301 2.93884 2.53425
1.98914 4.20393 -1.76169
-0.672583 6.42498 2.31355
0.00179891 2.82979 2.2599
3.93314 7.16705 1.16549
4.0432 6.82562 0.58158
3.41893 5.76702 -0.130948
3.84129 6.43644 1.43233
-2.27897 3.08376 0.568664
-0.339104 8.40544 -0.795062
0.0321277 6.946 2.46191
2.15549 8.57911 1.84504
1.25718 6.63826 -2.42857
0.304518 6.33786 -2.86756
-1.51915 7.67168 2.12085
-0.626548 4.37616 -0.191629
4.08356 7.16638 0.545303
-0.572386 5.19262 -0.394619
2.05873 8.7122 2.18128
2.05004 8.58979 2.23449
3.91409 7.22216 1.23437
-0.479749 9.70644 -0.15018
2.17919 9.12198 1.87383
1.8071 7.43586 -2.19971
3.45652 8.60709 -0.545357
-0.555264 9.15007 -0.255275
3.50721 8.70708 -0.744853
3.45448 9.24101 -0.469733
-0.611632 5.87451 -0.248752
2.59371 4.99979 -1.28112
3.36168 7.1869 -0.427363
1.90161 3.12083 1.23732
3.03607 8.65568 -1.21789
0.302409 8.25536 2.48166
1.69089 7.7563 2.70462
2.33309 4.34411 -1.33887
-0.487991 4.65543 2.28755
-0.537483 8.99105 -0.380759
1.7322 4.67456 -2.01137
2.17006 3.63061 0.624247
-0.425584 6.15317 2.35193
1.33447 6.07703 -2.35124
1.78919 3.37934 1.63115
3.18953 5.48849 -0.392686
1.1295 9.50007 2.61675
2.83725 7.03695 -1.27204
0.997102 2.86926 -2.27959
1.77564 2.97308 1.54482
-1.58355 6.50906 -1.7246
3.73165 5.87058 1.37415
0.47995 7.38535 -2.82481
-0.0778811 4.65985 -2.89489
1.74055 4.01389 2.00569
-1.25069 3.4198 2.08495
-0.249326 7.41004 2.41184
-2.34573 5.02086 1.62428
-1.008 8.19958 2.25629
0.210287 6.45165 2.47651
-0.454587 5.09442 -0.713935
-1.98439 3.04019 1.73192
0.298877 5.54669 -2.83898
0.0837368 2.65153 2.0982
1.18727 5.63565 -2.4084
3.4281 6.96606 -0.329657
-0.293384 8.32782 -0.846938
3.48693 8.41221 -0.812979
0.66779 9.36166 2.54512
2.17595 4.74775 0.900313
-0.27031 3.23895 2.33509
1.42198 3.19962 2.58676
2.19848 8.02767 -1.84586
-0.36053 9.15268 -0.792846
2.0315 3.52172 1.02602
0.886312 8.93391 -2.74186
-0.516276 8.62464 -0.471411
-0.32869 10.0626 -0.75186
1.93793 4.71201 1.46779
3.2393 6.59279 -0.906117
3.4132 9.05843 -0.940196
-0.214875 9.70769 2.38359
-0.492457 9.10195 -0.0795631
0.56492 7.08729 2.54134
1.28826 8.42236 -2.53256
3.18413 4.41076 -0.723393
1.73218 6.91639 2.63681
-2.22529 8.23103 1.71407
-0.491029 6.09463 -0.672519
1.43655 4.90268 2.68625
-0.543201 4.28286 -0.619338
-2.34208 5.40299 1.59773
1.91156 8.38336 2.54716
-0.604441 6.14519 -0.206404
2.23497 4.14651 -1.51053
3.77729 7.21557 1.71766
0.48735 5.02654 -2.73996
-0.51697 6.22702 -3.0418
-1.54367 7.86751 2.11055
2.21168 6.15517 -1.72406
2.22564 3.68636 0.372086
0.209584 8.74067 2.47642
2.26108 9.27626 -1.88772
1.46924 3.99208 2.63023
1.45494 5.40843 2.70104
0.833851 7.8787 -2.73037
-0.494456 7.43429 -0.561392
-0.0431807 2.68841 -2.61114
2.29548 4.59074 0.30452
-0.713805 7.58542 2.33367
-0.597965 4.91468 -0.259346
-0.590418 4.51314 2.26766
-0.583693 3.46483 -0.373934
1.86612 6.38854 -1.97427
-1.63427 3.77092 1.90428
-1.50828 4.98621 2.03298
2.04744 9.52102 -2.0789
1.22649 4.43362 -2.37285
0.476346 3.00868 -2.59982
-1.10713 2.80935 1.96527
2.5056 8.04215 -1.64233
-0.206187 8.50209 2.41648
2.03441 6.66101 2.72082
-1.91902 6.71586 -0.747747
-0.511569 8.72325 -0.201274
0.796663 5.24296 2.60673
-2.19824 6.51756 1.80532
-0.564566 7.50844 -0.270525
-0.930515 9.51362 2.25321
1.97975 2.7872 -1.53023
2.22198 9.53923 1.81919
3.22665 5.52105 2.59029
0.556235 8.79521 2.51774
0.787233 7.61707 -2.73581
3.28036 5.68528 -0.653005
-0.595452 4.35554 -0.378098
2.24402 4.01407 -1.44769
-0.0423963 8.94669 -3.0558
2.62485 3.49371 -1.09473
-0.439149 9.94873 -0.0589793
2.97278 4.62234 -0.148517
-0.567046 7.64458 -0.282141
1.00834 3.83628 -2.45548
-0.473989 8.69854 -0.0781023
2.42187 2.80608 -1.13767
1.46632 6.03577 -2.26619
-0.372633 8.68127 -0.716973
-0.778625 2.79759 2.08063
1.66729 5.40442 2.51779
0.883867 8.55266 -2.71383
0.797039 2.86549 2.50651
2.46833 9.33003 1.09721
-0.604565 6.0972 -0.150995
1.73718 7.37536 -2.22595
-0.519243 9.11774 -0.524892
0.302273 4.25833 -2.7743
-0.398315 2.61637 -0.489371
1.14703 8.12963 2.63852
2.01313 6.87636 -1.9127
-0.431479 10.1172 -0.574781
-0.491768 9.55347 -0.161928
-0.621579 5.68213 2.30494
-2.03174 3.5933 1.7505
-0.172269 7.44655 2.42099
-0.0743594 4.85228 -2.91198
2.02894 6.4616 2.71922
-2.1897 9.09378 1.6589
-0.538132 8.60301 -0.319331
-1.25686 8.57168 2.16355
-1.34538 6.72116 -2.09409
-0.501628 10.0366 -0.272642
-1.95585 5.30105 1.85186
-0.474095 9.87522 -0.143011
-0.881392 6.62175 -2.70345
0.0797386 6.29988 2.47013
0.337147 6.90258 -2.86191
2.32737 8.54206 1.50951
1.04212 6.72377 2.62367
-2.00517 7.07575 1.88061
1.67844 4.53076 -2.05747
-0.306818 5.12145 -3.00574
-0.529714 4.85697 -0.490109
-0.558433 5.45128 -0.471011
-0.34784 4.20419 -2.96211
-0.548038 3.39579 -0.436101
-2.44196 2.96824 1.03825
-2.44284 2.84999 1.16786
-1.3719 7.1055 2.11949
-0.607013 5.70364 -0.243207
-0.887223 7.17453 2.29126
-1.23504 3.09354 2.11801
-0.60841 4.7938 -0.234016
-2.43899 3.38273 1.11094
1.96506 3.30969 1.13399
3.85887 4.7141 0.760136
3.54314 5.65727 2.1024
3.9303 5.50664 0.441978
-0.455827 9.24779 -0.681008
-0.655746 5.19815 -2.95673
-0.363684 8.73286 -0.730872
-0.502236 9.10111 -0.101334
3.90161 5.62937 0.688109
1.5771 7.23009 -2.26976
-2.19828 3.07988 0.414667
2.7255 9.1026 -1.52397
0.81862 3.92788 -2.52239
3.51187 8.80139 -0.627371
-2.26859 4.85209 1.71718
2.17253 4.76208 -1.58057
-1.04359 4.89852 2.22413
0.538533 5.42983 -2.7222
1.88099 5.33562 -1.87045
1.39718 3.89932 -2.20643
-0.601978 3.1735 -0.254222
1.27345 5.5735 2.68116
-0.298561 4.75368 -1.00579
2.62572 5.8553 -1.32806
-2.08508 6.99858 0.475179
-0.621969 5.51019 -0.182062
-0.471109 3.46735 -0.669846
-0.937045 8.50798 2.28126
1.10418 3.29235 -2.33145
3.4343 9.16221 -0.945677
0.455251 7.89964 2.48237
2.38274 9.52836 1.52396
2.12135 8.78622 1.9782
0.920208 7.32307 -2.68202
1.85934 4.33771 1.74898
-0.986679 6.74246 -2.57153
1.934 2.9257 1.17733
-1.82932 6.66315 -1.10428
-0.825249 5.52546 2.23956
1.21575 4.00345 -2.37631
-1.49112 2.82664 -1.86235
1.09613 4.33875 2.6705
0.0630214 7.63924 2.47255
-0.537449 5.69496 -0.578114
0.267464 4.66113 2.46962
-0.490755 9.64843 -0.473952
2.53809 5.75976 -1.34306
4.04412 7.90123 0.852326
2.35906 7.10579 -1.65023
-0.604932 3.96344 -0.236912
-0.563696 8.05818 -0.168274
-0.528014 8.75149 -0.289062
-0.568871 6.11683 -0.44048
3.12912 4.82725 -0.413963
-0.44433 4.75134 -0.728917
-2.34321 2.91961 0.752687
2.10743 3.5383 -1.61612
-0.539938 8.99641 -0.336539
2.1329 2.58236 0.325712
0.220181 8.38047 2.46591
2.88806 4.98987 -1.00549
3.26695 9.00721 -1.06107
2.95793 5.0131 -0.941137
-0.625307 4.53491 -0.124121
-0.720484 6.03369 2.33227
2.75529 9.38799 -1.51933
-0.884585 2.79641 2.05348
1.957 8.04446 -2.05887
1.96817 4.6329 1.41406
-0.539315 7.87206 -0.42658
3.23578 8.23221 -0.196096
0.655596 5.11677 -2.64383
1.94508 3.59715 1.25321
-0.48054 7.87548 2.34431
3.97154 6.98424 0.978307
2.39372 9.10697 1.39395
2.11475 4.15475 1.00204
2.61248 9.36301 0.612647
-2.34767 4.95151 1.63221
3.22884 5.3978 -0.748849
-0.467797 8.24914 -0.654276
-0.597863 6.44033 -0.24389
-2.05782 9.46257 1.86493
-0.531207 8.85156 -0.31908
1.19923 4.28276 -2.38036
-0.723486 4.59332 2.25006
1.68197 6.0256 -2.11984
-0.769077 3.28764 2.22035
-0.619636 4.65364 -0.170376
-2.27422 6.28261 1.09727
1.60511 3.7162 -2.05231
2.44586 3.03741 -1.21633
3.68653 5.10985 1.48674
3.35862 6.06887 -0.412356
1.12501 5.96045 2.65879
-1.01 7.29207 2.25822
-0.624751 5.79836 -0.172127
-2.36876 3.89835 1.62523
1.57943 5.8772 -2.17155
-1.52712 6.31003 -1.94168
1.41231 3.41706 -2.14423
-0.528424 7.53083 -0.453254
-2.20097 6.32103 1.78828
0.21484 2.78434 2.29288
-2.31593 5.7045 1.34728
-0.566437 5.65918 -0.432206
3.79772 6.0769 1.3171
-0.481326 7.85624 -0.643411
-2.21758 3.49991 1.67093
3.18496 5.89076 -0.863674
-0.0577128 7.3108 -3.03218
-0.506406 9.19892 -0.589347
-0.557989 4.61894 -0.377715
3.02134 5.17596 -0.128382
-2.41244 3.69116 1.23741
0.833435 6.69465 2.58781
0.187778 3.09644 2.44124
-0.562506 7.944 -0.333849
4.07536 7.21118 0.629885
2.46144 5.60758 -1.45066
-1.22465 6.67647 -2.38082
-0.543435 5.78618 -0.564975
-0.476983 9.91914 -0.142791
-0.566771 7.01338 2.33611
-2.40559 3.50194 1.57368
0.100164 3.6228 -2.83343
-2.08165 6.83578 1.85748
1.50346 6.65157 -2.29742
-0.55094 2.71801 2.07204
-0.947206 6.99796 -2.61516
-1.74029 5.96048 1.97698
1.89919 7.83833 2.47493
-0.397292 2.61876 -0.45591
0.10826 8.56772 2.46159
1.75609 3.20376 1.57431
-1.11706 4.72588 2.1965
-2.15109 9.13746 1.82768
-2.22953 6.98564 1.07084
3.64017 5.70745 1.6517
0.776715 8.36612 2.56108
-0.481935 8.55399 -0.101115
-2.33478 4.84252 1.66111
-0.413303 5.92384 2.33416
3.62953 5.30277 1.69636
0.0128621 7.59379 -2.99248
3.16054 3.95242 -0.716257
-1.73335 2.66448 -1.32241
0.922521 5.25298 -2.52869
-0.534163 5.64966 -0.58473
0.588935 3.23962 -2.59455
-1.53636 9.62033 2.10099
3.51365 8.88209 -0.623583
-0.370423 9.32529 -0.766414
1.6656 2.96632 -1.83969
-1.2847 6.18526 2.12975
-0.691932 2.99092 2.2064
-0.856043 7.41165 -2.75708
1.65295 7.871 2.70006
-0.568834 7.06171 -3.02468
-1.26902 3.95282 2.08453
1.90497 4.26658 1.43241
2.02947 3.35642 0.258774
1.49486 5.71947 -2.21208
1.85774 7.55075 -2.16022
-2.03088 7.27358 1.87748
1.28253 6.7203 -2.42361
-0.522561 8.55758 -0.435499
-0.59095 5.98721 -0.358534
-2.33188 5.44179 1.47861
-0.393023 5.62615 -0.782682
-0.134305 8.21838 2.39419
1.47417 8.04469 2.67607
0.361353 3.14685 2.46119
-0.562474 8.03532 -0.350022
3.06793 8.9057 -1.20846
2.58768 8.6025 0.469419
-1.3604 3.74197 2.0284
-0.631566 4.11624 2.25113
3.12972 5.38226 -0.0945603
1.38837 4.13222 -2.26566
-0.514372 8.93135 2.34474
0.498563 9.24103 -2.87474
1.21294 3.82171 -2.35267
1.03514 4.04469 -2.45511
2.75367 5.797 -1.24812
-2.11155 2.86871 -0.117628
-0.342143 6.07173 2.36836
-0.493199 8.69767 -0.136368
-2.17459 8.043 1.49388
-1.39599 3.11008 2.04758
2.83552 4.64727 -1.06738
0.00105276 4.81086 -2.87994
0.611771 8.91016 -2.83398
1.89162 3.84107 1.5126
-0.465156 4.10173 -2.95137
-0.829027 3.50913 2.19079
2.21128 5.15385 -1.5435
0.00396404 9.18752 2.43018
-0.571054 5.33949 -0.400021
-0.624321 5.88311 -0.144396
-0.871557 7.40696 2.29784
0.980465 4.05558 2.66257
2.17959 5.60929 -1.65075
-0.523707 4.3842 2.28356
1.95629 9.17506 2.58558
-0.513068 9.40807 -0.501681
2.30813 6.88364 -1.67614
1.35073 7.45174 -2.39558
0.803071 8.50308 -2.74558
4.03636 7.50405 0.841766
3.5621 4.90505 1.71851
0.622835 3.68432 2.5579
-0.137348 7.25843 2.44445
4.00748 6.93697 0.78965
-0.823472 7.2361 2.31151
-0.602152 6.03726 -0.09598
-0.620018 5.25929 -0.219875
3.19747 5.0043 -0.708818
2.22637 4.90527 -1.53727
-0.572932 7.69237 -0.246466
3.92981 5.20217 0.387404
3.09563 4.62869 -0.84324
-1.04735 5.85988 2.20994
-0.247252 8.97268 2.406
-0.59751 3.58338 -0.328967
2.97697 2.85906 -0.379652
1.81276 4.05606 1.70365
2.85989 3.67618 -0.102018
3.0066 8.80124 -1.25659
-0.605281 5.98588 -0.276433
1.50189 8.91946 -2.4199
4.00971 7.27185 0.838508
-0.444572 4.12797 -0.746912
-1.16772 4.44428 2.15543
-1.22801 6.42304 2.17125
1.8871 9.52688 -2.20068
0.640083 7.02286 2.55387
0.260538 2.67472 -2.49014
-1.61717 6.29475 2.04316
1.49413 9.48689 2.68159
0.768134 2.84119 -2.38532
-1.19432 5.70423 2.15674
2.17099 2.87128 0.385932
1.81569 4.07228 -1.92528
-1.58286 2.75325 -1.6628
-1.50586 4.08286 1.98523
0.63225 6.3119 -2.74809
-0.916764 5.94198 2.27175
2.08239 2.6847 0.727078
1.21504 7.96455 -2.54392
-0.505482 8.36443 -0.538568
-1.41959 6.48916 -2.02697
-0.00945636 7.60186 2.46898
-0.753449 4.80355 2.23984
-0.55312 6.21086 -0.472707
2.01304 5.18835 -1.77313
1.82812 4.50584 1.48371
-0.50119 8.59085 -0.165657
1.00915 9.33781 -2.67353
-0.539453 8.0357 -0.458569
0.832601 6.06444 -2.61899
-2.08984 6.69673 0.28621
-0.626758 4.20948 2.25361
2.24412 3.704 0.138186
-0.467714 6.81158 -3.04389
1.63781 3.52 2.0988
2.19516 4.6937 -1.53396
0.887331 5.81922 -2.58585
-1.95455 6.69453 -0.660182
1.81459 6.91474 -2.0712
3.03165 3.09566 -0.518145
-0.347181 4.22242 -0.855127
1.68287 7.0251 2.65495
-0.500812 8.74504 -0.50464
-1.10013 5.68978 2.18845
-2.07805 6.54759 0.18289
-1.12394 6.87258 2.20267
1.74743 5.32951 2.22582
-2.23971 7.94502 1.73087
1.38042 2.80837 -2.01181
-2.05353 6.97855 1.8709
1.65952 2.84302 -1.81421
-1.21086 3.90086 2.12329
0.789816 2.68069 -2.28813
-0.5812 6.93086 -3.01772
-0.582111 5.93742 -0.409612
3.20374 5.39933 2.6101
2.50985 5.28479 -1.33698
-0.487961 8.74703 -0.118393
1.00128 6.33326 -2.55157
2.21917 9.07213 1.80542
0.731403 9.64316 2.52967
-1.90922 4.15229 1.84133
4.12296 7.81419 0.406505
-0.436307 4.85975 -0.73692
1.66279 4.07934 2.13959
-0.452717 9.50577 -0.0718252
-0.0611679 5.74374 2.42013
-0.419724 9.90993 -0.638575
0.331645 9.58564 2.47706
-0.438216 7.8108 -0.713015
-0.397973 2.62023 -0.439736
-2.4353 4.56528 1.52344
-0.487941 9.51538 -0.144968
1.16513 7.4914 2.63414
-0.479851 8.96663 -0.0985411
-0.374971 8.79424 -0.717017
1.68526 8.61675 2.70255
-0.503199 3.8471 -0.62361
-0.217883 5.34057 -3.00053
-2.25495 2.8007 0.483325
-0.588507 6.19935 -0.31395
2.48867 6.1396 -1.43661
-1.28198 3.33277 2.08529
-2.19945 7.84524 1.80587
-1.11612 4.50691 2.18672
-1.91563 2.65093 -0.737741
2.01768 2.53027 0.769622
3.90695 7.32943 1.24281
-0.634487 7.05656 2.3246
-0.323029 9.15455 -0.826669
-0.197457 5.81029 -3.0267
-1.82321 9.56171 2.00238
-0.520392 3.39451 -0.503104
-2.25874 7.72955 1.70628
-0.518872 5.25888 -0.610371
2.30865 8.44376 -1.79033
-0.624506 4.07664 -0.174829
1.37373 5.73055 -2.28856
-0.641984 3.013 -2.93029
0.0865115 6.05667 -2.89827
-1.86652 2.98634 1.74814
0.400307 6.66743 2.49812
1.54043 5.00583 -2.16911
1.33084 7.98995 2.67541
-2.07189 3.09896 1.69627
-1.676 7.16059 2.04901
-0.0466198 6.83001 -3.01461
0.272975 4.50212 2.47092
-0.511801 8.86136 -0.47394
-0.520372 8.79742 -0.246269
0.188463 5.94333 2.47179
-0.498855 9.6389 -0.431428
-0.465321 3.90388 -0.716144
0.665119 7.70846 2.55479
-1.47544 7.57846 2.12497
-0.397554 2.61823 -0.463298
-0.508665 5.59002 -0.633251
3.06485 4.20977 -0.382421
1.2088 7.42593 -2.50547
-0.856602 4.64873 2.26665
-2.43134 3.46236 1.06499
-0.459367 9.84857 -0.110108
-1.84273 6.02417 1.91694
1.40571 7.87187 2.68502
1.91245 7.79706 -2.09239
3.08624 6.90706 -1.04453
-1.90018 9.57287 1.96737
3.64869 4.78392 1.5052
3.18103 4.07964 -0.555845
2.10713 9.47698 -2.03032
2.02898 4.72714 -1.69441
0.0920565 8.09486 -3.01545
2.14502 9.18369 -1.97047
-0.872342 4.41451 2.27555
3.8936 6.03478 0.926116
-0.221791 2.98481 -2.88274
-0.505202 9.38521 -0.124079
-0.592955 3.44866 -0.335779
-1.17023 6.08961 2.17918
2.73666 6.02983 -1.30672
2.2981 6.15606 -1.65621
4.04754 7.58369 0.794117
2.50514 6.38978 -1.43275
-0.533662 9.01916 -0.251781
2.25924 3.87471 0.27067
-1.86501 5.4683 1.87383
1.29513 7.92564 -2.50124
2.11069 3.45067 -1.62354
3.57264 5.15812 1.80313
-0.494505 8.77911 -0.139883
-2.33886 5.23562 1.59818
-0.449238 6.17654 -0.713595
-1.50386 3.02471 1.9535
1.70405 6.46232 2.54464
2.2836 4.65561 0.519445
2.07409 7.4007 -1.95555
1.91033 9.22126 2.65086
2.91169 4.90134 -0.976152
0.119544 4.43767 2.46264
-1.64378 3.96122 1.90974
2.38126 3.11539 -1.33256
2.62554 9.55578 0.387799
-1.24036 6.21605 -2.34393
3.8131 6.70404 1.58367
-0.147337 4.60747 2.36454
-0.452882 9.90073 -0.5464
-0.598289 6.11184 -0.276699
0.170035 6.75858 2.47087
-0.205844 9.0374 -3.07637
-2.22441 7.34185 1.19963
-1.26656 6.89154 2.14499
4.02065 7.64029 0.925287
1.24069 8.03552 2.66349
1.06538 9.10002 -2.64847
-0.827814 6.05999 2.31961
-0.86302 8.36585 2.29357
-1.55584 6.19454 2.03897
1.89371 6.94643 -2.01085
0.33775 7.80427 2.46676
-0.409538 5.89674 -0.772546
2.25117 7.63585 -1.78527
0.817778 5.43187 -2.58584
-0.677226 7.12833 2.3233
3.79154 7.55888 1.69671
-0.516473 9.6597 -0.263067
0.252951 9.08275 2.48567
-1.83786 8.21493 1.9688
-1.4389 5.11844 2.08376
0.93278 7.22332 -2.67071
-0.51651 7.56455 -0.493175
-0.511808 7.31339 -3.05674
2.11686 6.63653 -1.83179
1.39734 5.27866 -2.26829
-1.37774 6.62406 -2.06012
3.34642 7.34478 -0.842258
1.42367 3.82772 -2.16611
0.19962 6.21944 -2.87509
-0.585925 6.15465 -0.340153
-2.18781 6.83904 0.807189
2.14292 7.36293 -1.88099
-0.399404 6.57379 2.37225
-1.44109 5.83883 2.06806
-2.0191 6.71107 -0.173269
2.83722 2.98017 -0.121559
-0.608812 6.03069 -0.138048
0.0469738 4.41219 2.452
-2.16024 8.68871 1.84069
4.09949 6.79012 0.197229
-0.405042 9.65907 -0.673993
0.67282 9.31408 -2.81666
3.59645 5.56328 1.7696
1.92432 5.57014 -1.88079
-0.603607 3.72626 -0.23606
-0.65129 8.36447 2.32027
-0.503811 9.78634 -0.350843
-1.98257 4.66584 1.82048
0.774769 5.47159 2.59653
-0.999995 6.10909 -2.54446
3.50638 7.00116 2.50391
-0.572248 7.71717 -0.168737
-2.25586 6.10372 0.954497
1.67737 6.60531 2.60716
-2.01264 7.8968 1.90029
3.84402 5.14016 0.919913
-0.199902 4.08047 -2.92282
1.8348 4.67445 -1.91699
3.88184 5.16707 0.750502
-1.66887 6.52527 -1.55546
0.846516 3.11688 -2.48302
-1.1174 5.06519 2.19927
-0.466015 10.1091 -0.46705
-1.92545 6.09212 1.87056
-2.25043 4.76522 1.72797
-2.21695 3.18781 1.65248
-1.85173 7.02996 1.94768
1.13094 8.66471 2.65013
1.87843 8.09648 2.54092
3.41788 5.95668 2.36552
1.77582 5.25082 -1.97495
1.01378 2.64818 -2.10917
1.668 3.21484 1.9018
-2.31159 5.91072 1.1903
0.885173 4.0127 2.63868
1.56907 4.08003 2.52735
1.11806 5.12687 2.6728
1.63906 3.4843 0.382013
-1.15886 6.66021 -2.43176
0.000226784 7.40235 -3.0021
-0.507702 6.36682 -0.536421
0.750767 7.4944 2.59185
-1.09542 9.22839 2.23156
-0.472134 7.79794 -0.652112
1.27716 4.37262 -2.3422
-0.219486 4.59609 2.34298
-0.627789 4.45713 -0.14725
-2.29996 5.94544 1.27419
-0.583902 5.25057 -2.97871
-0.32991 4.95481 -0.878307
-0.36737 3.45567 2.30486
-0.847372 6.75127 2.31238
2.83434 5.80443 -1.15866
-2.24925 3.87238 1.69494
0.659929 2.90437 2.47273
-2.06618 9.57382 1.8592
-0.49101 5.87479 -0.685232
0.282713 4.33884 2.46232
0.281457 3.22246 2.46713
3.78746 6.99667 1.66233
2.44238 3.58897 -1.2631
2.57772 8.0805 -1.59049
-1.87393 2.68959 -0.90561
-0.295252 5.23455 -3.01637
2.61503 7.23611 -1.50476
-1.60299 6.69994 2.05786
1.12825 9.42078 2.61906
0.328736 7.26339 2.46364
-0.626677 3.40692 -0.207004
1.69596 2.98838 1.79608
-1.16939 4.15197 2.16162
1.7488 5.42191 2.26533
-0.508916 9.75851 -0.309312
3.40391 4.99463 2.0958
3.23692 6.90955 2.90205
-0.801888 9.61646 2.30202
0.698935 7.48975 -2.76085
-0.343854 8.78515 -0.758987
3.78662 6.76335 1.6589
-0.531244 8.98003 -0.420548
-0.638198 3.47382 -0.166013
-2.22323 2.76947 0.33977
-0.628866 4.05712 -0.152513
-2.04381 6.70215 -0.0595201
0.15023 3.55073 -2.80363
-0.599294 4.39322 -0.324934
-0.551428 5.56631 -0.525334
1.37245 7.06048 -2.37873
-0.940026 7.86686 2.28862
-0.377943 8.18535 -0.774787
-1.30373 4.89052 2.13694
2.13557 8.63037 1.90673
2.12023 4.22592 0.989702
-0.0461069 7.75895 2.45221
-0.630121 4.28718 -0.185534
0.880772 8.07553 -2.70889
-0.585462 6.52382 -0.261508
2.57142 2.76691 -0.995611
-1.94082 6.75737 1.90542
-0.571086 7.36637 -0.287713
1.70851 2.62175 1.58607
-0.355703 9.94839 -0.734149
2.51348 8.90442 0.863932
1.67615 3.97324 2.11124
-2.15054 6.57954 0.479397
-0.442714 4.64386 -0.717604
-0.467898 4.87379 -0.678991
-0.36224 5.04158 -3.00624
-0.273297 8.58342 2.41571
2.15221 7.74966 -1.89423
3.60114 7.14637 2.12794
0.0187012 2.75958 -2.67316
1.76342 7.15252 -2.1349
-2.05497 6.4472 0.255326
-0.729708 8.43865 2.31265
-0.467271 9.51411 -0.101754
-0.593587 4.04709 -0.296944
-0.335963 7.38049 -3.06451
-0.120416 5.49667 2.41187
1.54094 5.58772 2.65492
-0.875236 6.58816 2.30503
0.379801 6.39999 -2.85322
3.22497 6.49211 -0.897957
-0.130164 5.32457 2.40529
-0.890927 8.20113 2.29542
-0.622951 5.65102 -0.162234
-0.0678241 7.10543 -3.02779
0.211531 4.29602 -2.82757
-0.244385 8.42698 2.40325
2.10967 7.28921 -1.91706
-0.451344 8.01834 -0.71191
-0.61228 4.72758 -0.0473298
3.36605 7.10533 2.73646
-1.92048 2.54015 1.49164
2.1066 2.73156 -1.35148
3.51096 9.18624 -0.601249
0.836221 9.38974 -2.7498
3.24341 6.97624 -0.926526
1.46037 7.84218 -2.35728
-0.0627139 7.09928 2.46217
-0.498621 4.12328 -0.693109
2.84934 4.4026 -0.062364
-0.166457 9.26901 2.42463
-2.12326 5.81144 1.82454
1.88334 6.31155 -1.95811
2.00415 6.27905 2.66684
0.380203 5.577 -2.81338
-0.0890518 7.93965 -3.07026
3.6964 7.65114 2.05278
0.643743 8.12845 2.56044
1.40632 8.73216 -2.47459
2.29998 4.37533 0.160301
-0.560155 3.66368 -0.402408
1.01122 3.29184 2.67989
2.9174 6.03211 -1.09336
2.90425 4.61886 -0.971602
-1.87008 3.39428 1.84181
-0.606064 6.33312 -0.210742
1.5308 3.97014 2.54727
-1.4882 4.17993 2.02338
-0.17108 6.31292 -3.01658
2.06044 3.29802 0.991415
-0.610058 3.79876 -0.217123
3.1466 5.52901 -0.887082
-0.621381 5.05599 -0.189078
1.18545 7.58048 -2.52365
0.474338 5.265 2.49122
-1.52971 6.00034 2.04306
0.121416 6.6653 2.46909
2.15427 2.85464 0.690014
-0.0594624 5.03601 -2.91948
1.70002 2.73868 1.64858
2.04369 4.51187 -1.68207
-0.453081 5.27256 -0.722745
0.968199 7.47081 2.60769
-0.515843 7.61329 -0.49935
-0.230265 8.32463 2.38865
1.93281 2.83265 -1.59284
-1.54457 8.64884 2.11297
-0.604708 4.7577 -0.243454
1.71902 6.36474 2.57536
1.14592 4.77178 2.71568
-0.639778 6.20678 2.33606
2.63814 9.29568 -1.59167
1.91763 4.38224 -1.84804
-0.439276 8.08535 -0.716955
1.87814 3.80758 -1.82506
-0.546551 7.44808 -0.388547
0.419252 6.19861 -2.82847
-2.32355 5.93436 1.68064
-0.47363 8.06741 -0.673266
-0.236245 3.55959 2.35165
-0.38681 8.25465 -0.768511
-1.09193 6.07515 2.21042
-0.592572 6.33897 -0.269192
-0.588358 4.56815 -0.287184
3.00259 4.56734 -0.214924
1.85791 8.42242 -2.16865
-0.187003 5.42285 2.37434
3.57745 7.30244 2.33721
3.35488 6.44163 -0.610989
-1.46408 3.61151 2.01627
2.47065 3.32886 -1.24329
-0.521534 3.72003 -0.496251
0.444413 5.90581 -2.8107
-2.31568 3.05028 0.648867
0.302031 5.65079 -2.84326
-0.583677 5.98623 -0.400968
-0.395802 8.69072 2.36985
1.09929 5.68059 -2.47635
0.0310724 3.01729 2.35878
-2.22229 3.76977 1.68437
0.038686 6.66702 2.47223
-0.372477 4.72448 -0.820527
2.86803 7.51581 -1.24713
-2.29464 6.33909 1.34706
-1.52923 3.12521 1.96169
0.34291 9.54769 -2.93386
0.286497 5.06414 2.46655
-0.628588 5.23578 -0.185314
-0.540759 4.63338 -0.43896
-1.00815 9.56049 2.22894
-0.511163 4.57995 -0.59873
1.847 8.69866 2.66433
0.319505 2.73804 2.28633
2.27947 7.13838 -1.72348
0.414541 4.40485 2.4958
-0.453888 2.78082 2.11538
1.50221 8.30198 2.6756
0.843747 5.41631 2.60357
2.12315 4.75682 1.09286
-0.286286 3.96064 2.34595
-0.433173 4.70777 -0.740833
-0.503185 9.02335 -0.137599
1.74874 6.33198 -2.07629
-0.546133 7.62589 -0.393676
-0.522104 7.76881 -0.48685
0.54142 3.49667 2.55079
-0.422381 4.66884 -0.74828
-0.582542 5.71906 -0.331005
-2.23309 5.52453 1.75841
-0.553705 8.2283 -0.377704
1.64901 4.6339 2.31776
-0.607208 3.36693 -0.253346
-0.586762 3.68776 -0.29795
3.02594 7.88292 -1.16874
-1.06844 2.72911 -2.45337
0.392586 9.51434 2.50308
-0.621937 5.82694 -0.192812
0.361303 4.99981 -2.81218
0.988263 6.59145 -2.55585
1.72804 7.48231 -2.25311
-0.573979 3.67284 -0.349876
3.91658 4.81971 0.495299
2.30133 8.79795 1.54668
-0.56441 3.40607 -0.398045
-0.178902 8.24919 -3.09861
-0.53272 8.88333 -0.362189
-0.47312 8.98678 -0.0794784
3.56355 5.43436 1.88962
-0.471089 9.75538 -0.136822
-0.365973 8.9902 2.37816
-0.621166 5.18047 -0.219451
1.71707 9.13246 -2.3094
0.11323 5.9077 2.46529
0.856745 3.43882 2.64017
3.37439 6.34813 -0.428724
-0.59082 4.81795 -0.27952
-0.521727 8.72953 -0.246985
-0.59655 4.26413 -0.395053
1.34441 7.22667 -2.4029
-0.609681 6.35218 -0.197208
2.14301 6.18377 -1.77703
-1.02598 8.6761 2.25174
1.78038 7.92671 -2.20794
