1.17427 2.96501 2.59514 0.0666529 -0.343965 0.936614
-2.08003 3.00192 1.65667 -0.357931 -0.391421 0.847747
-2.30184 6.37909 1.4156 -0.994306 0.0450485 -0.096568
0.0348622 3.13983 -2.80845 0.397028 -0.1606 -0.903646
-1.15684 7.62031 2.18567 -0.373099 -0.0290613 0.927336
-1.96009 5.15601 1.8408 -0.444893 -0.0285342 0.895129
-2.1487 6.94387 0.626301 -0.969514 0.129619 -0.207947
-1.45692 8.41322 2.09277 -0.211613 -0.0673295 0.975032
3.50296 9.16713 -0.860847 0.921114 -0.0509535 -0.385944
3.19928 5.99536 2.88403 0.97634 -0.100957 0.191229
-0.3015 4.40967 2.32997 -0.189805 0.0125462 0.981742
-0.945833 3.14322 2.14598 -0.181337 -0.155983 0.970972
1.05178 7.68235 -2.61954 0.462595 -0.113101 -0.879326
-1.30549 3.15979 2.10296 -0.355751 -0.128938 0.925644
2.49804 3.51869 -1.22932 0.638841 -0.0663242 -0.766474
-0.81241 7.63515 2.32042 -0.187889 -0.00748118 0.982162
-2.03491 9.09507 1.92224 -0.449701 0.131693 0.883417
2.73146 7.35717 -1.4039 0.752302 -0.0355537 -0.657859
-0.314527 9.45445 2.41411 -0.124288 0.0319881 0.99173
-0.903923 4.16221 2.23979 -0.0980898 -0.0558849 0.993607
3.8261 7.3875 1.55736 0.962033 0.0105093 0.272731
2.48543 8.94787 0.965191 0.972866 -0.0364923 0.228473
0.922311 4.54713 -2.48791 0.417993 -0.0471985 -0.907223
1.75227 3.37992 1.72511 0.92645 -0.17393 0.333824
1.65675 8.52175 2.70061 0.0581763 -0.0228788 0.998044
0.473408 7.67598 -2.84587 0.286575 -0.0417418 -0.957148
1.94763 8.8504 2.56911 0.825926 -0.0638186 0.560155
1.66319 5.73708 -2.10204 0.596042 -0.0258824 -0.802536
0.0274893 3.65235 -2.85455 0.29379 -0.0503427 -0.954543
-1.44029 6.05962 2.06859 -0.315146 0.00865632 0.949004
3.93352 4.98389 0.365543 0.994592 -0.00983737 0.103393
1.68693 5.77323 2.53284 0.704564 -0.0784987 0.705285
2.3077 2.92117 -1.31173 0.646477 -0.383175 -0.65973
2.89432 4.04885 -0.140233 0.841759 -0.0165949 0.539599
0.643815 6.31641 2.5748 -0.243132 -0.0254666 0.969659
0.953774 5.72861 -2.55665 0.411021 -0.0804143 -0.908072
2.00661 8.22942 2.21182 0.930277 -0.103491 0.351959
0.239056 3.49629 2.48331 -0.153621 -0.00901416 0.988089
-2.22655 6.32834 0.795546 -0.977563 0.0566214 -0.202893
2.80084 5.43766 -1.14997 0.6896 -0.0705283 -0.720748
2.84522 4.2028 -1.02352 0.656783 -0.0614196 -0.751574
3.77897 5.84563 1.21386 0.941449 -0.136844 0.308136
-0.772336 4.27344 2.24717 -0.00440873 -0.0722101 0.99738
0.496379 9.66926 2.50791 -0.143647 0.099414 0.984623
1.61498 5.41321 -2.13243 0.614558 -0.0525038 -0.787123
-0.326114 3.78944 2.31408 -0.271548 -0.0328628 0.961864
3.33861 9.00181 -0.994209 0.674899 -0.107536 -0.730033
2.05408 4.16191 -1.67275 0.744694 -0.0416104 -0.666108
0.425128 7.78318 -2.86004 0.318334 -0.0380636 -0.947214
2.09191 3.236 0.225961 0.920007 0.319206 0.227366
1.72807 5.90295 -2.06226 0.614872 -0.100458 -0.782202
-0.635578 4.12566 -2.95695 0.0341481 -0.0145257 -0.999311
2.28467 8.90978 1.6948 0.920478 -0.0916183 0.379902
1.11189 3.44199 2.70861 -0.105991 -0.0237341 0.994084
-0.536892 4.56741 2.28041 -0.201006 0.0207788 0.97937
2.67405 5.97393 -1.3456 0.558635 -0.133221 -0.818644
-1.3818 8.1375 2.10132 -0.200105 0.0062735 0.979754
2.21894 8.46288 1.72732 0.899426 0.0191978 0.43665
1.58219 7.74653 2.69895 -0.00403293 0.0113855 0.999927
0.576973 5.11377 -2.68379 0.486373 -0.0855124 -0.869557
-2.21004 7.59846 1.80946 -0.59525 0.015589 0.803389
-0.169122 6.97141 -3.05162 0.124178 0.00355284 -0.992254
-0.451541 9.66135 2.35296 -0.199035 0.181947 0.962954
3.68905 7.02222 1.94013 0.923915 0.0136994 0.382353
-0.540732 4.15998 -2.96458 0.0323831 -0.053875 -0.998022
-0.815102 2.67054 1.95301 -0.25454 -0.674552 0.692957
-2.17178 2.98068 0.248034 -0.964014 0.13942 -0.226361
2.32572 7.88123 -1.74968 0.607207 -0.0518293 -0.792851
1.97493 3.56288 1.18105 0.904829 -0.139418 0.402302
-0.58799 4.33609 -2.97454 -0.0648771 -0.0569118 -0.996269
-2.2393 7.26169 1.22936 -0.995337 0.0703101 -0.0660346
0.272017 4.14566 -2.78547 0.44639 -0.0686663 -0.8922
-1.17895 7.97362 2.1768 -0.431303 0.0306077 0.901688
2.36964 9.356 1.54451 0.944267 -0.0852222 0.317957
-0.157825 8.07162 2.39413 -0.176138 0.0504122 0.983074
1.9311 3.15608 1.18393 0.864155 -0.025898 0.502558
-1.7391 6.60012 -1.43476 -0.902333 0.0267206 -0.43021
-2.09174 3.92618 1.74795 -0.337731 -0.0873948 0.937176
1.74167 5.06537 -2.01636 0.656438 0.0110547 -0.754299
-0.177508 3.49008 2.37931 -0.338723 0.0473769 0.939693
3.86016 7.2361 1.47387 0.967336 0.0238925 0.252367
3.04387 8.41782 -1.18262 0.662331 -0.0779848 -0.745141
3.68019 5.73019 1.54246 0.959219 -0.103618 0.262986
2.00798 4.44008 -1.74093 0.756967 0.0452474 -0.651884
1.66362 2.76809 1.83926 0.95301 -0.105906 0.283825
2.10179 3.80474 0.918423 0.962157 -0.129747 0.239625
1.39861 9.33905 2.66564 -0.1641 0.0175977 0.986287
2.43526 8.76411 1.12602 0.965848 -0.0303598 0.257326
1.14766 4.04195 -2.41137 0.435843 -0.0185923 -0.899831
0.309933 5.26 2.46414 -0.0579808 0.00402722 0.99831
0.313805 2.88125 -2.61484 0.333117 -0.326142 -0.884683
-0.134925 5.00468 2.39888 -0.405532 -0.0197325 0.913868
4.04436 7.44117 0.774372 0.965184 -0.0443697 0.257782
-1.1852 3.01601 -2.38842 -0.661093 -0.104108 -0.743046
-0.417238 6.05007 2.34606 -0.197219 -0.0679715 0.978
2.51129 9.47139 1.02219 0.954334 -0.181206 0.237509
-0.400746 8.77391 2.35855 -0.221842 0.0462 0.973987
-0.526995 3.52155 2.26841 -0.213594 0.0247037 0.97661
-1.62724 6.10993 2.02795 -0.280147 -0.0485594 0.958728
2.35381 3.88042 -1.3294 0.530297 -0.0352428 -0.847079
-1.67812 4.62713 1.92455 -0.305901 -0.0375915 0.951321
3.50334 4.85014 1.84819 0.893946 -0.15512 0.420475
-1.99956 6.91268 1.89414 -0.353045 -0.010324 0.93555
-1.91648 6.00138 1.87046 -0.425218 -0.0362487 0.904365
-1.41384 4.87374 2.09019 -0.478843 -0.0828856 0.873979
-0.837713 3.64153 -2.74087 -0.741199 -0.0518795 -0.669277
-0.68208 2.90714 2.16961 -0.193972 -0.446922 0.87329
-0.471147 5.98333 2.33193 -0.113114 -0.0813346 0.990247
-1.63019 3.02375 1.86421 -0.511363 -0.244134 0.823958
-0.673265 4.67968 2.24997 -0.0623594 0.0476797 0.996914
-2.41147 2.80395 1.22753 -0.879171 -0.387514 0.277293
1.7649 7.85701 2.67885 0.447084 0.0209996 0.894246
-1.21823 3.25831 2.11845 -0.239962 0.0587776 0.969001
2.59485 3.9964 -1.20908 0.604773 -0.0367535 -0.795549
0.242639 8.31086 2.46844 -0.154019 0.0255597 0.987737
-2.2624 6.29295 0.983827 -0.986629 0.0487933 -0.155507
2.56354 4.29882 -1.19864 0.517259 -0.0150823 -0.855696
2.19114 4.84872 -1.57793 0.761323 -0.0979999 -0.640923
-1.27371 7.52259 2.14522 -0.244656 -0.00859446 0.969572
2.88182 7.27672 -1.24374 0.658482 -0.000569184 -0.752596
2.83519 2.87305 -0.137543 0.840524 -0.104205 0.531659
0.29832 8.42637 2.47422 -0.13506 -0.00101706 0.990837
0.995753 5.09946 2.64581 -0.219305 0.0454618 0.974597
1.79435 4.72696 -1.95858 0.684916 -0.0287561 -0.728054
2.72019 8.59381 -1.47402 0.599494 0.0198751 -0.800132
1.89822 6.53833 -1.95751 0.583481 -0.0667051 -0.809383
3.51431 8.86963 -0.772614 0.94668 -0.0700093 -0.314476
-1.51087 5.58243 2.03432 -0.401937 0.0121863 0.915586
0.738786 9.41884 -2.79556 0.356171 0.00581601 -0.934403
-1.92563 6.67539 -0.779936 -0.904437 0.332864 -0.266825
1.2443 5.69681 -2.38943 0.555532 -0.111066 -0.824044
2.21684 4.74032 0.804627 0.936245 -0.114806 0.332061
1.93264 3.51466 1.25266 0.910392 -0.13411 0.391408
0.459133 3.55417 -2.63748 0.360847 -0.00224341 -0.932622
-0.080309 6.26649 -2.98853 0.31863 -0.0399682 -0.947036
-0.405553 5.8441 2.32686 -0.142432 -0.110348 0.983634
3.98078 7.38403 1.02456 0.962546 -0.0620905 0.263913
1.0895 7.1074 2.64228 -0.175506 -0.00330681 0.984473
-0.232464 5.03975 -2.98287 0.224997 -0.0697171 -0.971862
-2.43281 3.34804 1.19696 -0.998778 -0.0402071 -0.0287275
-1.90189 2.7517 -0.881093 -0.909811 -0.270017 -0.315175
3.01732 6.93325 -1.11661 0.66562 -0.0472131 -0.744796
1.91041 2.78511 1.21878 0.908132 -0.0659954 0.41345
2.51256 4.00629 -1.26133 0.520537 -0.00219386 -0.853836
-1.40466 2.84194 1.8952 -0.297812 -0.508377 0.807998
-1.72839 2.75644 1.66601 -0.418125 -0.34668 0.839633
2.51108 9.17112 0.888814 0.951441 -0.062771 0.301365
-1.05083 3.59667 2.1726 -0.226427 -0.0851974 0.970295
1.51224 4.71448 -2.18074 0.586891 0.00449551 -0.809653
-0.879681 4.27835 2.2605 -0.0384486 -0.0952662 0.994709
2.05325 4.74176 1.34253 0.84209 -0.0940138 0.53108
0.242815 8.31991 -2.95396 0.325086 -0.0675172 -0.943271
1.65771 4.82726 2.33399 0.915512 -0.154897 0.371274
-0.560321 8.04711 2.3513 -0.118401 -0.0818819 0.989584
-1.63356 7.6645 2.07845 -0.436575 -0.0213008 0.899416
2.67457 9.18878 -1.56471 0.621034 -0.02904 -0.783245
-0.0526928 6.11993 -2.96484 0.36788 -0.0446328 -0.928801
2.42872 8.93174 1.24164 0.962715 -0.101589 0.250717
-1.62898 8.70723 2.07122 -0.449485 0.0177082 0.893112
2.20797 8.82092 1.8222 0.887453 -0.110555 0.447442
0.0232594 4.3294 2.44715 -0.270508 0.036346 0.962031
-0.978575 3.39046 2.15889 -0.21032 -0.0355817 0.976985
-0.0639335 7.35223 2.44073 -0.138397 0.0144891 0.990271
3.13766 5.07044 -0.82256 0.823016 -0.130859 -0.552739
3.51681 9.10393 -0.617699 0.98692 -0.0404268 0.156061
-2.29589 2.80372 0.650123 -0.95256 -0.0416225 -0.301492
-0.775894 6.52116 -2.87925 -0.738082 0.0899212 -0.668692
0.707559 7.58115 -2.76425 0.346858 -0.0451578 -0.93683
0.916654 8.72897 -2.70737 0.404788 -0.0772731 -0.91114
-2.4334 3.37069 1.35592 -0.99975 -0.0213282 0.00671209
-1.6969 8.91392 2.00988 -0.372447 -0.00832144 0.928016
-1.00018 5.76955 2.21608 -0.271096 -0.0972654 0.957625
0.74445 9.15479 -2.80354 0.351719 0.0321621 -0.935553
1.88106 4.61519 1.46735 0.770809 -0.224586 0.596166
3.59513 6.55051 -0.260577 0.663431 0.0180464 -0.74802
1.71374 4.59804 -2.02617 0.646863 0.00577313 -0.762584
0.719705 4.87464 2.59281 -0.239905 0.0162857 0.97066
-0.586348 7.2556 -3.03934 -0.3252 -0.0330252 -0.945068
0.773461 7.31212 -2.73299 0.341484 0.0153613 -0.939762
-2.15485 9.44689 1.66498 -0.838171 0.0802986 0.539464
3.69317 4.91657 1.39839 0.934948 -0.0930542 0.342365
4.11971 7.33786 0.417339 0.991053 -0.0523614 0.122773
0.389703 7.50688 -2.85116 0.304452 -0.0604634 -0.950607
1.22484 8.47379 -2.57175 0.439595 -0.0290018 -0.897728
1.13085 5.44427 2.66321 -0.218679 0.0455876 0.974731
-0.901222 6.81417 2.29149 -0.318716 0.0491337 0.946576
2.29701 4.66668 0.407755 0.974596 -0.173647 0.141452
0.528464 5.70236 2.54653 -0.304714 -0.0139243 0.952342
1.70163 3.03098 -1.82226 0.622216 -0.183174 -0.761114
-1.2487 2.94164 -2.29909 -0.823002 -0.175464 -0.54026
-1.09991 7.98341 2.21746 -0.41561 0.0240281 0.909226
-0.645557 4.0364 -2.95033 -0.168097 0.00649151 -0.985749
1.45707 4.17917 2.63549 0.372514 -0.000935508 0.928026
1.78747 2.73806 -1.65034 0.543009 -0.449691 -0.709168
-2.12727 6.67035 1.84111 -0.483917 -0.0102343 0.875054
3.77837 6.87486 1.6716 0.945517 -0.00357093 0.325553
1.89302 7.35495 2.53536 0.658297 0.0353155 0.751929
3.00562 4.16862 -0.305782 0.812102 -0.0637881 0.580019
3.2063 6.13296 2.8815 0.96666 -0.12242 0.224903
1.75487 3.04093 1.59917 0.951306 -0.00244763 0.308238
2.04035 6.57168 -1.87726 0.51291 -0.0316722 -0.857858
-0.307178 3.34338 -2.93505 0.19396 0.0183849 -0.980837
1.6781 4.60001 2.26964 0.935429 -0.0426726 0.350929
1.76264 4.68547 1.98164 0.935781 -0.144154 0.321765
0.250634 6.91449 -2.88984 0.327429 -0.0354715 -0.94421
2.87658 4.19909 -0.118686 0.837812 -0.0244426 0.545411
0.374607 3.54061 2.49971 -0.191713 0.0259509 0.981108
0.395912 7.54501 2.48288 -0.178396 -0.00166493 0.983957
-1.33883 7.23413 2.12536 -0.256697 -0.000379447 0.966492
-0.114404 3.1628 2.37082 -0.293204 -0.250767 0.922576
0.334456 8.91966 -2.92134 0.444111 0.0889611 -0.891545
2.85019 4.35285 -1.02602 0.642056 -0.0441444 -0.765385
-0.65073 2.84387 -2.87134 -0.203794 -0.419026 -0.884808
1.64653 5.56119 -2.12034 0.616905 -0.0398362 -0.786029
3.77225 7.4796 1.74543 0.962786 -0.0506843 0.265468
0.178502 6.60303 2.46755 -0.0363534 0.0141629 0.999239
1.66473 3.12003 1.88301 0.940912 -0.0746807 0.330314
2.31251 7.64669 -1.72502 0.623017 -0.0931183 -0.776646
-1.12493 9.66631 2.21053 -0.249938 -0.0218405 0.968016
1.7643 3.52323 1.76217 0.90095 -0.0932241 0.423791
-0.496022 5.79607 -3.01836 -0.203889 -0.0328096 -0.978444
-0.494846 7.14088 -3.04275 -0.136911 -0.0657076 -0.988402
-2.42575 4.33144 1.51787 -0.849212 -0.0462649 0.526021
-0.641648 5.81949 -2.97153 -0.450872 -0.0794259 -0.889048
-0.302213 7.50707 -3.07106 0.0474179 -0.0498042 -0.997633
-1.98457 8.23371 1.91828 -0.383231 -0.050865 0.922251
-1.17979 6.68981 2.17785 -0.379568 0.0355184 0.924482
-0.711085 5.33481 2.28627 -0.161678 0.0215539 0.986608
0.431368 9.53907 -2.89824 0.369516 -0.0478652 -0.927991
4.01654 7.0368 0.742742 0.979123 -0.0629627 0.193271
-0.0243022 8.51133 -3.05083 0.262816 0.00491466 -0.964833
1.61391 6.19227 2.62903 0.497649 0.00102279 0.867378
1.61195 5.13831 -2.11975 0.616856 -0.0132255 -0.786965
0.108473 4.34082 2.46473 -0.121466 0.00336028 0.99259
-0.813319 7.85354 2.31243 -0.173716 0.0290407 0.984368
2.03215 4.0143 1.16285 0.88817 -0.0366415 0.458052
2.24575 8.78664 -1.86814 0.65332 -0.0846711 -0.752332
2.94443 4.76509 -0.944313 0.689275 -0.0141149 -0.724363
-1.29773 7.96242 2.11899 -0.305076 0.0401767 0.95148
2.19345 2.79997 0.170192 0.981335 -0.117418 0.152295
0.310672 5.16979 2.4637 -0.0553259 0.0265711 0.998115
0.155548 5.98349 -2.87384 0.269027 -0.0100913 -0.96308
0.0664805 8.01115 2.45948 -0.17545 0.034522 0.983883
1.8014 3.42506 -1.81146 0.470378 -0.135723 -0.871965
-1.1394 3.10847 2.13215 -0.121293 -0.164446 0.9789
-0.775707 3.42906 -2.80515 -0.742888 -0.00213843 -0.669413
2.64595 8.20274 -1.52489 0.68599 -0.0617118 -0.724989
0.888167 3.53843 2.63193 -0.266234 0.0795435 0.960621
2.25777 4.00428 0.337447 0.990016 -0.0212424 0.139347
-1.92546 7.84462 1.92905 -0.355289 -0.0106694 0.934695
0.114506 7.3361 -2.97024 0.382406 -0.00145398 -0.923993
2.15907 3.16884 0.713883 0.980671 -0.0168267 0.194937
3.06436 7.19555 -1.07724 0.652495 -0.0350061 -0.756984
1.80055 2.56357 1.41321 0.885733 -0.144674 0.441074
-0.792534 3.68458 2.22107 -0.190894 -0.141909 0.971299
0.992388 5.98357 -2.53741 0.41811 -0.0489424 -0.907077
-0.576402 7.27365 2.35534 -0.176192 -0.0843618 0.980734
2.81501 2.67265 -0.195597 0.870081 -0.203243 0.449056
0.40872 6.09919 2.49313 -0.227252 0.00237053 0.973833
2.06269 8.03764 -1.96661 0.656777 -0.0179725 -0.753871
2.62361 7.35251 -1.51667 0.637755 -0.0886088 -0.765126
-0.345506 9.23882 -3.10913 -0.0209299 -0.0348756 -0.999172
4.04815 6.7527 0.613268 0.981801 0.00876862 0.189712
-2.42823 3.31483 1.27992 -0.999312 -0.0293496 -0.0226538
-1.76538 7.97673 2.00417 -0.455135 0.00158701 0.890421
-0.825219 7.03986 2.3004 -0.225444 0.0232016 0.97398
2.6491 6.7303 -1.44794 0.603599 -0.0665066 -0.79451
-1.11037 4.93535 2.20228 -0.326185 -0.0148823 0.945189
-1.33127 2.85628 1.92592 -0.268821 -0.569298 0.776939
-1.86826 7.20937 1.92331 -0.425137 0.0268888 0.90473
1.63144 2.70391 1.9337 0.938749 -0.100983 0.329473
1.77107 9.3883 -2.27069 0.494664 -0.00172831 -0.869082
-1.63437 9.38923 2.05381 -0.32924 -0.0322066 0.943697
1.63017 2.89318 -1.8571 0.60679 -0.261363 -0.750663
1.57035 4.36696 -2.14858 0.607729 -0.00863196 -0.794097
3.00383 8.32756 -1.20217 0.664013 -0.0973571 -0.741356
-0.33717 8.8208 -3.09881 0.0408537 0.0671021 -0.996909
-2.17691 8.79258 1.82853 -0.873837 -0.00776356 0.486157
0.394457 4.07859 -2.7135 0.41468 -0.0724494 -0.907078
-0.177971 3.95802 2.3828 -0.291315 -0.085227 0.952823
-0.0660584 8.18099 2.40699 -0.204918 0.0169191 0.978633
3.76663 7.35927 1.75374 0.954034 -0.0248954 0.298662
1.88529 2.5317 1.21088 0.918791 -0.14127 0.3686
0.760684 4.59117 2.60978 -0.23968 -0.0366916 0.970158
1.26387 2.93057 2.56726 0.277622 -0.301946 0.912006
-2.18442 6.40698 1.80237 -0.506676 -0.0540539 0.86044
1.3426 8.81318 2.69195 -0.0923764 0.0385506 0.994978
2.00728 4.69336 1.39456 0.773662 -0.123687 0.621408
0.324348 4.06402 -2.74666 0.446813 -0.0797577 -0.891065
-1.13649 3.04626 -2.42953 -0.647028 -0.0916326 -0.75694
1.88899 7.19442 -2.0691 0.547544 -0.204255 -0.811465
-0.230068 4.22711 2.35441 -0.28486 0.082166 0.955041
0.534459 5.89887 -2.76409 0.457206 -0.0993904 -0.88379
0.172023 7.3194 2.4646 -0.00869022 0.00126464 0.999961
2.7104 6.76074 -1.38748 0.687458 -0.0310923 -0.725558
1.74105 4.77925 2.12866 0.929687 -0.169965 0.326793
3.07294 5.58932 -0.944362 0.639092 -0.0736935 -0.765592
-0.490895 9.41108 -3.0655 -0.287048 0.0961123 -0.953082
1.73546 2.71198 1.56118 0.889449 -0.145998 0.433088
-2.19534 6.89258 0.880044 -0.98733 0.020619 -0.157336
0.918201 2.70737 -2.24908 0.430172 -0.473212 -0.76878
-0.360249 6.72326 -3.05951 -0.0395352 -0.0364807 -0.998552
-1.16316 9.4979 2.19201 -0.255792 0.0196022 0.966533
2.28796 4.60403 0.382713 0.97598 -0.164208 0.143174
1.79161 3.93522 1.73884 0.961761 -0.10263 0.253935
2.20176 4.0083 0.58843 0.962646 -0.0171852 0.270216
-0.767011 4.46477 2.25587 0.036236 -0.0277082 0.998959
0.473945 4.33955 -2.6805 0.37954 0.0224107 -0.924904
0.871173 3.86919 2.62382 -0.243404 -0.0555846 0.968331
1.11175 5.32687 2.66544 -0.231101 0.0415882 0.97204
2.20921 6.6637 -1.76605 0.641723 0.00512485 -0.766919
1.52927 2.72653 -1.84161 0.473318 -0.563922 -0.676729
-0.839078 6.97709 -2.76814 -0.804872 -0.0174874 -0.593191
3.0539 3.71552 -0.429585 0.884615 -0.0247201 0.465666
-0.335945 3.18306 2.30979 -0.216607 -0.156568 0.963622
1.91013 3.88927 -1.8148 0.632834 -0.0501858 -0.772659
1.57496 4.27094 -2.14216 0.597514 -0.0489917 -0.80036
-1.50085 3.51604 2.01315 -0.390893 0.0417921 0.919487
0.54181 2.88077 2.4096 -0.250686 -0.388444 0.886718
2.3494 7.38352 -1.67632 0.610043 -0.0191167 -0.792138
0.53766 3.09953 -2.59965 0.319598 -0.170039 -0.932172
1.57765 2.89742 -1.89877 0.595861 -0.284561 -0.750982
-1.51183 6.38751 2.07427 -0.246248 -0.106392 0.96335
-1.71128 8.83383 2.01086 -0.385878 0.021545 0.922298
-1.4942 5.90874 2.05199 -0.327794 -0.0413063 0.943846
-0.774527 9.08708 2.30556 -0.163974 -0.0110089 0.986403
-0.488275 6.47637 -3.03572 -0.113999 -0.0456089 -0.992433
-2.28897 6.02469 1.30861 -0.998797 0.0309629 -0.0380175
3.33881 5.82947 2.46556 0.855269 -0.111715 0.506
1.76755 4.07877 1.95372 0.929071 -0.0507573 0.366402
1.84617 7.33759 2.59455 0.525455 0.00106898 0.850821
-1.3372 8.87969 2.15157 -0.265762 0.0705953 0.96145
1.15908 5.22909 2.6856 -0.223075 0.0348453 0.974178
-1.34346 4.4296 2.10654 -0.31026 -0.00468227 0.95064
-1.67417 6.19974 2.02232 -0.356628 -0.0928283 0.929623
2.43975 7.20736 -1.60922 0.556669 -0.0934831 -0.825457
-0.598245 3.10845 2.26666 -0.195454 -0.174021 0.96515
1.90729 3.73403 -1.8011 0.584742 -0.0277104 -0.810746
3.81743 7.07642 1.60768 0.938726 -0.0435475 0.341903
3.1095 6.31642 -0.960284 0.671932 -0.100614 -0.733747
-2.29254 6.26187 1.21612 -0.993981 0.0637192 -0.089113
1.45808 5.61999 -2.2346 0.512935 -0.00336159 -0.858421
-1.09516 5.99097 2.20515 -0.354729 -0.0432229 0.933969
1.6841 7.1042 -2.18612 0.574682 -0.0983318 -0.812448
-0.399986 4.27498 2.30796 -0.243121 -0.0114701 0.969928
-2.00694 2.87239 1.60808 -0.350382 -0.486394 0.800408
1.48562 5.49593 2.68696 0.325399 0.0188236 0.945389
-1.99099 3.22452 1.77596 -0.455752 -0.105289 0.883858
3.10188 4.85788 -0.821374 0.766505 -0.0403802 -0.640968
-0.774418 7.1239 -2.86354 -0.746779 -0.023061 -0.664672
-1.6298 4.52205 1.92766 -0.410569 0.0214973 0.911576
1.47691 4.63781 -2.20802 0.586323 0.0216092 -0.809789
1.38614 2.62313 -1.80401 0.450664 -0.626519 -0.635906
2.73432 7.53264 -1.38864 0.773326 -0.000651879 -0.634009
1.57953 5.88292 2.64501 0.56601 -0.0239191 0.824051
1.5651 4.86388 -2.14121 0.587417 -0.0272472 -0.808825
3.16555 5.36014 -0.830158 0.844483 -0.141885 -0.516447
1.39566 8.14081 -2.44363 0.582449 -0.0783765 -0.80908
-1.41388 2.74895 -1.98663 -0.775188 -0.198532 -0.599724
1.41317 6.47549 2.68638 -0.00536201 -0.0866004 0.996229
1.03129 5.20536 2.64267 -0.222492 0.0474613 0.973778
1.66004 4.55447 2.31284 0.915593 -0.0443473 0.399652
0.241959 6.12396 -2.85991 0.223922 -0.0585406 -0.972847
-0.635746 8.02202 2.33934 -0.122661 -0.0765752 0.98949
-1.25127 3.73887 2.08207 -0.47297 -0.0137256 0.880972
3.24579 5.7256 2.61208 0.921547 -0.107725 0.373023
0.400723 5.64119 2.49036 -0.259649 -0.0496341 0.964427
0.535387 4.07134 2.54896 -0.338851 0.00203357 0.940838
0.481103 4.08432 -2.68103 0.402185 -0.0771852 -0.912299
-0.853441 3.57278 -2.7204 -0.736439 -0.046689 -0.674891
3.94515 5.27316 0.239554 0.992981 -0.0272422 0.11509
1.64374 2.54113 1.77789 0.950777 -0.129347 0.281589
1.06114 6.49764 2.62161 -0.163507 -0.0153691 0.986422
1.55265 2.7722 2.10773 0.897216 -0.0909807 0.432117
-1.29008 5.74833 2.13155 -0.337645 -0.0265224 0.9409
-0.399527 8.25842 -3.10916 -0.066408 -0.0238227 -0.997508
1.71838 4.93068 2.24838 0.919493 -0.120261 0.374258
2.10958 4.47062 1.04029 0.954765 -0.0941661 0.282058
2.41907 7.90392 -1.67871 0.568263 -0.0671538 -0.820102
1.0013 3.41235 -2.4112 0.535199 -0.135008 -0.833867
1.50116 5.81658 -2.21016 0.530603 -0.0585673 -0.845594
-1.69388 8.24423 2.0396 -0.3638 0.0289787 0.931026
2.10025 3.67741 -1.62482 0.795537 0.0519248 -0.603676
0.333528 2.7436 -2.53446 0.313295 -0.583723 -0.749075
-0.686419 3.08864 -2.90995 -0.552076 -0.0334197 -0.833124
3.21174 7.99373 -0.200426 0.848696 -0.0779865 0.5231
0.887482 8.01896 2.57336 -0.129214 0.0191897 0.991431
0.0376469 6.03581 2.46795 -0.120841 -0.0367456 0.991992
2.6185 8.80509 0.1623 0.986837 -0.0316448 0.158591
0.978749 6.14325 -2.56392 0.427657 -0.0592432 -0.901998
0.984225 3.81167 2.65644 -0.243157 -0.0200691 0.969779
-1.21461 7.43736 2.16333 -0.323251 0.0128809 0.946226
0.69773 7.99642 -2.77383 0.313406 -0.00411166 -0.94961
2.90271 6.37231 -1.14327 0.675339 -0.101615 -0.730474
0.322903 4.17775 2.4601 -0.133847 0.0115216 0.990935
1.59106 4.02633 2.39445 0.95902 -0.0787361 0.27218
2.37843 9.28045 1.46113 0.957042 -0.0827351 0.277895
1.43378 6.98865 2.69535 -0.0364708 -0.00176454 0.999333
-0.478256 8.64245 2.35408 -0.183934 0.0646525 0.98081
-1.89997 7.46769 1.91867 -0.404593 -0.04969 0.913146
3.77019 7.11802 1.71558 0.931123 -0.0402112 0.362481
0.0224633 8.07981 2.44416 -0.227658 0.070087 0.971216
3.54164 5.20856 1.9063 0.941079 -0.158077 0.298969
-1.60709 7.95891 2.09049 -0.324942 0.0177914 0.945567
1.18385 2.85435 2.55434 0.0908963 -0.343874 0.934606
0.546726 3.96795 2.55107 -0.321989 -0.0330371 0.946167
2.08098 7.7783 -1.95562 0.654166 0.0146159 -0.75621
-2.07405 4.25911 1.77944 -0.393165 -0.0604804 0.917477
3.07226 3.43856 -0.452143 0.895681 -0.114811 0.429621
1.90968 2.6888 1.20051 0.916079 -0.114263 0.384373
0.00403096 8.80922 2.45787 -0.146388 0.0553183 0.987679
2.45927 2.74098 -1.07437 0.57718 -0.400641 -0.711583
1.48621 5.15645 -2.21385 0.569361 -0.0128923 -0.821986
3.11393 6.57701 -0.995539 0.647449 -0.0955343 -0.756097
2.53368 4.58895 -1.27938 0.524954 -0.188185 -0.830066
4.09488 7.28073 0.59587 0.968276 -0.0961862 0.230629
-0.198437 6.74058 2.44452 -0.262045 0.082063 0.96156
-0.636705 6.60619 2.35488 -0.108516 -0.124171 0.986309
1.47024 3.35039 2.54718 0.859171 -0.126399 0.495832
1.98434 6.97018 -1.94699 0.569979 -0.14836 -0.808154
1.19887 9.03796 -2.58336 0.452237 -0.0250177 -0.891547
3.8139 7.55564 1.59806 0.962465 -0.0497371 0.266809
-0.0718338 8.69371 -3.05888 0.198279 -0.0110629 -0.980083
1.17301 6.63745 -2.46662 0.432912 -0.0479347 -0.900161
-1.75454 7.30366 2.00137 -0.528459 -0.00320548 0.848953
3.42906 7.96762 -0.597412 0.980309 -0.0440001 0.192504
2.73061 8.71841 -1.45558 0.592068 -0.0128165 -0.805786
1.84593 3.29289 1.40591 0.92682 -0.1127 0.358194
2.15221 3.8295 -1.50956 0.793704 -0.00542085 -0.60828
1.78534 3.09877 -1.78443 0.540864 -0.172822 -0.823164
0.0206205 3.70452 2.41698 -0.30639 0.0416851 0.950993
-0.938789 7.96907 2.28324 -0.311472 0.0116738 0.950184
0.369786 8.50397 -2.94102 0.349071 -0.0726446 -0.934276
0.518736 3.19546 -2.61486 0.325352 -0.0835079 -0.941898
-0.243376 6.07725 2.40251 -0.285744 -0.0873843 0.954314
3.42658 5.57379 2.25373 0.820062 -0.0669889 0.56834
0.667319 3.51317 2.58334 -0.245963 0.0964905 0.964464
-2.01568 6.61483 -0.336509 -0.986213 0.134155 -0.0968833
2.27513 4.37386 0.285243 0.984664 -0.0575286 0.164703
1.10743 3.19452 -2.30885 0.527279 -0.229596 -0.818084
0.774853 7.35881 2.59398 -0.138704 -0.0136905 0.990239
2.00532 3.63155 1.14025 0.916739 -0.147886 0.371105
0.950882 9.07982 2.58494 -0.209847 -0.0123103 0.977657
0.658127 6.66038 -2.7723 0.324156 -0.0558015 -0.944356
-0.611096 5.50307 -2.98919 -0.362416 0.0454698 -0.930907
-0.827691 7.09641 -2.78468 -0.801822 -0.0243637 -0.597066
-2.21141 6.99423 0.975111 -0.986179 -0.00476902 -0.165612
1.58542 9.46333 2.68619 -0.0861347 0.0398879 0.995485
1.05012 7.01711 2.62912 -0.200245 -0.0166608 0.979604
1.51801 6.97007 -2.2901 0.523673 -0.0692422 -0.849101
3.16388 5.69863 2.84545 0.956173 -0.125271 0.264651
-1.73237 2.49901 1.71226 -0.596049 -0.0132731 0.802838
-1.4039 5.20448 2.09635 -0.405051 0.0270872 0.913893
-0.796187 6.67969 2.32979 -0.250278 -0.0561482 0.966544
3.29066 7.94238 -0.919206 0.711824 -0.067479 -0.699109
-0.188341 9.36523 -3.11368 0.0945072 -0.0495271 -0.994291
-1.56221 6.48078 -1.79525 -0.901047 0.152746 -0.405934
-0.0147627 6.74742 2.46746 -0.066923 0.0558984 0.996191
-0.665286 5.71806 -2.94329 -0.5529 -0.0178574 -0.833056
0.326902 8.35377 2.48162 -0.162275 0.0371739 0.986045
0.364016 9.65393 2.48212 -0.19689 0.105103 0.974776
-0.209279 9.46379 -3.11298 0.0362708 0.00838473 -0.999307
2.10048 4.74953 -1.64134 0.69044 -0.0992707 -0.716545
3.68921 4.81121 1.39042 0.936039 -0.0882537 0.340649
-0.575144 3.97908 -2.97408 0.0616373 0.0462085 -0.997028
-1.85425 6.72012 -0.929251 -0.899929 0.338022 -0.275445
0.227808 3.95671 2.46405 -0.115271 0.00912429 0.993292
0.325601 6.78286 2.48333 -0.18112 0.00868566 0.983423
-1.06426 6.82185 2.22878 -0.385796 0.0152744 0.922458
0.260947 8.16068 2.48213 -0.165114 0.0298427 0.985823
-1.55234 2.73833 -1.71001 -0.867617 -0.112515 -0.484336
3.19498 4.13576 -0.628531 0.996308 -0.0371633 -0.0773881
0.0874993 9.178 2.45312 -0.225777 -0.0231622 0.973904
0.615655 2.74157 -2.41248 0.334466 -0.544605 -0.769115
-1.41738 4.02859 1.99835 -0.388782 -0.127577 0.912454
0.0958568 8.46969 2.45615 -0.126036 -0.0583326 0.990309
-2.29942 4.13847 1.69312 -0.569716 -0.00126281 0.821841
-0.200479 4.70029 -2.95972 0.32864 -0.0710653 -0.941778
-2.28447 5.96037 1.73886 -0.778508 0.000958058 0.627634
3.28216 8.10368 -0.946059 0.671322 -0.115869 -0.732052
-0.0291436 7.27056 2.45506 -0.0839978 0.0364181 0.9958
2.01315 6.32758 2.68427 -0.3314 -0.109979 0.937058
1.46729 7.79351 2.68885 -0.0962582 -0.00506703 0.995344
4.14989 7.86911 0.338683 0.970263 -0.0565967 0.235344
2.94891 5.77994 -1.05089 0.667994 -0.0279196 -0.743642
-2.30334 5.89345 1.33088 -0.997966 0.0281747 -0.0571842
-1.46282 3.07353 1.99303 -0.5047 -0.257438 0.824017
-1.38509 8.69632 2.15157 -0.221592 -0.0469261 0.97401
-1.11294 5.91064 2.19563 -0.327404 -0.0644489 0.942684
-0.736719 9.60695 2.32243 -0.208957 0.126043 0.969768
0.455179 7.60982 2.49297 -0.229024 0.0405622 0.972575
0.550374 6.81575 -2.80773 0.247769 -0.0296799 -0.968364
-0.0663223 5.65169 2.42269 -0.306794 0.0170495 0.951623
3.07734 8.72594 -1.18131 0.67928 -0.0785937 -0.729659
0.0309985 2.90824 2.30484 -0.211999 -0.442795 0.8712
4.0534 7.6998 0.747937 0.984281 -0.0241122 0.174954
2.34065 4.24892 -1.35322 0.634382 0.0128488 -0.772913
-2.25623 7.1096 1.42335 -0.99663 0.068183 -0.0456029
1.16692 6.71811 -2.47364 0.444294 -0.0580806 -0.893997
-0.479399 7.2695 2.37209 -0.22302 -0.064036 0.972708
-1.72332 6.74418 -1.44744 -0.901539 0.0969916 -0.421687
-0.0214807 3.88432 -2.88496 0.268952 -0.0446835 -0.962117
1.67929 4.38513 2.2085 0.936244 -0.137691 0.323248
0.92479 5.36366 2.61695 -0.174496 0.0134754 0.984566
1.61762 3.45106 -1.96601 0.700846 -0.157752 -0.69565
-0.283037 6.00179 2.37873 -0.288454 -0.112523 0.950859
3.04388 7.02202 -1.09156 0.660598 -0.0309474 -0.750102
0.140562 4.70086 -2.85069 0.224454 -0.0296864 -0.974032
2.12078 6.73273 -1.82824 0.573152 -0.0410855 -0.818419
-0.182148 5.99017 2.41579 -0.285748 -0.111986 0.951739
-1.35097 5.94481 2.1109 -0.369088 0.000873238 0.929394
2.16183 3.15705 -1.51996 0.698268 -0.0847964 -0.710796
1.59683 5.79668 2.6234 0.618204 -0.0589965 0.7838
0.369439 7.0025 2.48036 -0.201612 0.0431994 0.978512
-0.505474 5.32065 2.29627 -0.071975 -0.013994 0.997308
3.18589 6.27511 -0.886247 0.698824 -0.0917143 -0.70939
1.33158 9.41683 -2.53533 0.494114 -0.0169055 -0.869232
1.61679 7.07263 2.68405 0.214846 -0.0522362 0.97525
-1.26838 6.37411 -2.30673 -0.849656 -0.0171613 -0.527058
-1.18085 3.33354 2.11498 -0.266136 0.066448 0.961642
1.3069 3.4834 -2.2333 0.582761 -0.164134 -0.795896
3.09788 7.94689 -1.09731 0.671324 -0.0367883 -0.74025
3.75006 6.82938 1.76177 0.950508 0.0260249 0.309608
1.81806 4.59082 1.64339 0.993873 -0.05328 0.0968376
-0.576557 9.08383 -3.08093 -0.222786 0.0361372 -0.974197
-0.0275432 4.12773 2.43505 -0.249564 -0.0211071 0.968128
-0.496416 2.94722 2.21546 -0.0987823 -0.442686 0.891219
-0.179475 3.87282 2.36817 -0.276791 -0.0931353 0.956406
-2.39214 3.07172 1.55851 -0.735059 -0.258272 0.626885
-1.19127 6.56325 -2.4016 -0.65455 -0.030594 -0.7554
-1.2948 3.49215 2.06613 -0.315454 0.0374794 0.948201
2.97616 4.08638 -0.267604 0.828175 -0.0388163 0.559123
3.44013 5.46293 2.22953 0.82857 -0.0273843 0.559215
0.123971 6.36952 2.47542 -0.0775207 -0.0040058 0.996983
-1.22743 6.76011 2.15528 -0.357094 0.0163046 0.933926
4.04267 7.75463 0.828695 0.980764 -0.0287438 0.193069
-2.36478 2.88275 1.4375 -0.686641 -0.548432 0.477227
-0.890299 6.40794 -2.71642 -0.840869 0.00139467 -0.541237
0.814488 5.88163 -2.62288 0.3904 -0.0562448 -0.918926
2.24454 8.38093 -1.82631 0.588359 -0.0378541 -0.807713
0.068369 7.55384 2.46938 -0.0227416 -0.0203539 0.999534
2.6442 6.6291 -1.43054 0.56547 -0.10697 -0.817803
2.35233 3.7766 -1.3409 0.569818 0.0012576 -0.82177
2.74539 2.68007 -0.788619 0.572448 -0.56846 -0.590895
1.92116 4.33746 1.39219 0.866411 0.0127426 0.499168
-2.07649 4.84769 1.7765 -0.391873 0.00655241 0.919996
1.92003 7.12992 2.58152 0.239681 0.113402 0.964206
0.672581 5.089 2.57189 -0.303557 0.0382242 0.952046
0.449573 7.88024 -2.85396 0.332142 -0.0262571 -0.942864
3.55682 5.57581 2.03569 0.927892 -0.106905 0.357195
2.96107 9.22651 -1.32412 0.672589 -0.0277372 -0.739496
0.763563 7.02187 -2.74015 0.408614 -0.0226641 -0.912426
0.701668 3.9289 2.59293 -0.239397 -0.0602868 0.969048
-0.40907 2.76071 -2.77232 0.156551 -0.571679 -0.805404
1.94876 3.9006 1.35408 0.932966 -0.0276434 0.358902
-0.123183 8.56191 2.43084 -0.131133 -0.0649376 0.989236
2.09738 3.75955 -1.61229 0.814642 0.0296064 -0.579209
0.871176 5.70316 -2.59021 0.36348 -0.0902828 -0.927217
0.123936 8.96264 -3.02683 0.26456 0.0826019 -0.960825
1.95414 3.38371 1.16944 0.89022 -0.0800614 0.448441
1.40936 2.91309 2.50075 0.60148 -0.215248 0.769344
2.0788 2.94137 0.915775 0.911909 -0.122394 0.391716
0.478222 4.4236 -2.67609 0.371905 -0.00637225 -0.928249
-0.667494 3.82101 -2.96039 -0.424953 0.0212182 -0.904967
-0.533924 2.81975 2.13386 -0.158821 -0.495098 0.854198
-1.70444 6.55839 -1.49583 -0.8729 0.0203214 -0.487476
1.39887 9.04586 2.67794 -0.11977 0.0621314 0.990856
1.07235 6.41746 2.622 -0.159811 -0.0166048 0.987008
2.02639 7.88909 -1.99333 0.649303 0.00967127 -0.760469
2.08602 8.50698 2.07879 0.962326 -0.0490155 0.267442
-0.399093 8.38763 -3.11089 -0.0119544 -0.023652 -0.999649
2.40036 8.73292 -1.71737 0.640369 -0.0812186 -0.763761
2.50358 9.0899 0.892053 0.960044 -0.0395508 0.277039
1.78253 6.7655 -2.07406 0.632774 -0.0802592 -0.770166
-1.07316 6.07306 -2.48716 -0.638376 0.152983 -0.754369
3.74389 5.81471 1.30449 0.960513 -0.100651 0.259392
-1.97521 2.79593 -0.705939 -0.929221 -0.265803 -0.256705
-0.161101 5.71489 2.38625 -0.330064 -0.0430634 0.942976
0.591559 9.50501 -2.84208 0.3097 -0.0119509 -0.950759
1.58156 7.50349 2.69967 0.0487884 -0.0113113 0.998745
1.93159 6.70225 -1.95258 0.581483 -0.0712746 -0.81043
-0.257942 8.37554 -3.11138 0.100786 -0.0151961 -0.994792
1.1907 5.4048 -2.37624 0.483746 -0.0121474 -0.875124
4.11902 7.46489 0.50836 0.985173 0.0146987 0.170935
0.886916 3.31844 -2.48405 0.499081 -0.0741068 -0.863381
1.82569 3.58627 -1.84482 0.519931 -0.169585 -0.837205
-0.165202 8.64 -3.08587 0.210251 0.0293628 -0.977206
3.265 5.8308 2.57042 0.888729 -0.103413 0.446617
0.337914 8.80715 2.4956 -0.139895 -0.0055245 0.990151
3.60032 5.69703 1.89535 0.962879 -0.157323 0.219347
1.51423 2.65718 2.16374 0.911531 -0.125138 0.391729
0.0506423 9.01094 -3.03663 0.223485 0.0514687 -0.973348
0.917122 6.03547 -2.57707 0.418248 -0.0635811 -0.906105
-0.625914 3.92335 2.25705 -0.12022 0.00864552 0.99271
1.95794 3.41892 -1.74705 0.56122 -0.112086 -0.820042
1.03147 4.65096 -2.44815 0.380313 -0.0286013 -0.924415
3.91823 5.489 0.556362 0.991742 -0.00519446 0.128141
3.37502 7.39159 -0.663298 0.993034 -0.095832 0.0685514
1.87765 3.60535 1.48658 0.963297 -0.121253 0.239492
4.11478 6.75893 0.238911 0.98138 -0.0586029 0.182919
-0.61458 4.01581 2.25549 -0.14937 0.011276 0.988717
0.690035 7.05699 -2.76869 0.323846 -0.00587446 -0.946092
1.98458 3.7036 -1.75382 0.665497 -0.00202685 -0.746397
3.28347 7.39423 -0.922118 0.75639 0.000273539 -0.654121
3.18248 3.93134 -0.63573 0.975706 -0.0757788 -0.205559
0.573816 9.42144 2.53514 -0.10069 0.0576212 0.993248
0.150547 4.18271 2.4675 -0.0467434 -0.00453092 0.998897
2.60532 7.62618 -1.55965 0.653388 -0.00661898 -0.756995
-2.26388 7.38721 1.60451 -0.999272 0.000534259 0.038148
-0.262067 5.27094 2.33837 -0.327365 0.00345704 0.944892
0.746128 8.67166 -2.77044 0.370827 -0.0722915 -0.925884
0.892133 5.51275 -2.55077 0.437977 -0.0626051 -0.896804
3.95275 6.07976 0.641653 0.963884 -0.188095 0.188544
3.98099 7.97608 1.1169 0.971968 -0.00669252 0.235019
0.212063 5.31763 -2.85695 0.266908 -0.0377639 -0.962982
2.01629 8.83638 2.3823 0.949183 -0.0777322 0.304974
-2.05171 7.15682 1.87026 -0.333535 -0.0134188 0.942642
0.263259 4.11661 2.46157 -0.0656034 0.00499848 0.997833
1.62432 4.87179 2.47319 0.889452 -0.20857 0.406661
-0.58696 8.13648 -3.07461 -0.234013 -0.0136051 -0.972138
3.94411 4.95425 0.255386 0.995017 -0.0131544 0.098835
0.387603 7.22756 -2.85234 0.271617 -0.0176361 -0.962244
-0.0801163 5.40288 2.43213 -0.358282 0.0163401 0.933471
1.22263 6.29313 -2.43333 0.494016 -0.00922324 -0.869404
2.53242 8.72388 0.683133 0.976267 -0.0864813 0.198555
2.32606 8.68266 1.45711 0.925431 0.05067 0.375512
0.31785 9.13964 2.49263 -0.124743 -0.0377609 0.99147
0.545684 7.67953 2.51228 -0.269297 0.0478059 0.96187
-2.2904 6.77655 1.62447 -0.982064 0.041495 0.183926
0.669037 5.33233 -2.6653 0.434719 -0.0166773 -0.900412
2.99897 4.19166 -0.872699 0.653643 -0.0809935 -0.752456
3.4641 8.12589 -0.661824 0.98969 -0.116279 0.0836181
-0.565075 4.16544 2.26384 -0.198535 -0.0183939 0.979921
1.57805 3.04473 -1.94773 0.64253 -0.230899 -0.730644
2.15386 5.09651 -1.62403 0.745267 -0.0270211 -0.666219
2.03484 6.58119 2.71987 -0.37365 -0.0160549 0.927431
-2.34726 5.89454 1.61311 -0.941179 -0.065651 0.331469
2.22391 3.7366 0.463845 0.97978 -0.119668 0.160347
1.66072 5.30824 2.53364 0.841248 0.0105273 0.540547
1.63291 4.52576 2.35035 0.91827 -0.0561724 0.391951
0.249544 7.82956 -2.92961 0.408944 -0.0748413 -0.909485
1.74163 4.768 -2.00622 0.656625 -0.0329532 -0.753497
3.04923 3.79119 -0.810419 0.715034 -0.0441762 -0.697692
2.60298 9.04694 0.546793 0.984538 -0.103372 0.141419
1.3133 6.27335 2.6644 -0.107006 0.0313621 0.993764
1.29127 6.31758 -2.39631 0.508766 -0.0321011 -0.860306
1.4008 9.52959 -2.49351 0.506016 -0.00210927 -0.862522
3.04017 3.89875 -0.383853 0.837891 -0.0626623 0.542228
-0.969497 6.41617 -2.58144 -0.754173 -0.0388825 -0.655523
1.69532 5.13986 2.48684 0.916734 -0.0711752 0.393107
-0.770137 8.9604 2.3039 -0.154899 0.017162 0.987781
2.55233 8.54378 0.617848 0.97204 0.0111466 0.23455
1.85235 5.72797 -1.95215 0.62742 -0.0517091 -0.776962
-1.42723 8.87915 2.12986 -0.279668 0.0846627 0.956357
-1.37737 6.81409 -2.05957 -0.851165 0.00441868 -0.52488
-0.0307296 5.9271 -2.95141 0.399536 -0.00862938 -0.916677
1.49519 7.44446 2.69194 -0.108137 0.00889781 0.994096
1.55134 3.12331 2.15636 0.893083 -0.0993743 0.43878
0.220906 5.49907 -2.85792 0.268991 -0.00621871 -0.963123
-1.36493 9.38063 2.14203 -0.300618 0.00884843 0.953704
2.27921 8.0536 -1.78532 0.580743 -0.0270318 -0.813638
2.32125 8.89484 1.57511 0.941926 -0.119736 0.313751
0.505671 6.37749 2.52547 -0.277486 -0.013247 0.960638
0.981687 6.60991 2.6072 -0.150892 0.0258329 0.988213
0.818203 5.1119 -2.56115 0.432506 -0.0989166 -0.896189
3.2962 8.67724 -0.981842 0.654209 -0.0621656 -0.753755
-0.526718 9.41427 2.36801 -0.218889 0.00539936 0.975735
0.0620193 2.91576 -2.74663 0.369533 -0.376985 -0.84931
-0.830525 3.02702 -2.74809 -0.780302 -0.0126149 -0.625275
1.54207 5.38336 2.65486 0.512223 -0.000893881 0.858852
2.02553 8.69935 -2.02804 0.61273 -0.0813623 -0.786093
1.15769 3.86832 -2.39474 0.478258 -0.0839417 -0.874198
0.432251 4.00405 -2.68816 0.415265 -0.0923252 -0.905004
-0.490203 9.00087 2.35896 -0.201719 -0.112141 0.973002
2.48103 9.53021 -1.74757 0.619321 -0.0569034 -0.783073
-0.224948 6.60503 -3.03431 0.177264 -0.0879279 -0.980228
0.386859 7.06954 -2.84876 0.254834 -0.00375439 -0.966978
1.77862 5.28026 2.17158 0.869935 -0.0989026 0.483148
1.94162 8.75142 2.56822 0.809261 -0.0230107 0.586999
1.89655 8.0776 -2.11462 0.630417 -0.0177933 -0.776053
-0.489607 9.08564 2.36837 -0.228332 -0.0733525 0.970816
2.13931 2.72241 0.524524 0.973388 -0.215617 0.0776199
0.433316 5.53163 2.48676 -0.243274 -0.0771247 0.966886
1.89837 7.26438 2.55417 0.499871 0.0634116 0.863775
3.32916 5.72228 2.44435 0.862641 -0.144472 0.484745
-2.1412 9.47287 1.73816 -0.831882 0.0703062 0.550481
-0.654188 6.8469 2.35821 -0.136789 0.106374 0.984872
1.4919 7.22578 -2.31983 0.471432 -0.00550082 -0.881885
4.11221 7.2455 0.457353 0.985128 -0.0973472 0.141583
1.76185 7.16891 2.63657 0.362266 0.0183155 0.931895
2.27337 5.48107 -1.56919 0.583138 -0.157814 -0.796897
-0.719367 6.69746 2.35291 -0.197519 -0.0346358 0.979687
-1.1994 2.91672 -2.35804 -0.722205 -0.134926 -0.678391
1.07093 6.95307 -2.56068 0.489055 -0.139766 -0.860982
1.45326 6.9954 -2.33045 0.506553 -0.0755278 -0.858894
4.10852 7.85193 0.477087 0.972149 -0.0598508 0.226591
-1.75114 3.83733 1.87957 -0.301267 -0.00773803 0.953509
-2.05287 9.00287 1.9274 -0.459458 0.109147 0.881468
2.86413 5.71534 -1.11351 0.685872 -0.0814722 -0.723147
2.13405 3.18981 0.82702 0.950678 -0.0137979 0.309874
3.87917 7.12079 1.41243 0.969899 -0.0081458 0.243373
-1.05168 4.2552 2.21959 -0.386615 -0.0218152 0.921983
-0.796836 9.47516 2.31821 -0.296848 0.018976 0.954736
-0.359075 9.17395 2.40267 -0.176515 -0.0400237 0.983484
-2.19923 7.90195 1.52143 -0.996964 0.051341 -0.0585352
2.42622 6.70209 -1.54848 0.585481 -0.0974905 -0.804803
0.131923 8.63325 2.46646 -0.100129 -0.0412738 0.994118
-0.618423 4.20044 -2.9615 -0.0468816 -0.04766 -0.997763
1.29202 6.13768 -2.38422 0.545848 -0.0470347 -0.836563
1.99807 7.98034 -2.01967 0.661959 -0.0167298 -0.749354
0.39945 4.50094 -2.70493 0.449307 -0.0505995 -0.891943
2.55849 9.28826 0.792281 0.950589 -0.0795144 0.300096
0.815828 8.65606 2.57673 -0.207303 0.00125276 0.978276
1.05067 8.21401 -2.64497 0.40761 -0.029826 -0.912669
2.5521 8.79506 0.635447 0.97827 -0.114167 0.173071
-0.0449954 6.26759 2.45656 -0.12694 -0.0519012 0.990552
1.84053 4.97477 1.99874 0.922782 -0.18745 0.336654
-0.63541 3.54604 -2.96266 -0.516492 -0.0754656 -0.85296
0.316782 8.5929 2.48143 -0.125368 -0.0487057 0.990914
1.59566 6.12186 2.63961 0.507555 -0.00624513 0.861597
1.69212 2.69752 -1.6952 0.516922 -0.514957 -0.683821
-0.542945 8.36237 2.34265 -0.190489 0.0189193 0.981507
3.22488 5.89717 2.65382 0.945708 -0.098441 0.30975
-0.576633 4.64653 2.26772 -0.171066 0.0348891 0.984642
3.01836 6.73588 -1.09675 0.652733 -0.0798575 -0.753368
-2.23991 8.11771 1.68983 -0.99637 0.0386031 0.0758665
0.935875 8.68915 2.59604 -0.229996 -0.0079762 0.973159
3.35984 6.51865 -0.539411 0.986131 -0.0246897 -0.164125
1.13563 7.70742 -2.58485 0.491091 -0.115879 -0.863366
1.80488 5.70449 2.4323 0.644282 -0.3019 0.702678
2.1666 3.10562 0.182645 0.924604 0.320688 0.205589
0.203183 9.04157 -2.98366 0.389353 0.0634907 -0.918898
2.10357 4.22745 -1.6323 0.752902 0.000969763 -0.658132
1.62192 5.97725 2.60896 0.607101 -0.0359242 0.793812
-0.344087 5.51043 2.31432 -0.207826 0.01325 0.978076
2.17922 2.85335 0.307709 0.983724 -0.0984506 0.150314
2.43189 4.57595 -1.33475 0.476766 -0.131575 -0.869127
1.26456 7.45457 2.65217 -0.177337 0.0183136 0.98398
-0.289909 5.76684 2.34281 -0.260937 -0.105204 0.959606
0.0380572 5.27079 -2.90414 0.314194 -0.0594274 -0.947497
0.461886 5.06477 2.49444 -0.275024 0.0643864 0.959279
-0.396057 3.09897 2.28289 -0.148051 -0.281468 0.948081
-2.01402 8.6163 1.92619 -0.405227 -0.0451449 0.913101
2.29994 4.53295 0.232189 0.97981 -0.112632 0.165187
2.42784 6.41353 -1.49572 0.740032 -0.0443464 -0.671108
-1.097 7.57984 2.20972 -0.39097 -0.0193496 0.9202
2.7701 6.81935 -1.30811 0.686014 -0.0329476 -0.726842
1.48268 8.73287 2.68879 -0.0241034 0.000606696 0.999709
0.0964186 5.82847 2.45841 -0.122132 -0.0355104 0.991878
1.70517 5.42861 -2.04903 0.679626 -0.0713799 -0.730078
1.98037 3.12348 1.11326 0.834078 -0.0160579 0.551412
2.63289 9.4169 0.249792 0.998959 0.0256737 0.0377174
-0.318967 8.93393 -3.08781 0.0577494 0.0127437 -0.99825
-1.05126 7.52992 2.23244 -0.393186 -0.00366478 0.919452
3.44149 8.21566 -0.607923 0.954423 -0.0532442 0.293669
1.53218 9.5524 -2.41123 0.52013 -0.0398954 -0.853155
2.79757 5.57378 -1.17711 0.641584 -0.104282 -0.759931
1.50167 6.75858 -2.2915 0.548463 0.00831619 -0.836134
2.09665 5.69374 -1.73017 0.636196 -0.0628334 -0.768965
-0.100534 3.70369 2.37395 -0.289101 0.0240604 0.956996
-2.42397 4.25616 1.51137 -0.83189 -0.026458 0.554309
2.54865 4.52238 -1.24413 0.551093 -0.204139 -0.809088
0.191821 8.25388 -2.97009 0.350165 -0.0392863 -0.935864
3.68487 6.79442 1.97228 0.923163 0.034279 0.382876
-0.204135 6.54849 2.45647 -0.245072 -0.00774217 0.969474
2.39551 5.431 -1.49461 0.656917 -0.155011 -0.737856
1.95295 7.88325 -2.05442 0.646765 -0.0123041 -0.76259
3.11872 5.35348 -0.244874 0.927332 -0.191909 0.321287
-0.546469 3.72058 2.26484 -0.162001 -0.0270589 0.98642
-0.822913 5.79944 -2.79226 -0.694825 0.0202347 -0.718894
1.66196 9.26328 -2.32506 0.47002 0.000539319 -0.882656
-1.54977 5.22419 2.01128 -0.44675 -0.0677322 0.892091
-1.93163 2.79981 1.60083 -0.376352 -0.478201 0.793526
0.986334 6.22146 -2.56332 0.452241 -0.0189354 -0.891695
1.67924 5.1079 -2.06543 0.634569 0.00358673 -0.772858
3.31946 7.21694 -0.885098 0.775603 -0.0347631 -0.630263
3.40121 8.31311 -0.519372 0.908551 -0.0372622 0.416109
1.55322 4.31621 2.58405 0.810889 0.0677366 0.581267
3.88431 5.35958 0.766441 0.983535 -0.0270507 0.178683
1.3254 3.9151 -2.28012 0.618404 -0.150498 -0.771315
-1.71193 5.36674 1.95443 -0.403508 -0.0118345 0.914899
3.68231 6.83834 -0.100529 0.684346 0.247886 -0.685728
0.68745 4.34051 -2.59408 0.447303 -0.043304 -0.893334
0.242515 9.13593 -2.95939 0.386596 -0.0240053 -0.921937
-0.149498 7.06179 -3.04724 0.114104 0.00013905 -0.993469
0.400389 8.43016 2.49002 -0.177686 0.035575 0.983444
-0.49298 8.29636 2.35691 -0.163652 0.0227078 0.986257
1.80317 7.64233 -2.1877 0.54122 0.0785821 -0.837201
-2.28813 6.46994 1.28904 -0.995274 0.0475619 -0.0846601
2.44061 9.20554 1.19627 0.976478 0.00474825 0.215565
2.2531 4.0751 0.378714 0.988489 -0.0197952 0.14999
2.63727 9.36618 0.407163 0.998467 -0.0100231 0.0544369
3.81973 7.46988 1.58371 0.964594 -0.0238482 0.262658
2.62409 9.07541 0.306002 0.987088 -0.110977 0.115502
1.03983 8.62662 -2.64772 0.371564 -0.0111113 -0.928341
1.38118 9.14746 -2.48506 0.506836 -0.046415 -0.860792
2.93353 8.54269 -1.30548 0.672523 -0.0584801 -0.737762
3.26907 8.88955 -0.190819 0.886416 -0.0434215 0.460848
1.98025 4.05496 -1.75256 0.725357 -0.0397367 -0.687226
3.09023 5.32725 -0.899846 0.657887 -0.110719 -0.744933
-1.20483 9.66422 2.18909 -0.257132 -0.0126743 0.966293
0.683291 8.36294 2.54894 -0.136268 0.0662188 0.988456
0.241708 4.8317 -2.83541 0.276964 -0.060658 -0.958964
1.563 3.45503 -2.03057 0.702299 -0.0916407 -0.705959
1.69424 4.12923 2.07824 0.8864 -0.0260109 0.462188
-1.4322 4.34336 2.07792 -0.383939 -0.0563483 0.921637
3.43051 6.87325 2.58225 0.856328 -0.0998694 0.506684
1.47997 7.0702 2.70697 -0.0281144 -0.0188424 0.999427
-0.343895 5.3235 -3.02261 0.0251702 -0.0250517 -0.999369
3.08153 4.01569 -0.419465 0.841048 -0.0817431 0.534748
0.104774 8.28086 -3.00676 0.345389 -0.0345053 -0.937825
2.08516 5.99317 -1.76614 0.573529 -0.131512 -0.80856
-0.850897 6.50494 -2.77548 -0.8322 0.0561994 -0.551621
-0.444953 8.53216 2.37416 -0.249348 0.0127406 0.96833
3.91434 5.93854 0.694862 0.974275 -0.145274 0.172288
-0.867613 3.16924 2.17095 -0.28003 -0.111797 0.953459
-1.1696 8.12113 2.18275 -0.422871 -0.022502 0.90591
-2.11602 4.76463 1.75983 -0.332943 0.0146074 0.942834
1.1064 5.88172 -2.48627 0.461616 -0.029704 -0.886582
2.31501 6.78569 -1.66798 0.703983 -0.0473645 -0.708636
-0.370195 6.32535 2.37077 -0.351315 -0.0518609 0.93482
0.787844 4.77022 -2.57445 0.413141 0.0131841 -0.910572
3.93141 5.08919 0.367239 0.994729 -0.00184783 0.102526
1.90617 5.4829 -1.87119 0.62929 -0.124739 -0.767095
-2.2282 6.74398 0.979641 -0.978772 0.0904302 -0.183922
0.129786 4.28217 -2.86085 0.316832 -0.0228639 -0.948206
1.91534 8.4812 -2.12158 0.668547 -0.0192809 -0.743419
0.00962296 7.6781 -3.00948 0.319246 -0.148543 -0.935958
2.87931 3.1276 -0.922681 0.664024 -0.182521 -0.725092
-1.70827 2.79846 -1.43753 -0.92039 -0.0892094 -0.38069
0.239182 8.54626 2.47036 -0.104029 -0.0340898 0.99399
-1.28361 3.59341 2.06938 -0.374615 0.0250927 0.926841
-0.879128 6.22809 -2.71787 -0.868162 -0.0209846 -0.495838
0.43244 9.05654 -2.88052 0.279371 -0.0553124 -0.958589
3.84569 5.24373 0.92353 0.973844 -0.0355802 0.224415
-2.22596 7.06559 1.02861 -0.986742 -0.0155358 -0.161554
4.0822 7.76106 0.551977 0.978506 -0.043387 0.2016
-0.637788 9.27015 2.32812 -0.211417 -0.0473049 0.976251
1.64387 4.30219 2.26188 0.944576 -0.127841 0.30238
1.92132 8.14892 2.41294 0.934628 -0.0780105 0.346966
-1.50517 9.47092 2.09474 -0.275675 -0.0351817 0.960607
0.982385 8.99379 2.59827 -0.242828 0.0317567 0.96955
1.30909 6.97391 2.67083 -0.160905 0.0156831 0.986845
2.0331 3.45111 1.02219 0.893533 -0.0161529 0.448706
1.8833 6.09514 -1.9583 0.654551 -0.0481911 -0.75448
-2.01482 3.36139 1.76709 -0.483063 -0.0244137 0.875245
3.09692 7.36909 -1.06615 0.632617 -0.0372894 -0.773566
1.06915 9.28202 -2.64763 0.390036 -0.0102361 -0.920743
0.954026 3.07821 2.62004 -0.156625 -0.303999 0.939709
1.3128 4.79727 -2.30939 0.511798 0.0185956 -0.858905
-2.06615 6.71006 0.0594066 -0.978312 0.188703 -0.0854249
2.13556 8.52712 -1.91991 0.628717 -0.0888331 -0.772544
2.9718 7.29509 -1.17208 0.653089 -0.0122745 -0.757182
0.529502 8.19418 2.54361 -0.190401 0.0344936 0.9811
-1.47849 5.18823 2.05681 -0.493253 -0.013152 0.869786
-0.17645 8.16083 -3.09392 0.164267 -0.0225181 -0.986159
-0.776407 9.28684 2.30911 -0.188864 -0.0431418 0.981055
2.62744 9.19597 0.424422 0.993496 -0.0803299 0.0806992
2.30158 3.93804 -1.36454 0.653761 -0.0925612 -0.751019
1.47743 8.85563 2.68961 -0.040994 0.0150913 0.999045
-1.94902 6.66701 -0.710045 -0.918939 0.317089 -0.234534
1.00516 5.30824 -2.48916 0.475799 -0.0087594 -0.87951
2.16975 3.02304 0.552072 0.999663 0.00288564 0.0258152
1.81588 7.79345 2.64099 0.624674 -0.0158397 0.780725
1.56257 9.35042 2.69067 -0.100251 0.0303448 0.994499
2.12374 6.27636 -1.80613 0.512531 -0.12843 -0.84901
0.870709 4.70686 -2.52964 0.443463 -0.0371666 -0.895522
2.12646 4.89854 -1.64801 0.69358 -0.0859909 -0.715229
-0.098765 7.41594 -3.02881 0.240533 0.031044 -0.970144
1.43497 7.16597 -2.35126 0.508315 -0.013171 -0.861071
1.82609 4.74979 1.87169 0.947927 -0.183031 0.260643
-1.91088 8.27866 1.94552 -0.357265 -0.0482742 0.932755
0.34156 4.8321 2.4709 -0.165651 -0.0145982 0.986076
3.60999 6.91812 2.10485 0.939146 0.0165834 0.343118
1.36601 4.52914 -2.29124 0.54692 0.0170399 -0.837012
1.91431 3.55183 -1.79204 0.529356 -0.0993706 -0.84256
-0.97644 9.26404 2.26052 -0.264226 0.0502303 0.963152
-1.17291 4.89002 2.17701 -0.34156 -0.0219804 0.939603
1.85192 3.55374 1.59828 0.938214 -0.126041 0.322285
2.54987 6.66369 -1.49284 0.519389 -0.132527 -0.844199
1.23221 8.3665 -2.56121 0.464858 -0.0335065 -0.884751
2.24068 3.70711 0.21309 0.96193 -0.271669 0.0297857
-2.01618 5.38098 1.82569 -0.363282 -0.0336918 0.93107
-1.34378 9.3038 2.14968 -0.308229 -0.00498298 0.951299
-0.0517168 6.94419 2.45498 -0.0883317 -0.0123993 0.996014
