-0.61121 4.17005 -0.208074
-0.61121 4.1566 -0.208074
-0.61121 4.14315 -0.208074
-0.61121 4.1297 -0.208074
-0.661255 4.11075 -0.225111
-0.586138 4.10554 -0.199539
-0.63625 4.08661 -0.216599
-0.63625 4.07317 -0.216599
-0.63625 4.05972 -0.216599
-0.661255 4.04358 -0.225111
-0.63625 4.03284 -0.216599
-0.63625 4.01939 -0.216599
-0.63625 4.00595 -0.216599
-0.61121 3.99518 -0.208074
-0.586138 3.98439 -0.199539
-0.586138 3.97093 -0.199539
-0.63625 3.95218 -0.216599
-0.63625 3.93874 -0.216599
-0.61121 3.92792 -0.208074
-0.61121 3.91447 -0.208074
-0.61121 3.90102 -0.208074
-0.61121 3.88757 -0.208074
-0.63625 3.87152 -0.216599
-0.63625 3.85808 -0.216599
-0.63625 3.84464 -0.216599
-0.63625 3.8312 -0.216599
-0.63625 3.81775 -0.216599
-0.586138 3.8094 -0.199539
-0.61121 3.7934 -0.208074
-0.61121 3.77995 -0.208074
-0.63625 3.76398 -0.216599
-0.63625 3.75054 -0.216599
-0.61121 3.7396 -0.208074
-0.61121 3.72614 -0.208074
-0.63625 3.71021 -0.216599
-0.63625 3.69677 -0.216599
-0.63625 3.68332 -0.216599
-0.61121 3.67234 -0.208074
-0.61121 3.65888 -0.208074
-0.61121 3.64543 -0.208074
-0.586138 3.63441 -0.199539
-0.586138 3.62095 -0.199539
-0.586138 3.60749 -0.199539
-0.61121 3.59163 -0.208074
-0.61121 3.57817 -0.208074
-0.586138 3.56711 -0.199539
-0.586138 3.55365 -0.199539
-0.586138 3.54019 -0.199539
-0.63625 3.52201 -0.216599
-0.63625 3.50857 -0.216599
-0.63625 3.49513 -0.216599
-0.661255 3.47936 -0.225111
-0.63625 3.46824 -0.216599
-0.63625 3.4548 -0.216599
-0.63625 3.44135 -0.216599
-0.63625 3.42791 -0.216599
-0.63625 3.41447 -0.216599
-0.63625 3.40103 -0.216599
-0.63625 3.38758 -0.216599
-0.586138 3.37866 -0.199539
-0.586138 3.3652 -0.199539
-0.586138 3.35174 -0.199539
-0.561031 3.34051 -0.190992
-0.63625 3.32037 -0.216599
-0.63625 3.30693 -0.216599
-0.63625 3.29348 -0.216599
-0.63625 3.28004 -0.216599
-0.63625 3.2666 -0.216599
-0.63625 3.25316 -0.216599
-0.586138 3.24405 -0.199539
-0.586138 3.23059 -0.199539
-0.586138 3.21713 -0.199539
-0.586138 3.20367 -0.199539
-0.61121 3.18807 -0.208074
-0.61121 3.17462 -0.208074
-0.61121 3.16117 -0.208074
-0.686227 3.14142 -0.233612
-0.686227 3.12799 -0.233612
-0.61121 3.12081 -0.208074
-0.586138 3.10944 -0.199539
-0.61121 3.09391 -0.208074
-0.61121 3.08046 -0.208074
-0.586138 3.06906 -0.199539
-0.61121 3.05355 -0.208074
-0.61121 3.0401 -0.208074
-0.760942 3.01456 -0.259048
-0.810586 2.99718 -0.275948
-2.0099 2.88848 -0.68423
-2.0099 2.87553 -0.68423
-2.0099 2.86257 -0.68423
-2.0099 2.84962 -0.68423
-2.0099 2.83667 -0.68423
-2.0099 2.82371 -0.68423
-1.84669 2.82332 -0.628669
-1.94013 2.80315 -0.66048
-1.94013 2.79017 -0.66048
-2.0099 2.7719 -0.68423
-2.0099 2.75895 -0.68423
-1.98667 2.74774 -0.676324
-1.98667 2.73478 -0.676324
-1.96342 2.72355 -0.668407
-1.96342 2.71058 -0.668407
-1.8701 2.7045 -0.636637
-1.94013 2.68635 -0.66048
-1.94013 2.67337 -0.66048
-1.8701 2.66549 -0.636637
-1.8701 2.65249 -0.636637
-1.96342 2.63277 -0.668407
-1.96342 2.6198 -0.668407
-0.526339 10.2439 -0.208394
-0.526339 10.2304 -0.208394
-0.526339 10.217 -0.208394
-0.526339 10.2035 -0.208394
-0.526339 10.19 -0.208394
-0.526339 10.1765 -0.208394
-0.526339 10.163 -0.208394
-0.526339 10.1496 -0.208394
-0.452061 10.1565 -0.178985
-0.501613 10.1294 -0.198604
-0.526339 10.1091 -0.208394
-0.526339 10.0957 -0.208394
-0.526339 10.0822 -0.208394
-0.526339 10.0687 -0.208394
-0.526339 10.0552 -0.208394
-0.526339 10.0417 -0.208394
-0.526339 10.0283 -0.208394
-0.526339 10.0148 -0.208394
-0.501613 10.008 -0.198604
-0.501613 9.99452 -0.198604
-0.600316 9.95432 -0.237684
-0.476854 9.97425 -0.188801
-0.476854 9.96075 -0.188801
-0.476854 9.94725 -0.188801
-0.452061 9.94043 -0.178985
-0.526339 9.90695 -0.208394
-0.526339 9.89347 -0.208394
-0.501613 9.88662 -0.198604
-0.526339 9.86651 -0.208394
-0.452061 9.8729 -0.178985
-0.452061 9.8594 -0.178985
-0.452061 9.84589 -0.178985
-0.57569 9.79945 -0.227933
-0.427235 9.82549 -0.169156
-0.402376 9.81858 -0.159313
-0.402376 9.80506 -0.159313
-0.526339 9.75868 -0.208394
-0.526339 9.7452 -0.208394
-0.600316 9.71219 -0.237684
-0.452061 9.73784 -0.178985
-0.476854 9.7178 -0.188801
-0.501613 9.69779 -0.198604
-0.526339 9.67781 -0.208394
-0.600316 9.64493 -0.237684
-0.402376 9.68334 -0.159313
-0.402376 9.66982 -0.159313
-0.57569 9.611 -0.227933
-0.57569 9.59754 -0.227933
-0.600316 9.57767 -0.237684
-0.600316 9.56422 -0.237684
-0.551031 9.56356 -0.21817
-0.526339 9.5565 -0.208394
-0.452061 9.56227 -0.178985
-0.526339 9.52954 -0.208394
-0.526339 9.51606 -0.208394
-0.526339 9.50258 -0.208394
-0.501613 9.49547 -0.198604
-0.526339 9.47562 -0.208394
-0.526339 9.46215 -0.208394
-0.526339 9.44867 -0.208394
-0.526339 9.43519 -0.208394
-0.526339 9.42171 -0.208394
-0.526339 9.40823 -0.208394
-0.501613 9.40106 -0.198604
-0.551031 9.37499 -0.21817
-0.600316 9.34899 -0.237684
-0.600316 9.33554 -0.237684
-0.600316 9.32209 -0.237684
-0.551031 9.32111 -0.21817
-0.526339 9.31388 -0.208394
-0.526339 9.3004 -0.208394
-0.600316 9.26828 -0.237684
-0.57569 9.26102 -0.227933
-0.57569 9.24756 -0.227933
-0.57569 9.2341 -0.227933
-0.57569 9.22064 -0.227933
-0.57569 9.20718 -0.227933
-0.57569 9.19372 -0.227933
-0.57569 9.18026 -0.227933
-0.57569 9.1668 -0.227933
-0.57569 9.15334 -0.227933
-0.57569 9.13987 -0.227933
-0.57569 9.12641 -0.227933
-0.57569 9.11295 -0.227933
-0.57569 9.09949 -0.227933
-0.57569 9.08603 -0.227933
-0.57569 9.07257 -0.227933
-0.476854 9.08345 -0.188801
-0.476854 9.06995 -0.188801
-0.501613 9.05037 -0.198604
-0.551031 9.02477 -0.21817
-0.526339 9.01734 -0.208394
-0.526339 9.00387 -0.208394
-0.526339 8.99039 -0.208394
-0.501613 8.98293 -0.198604
-0.600316 8.94544 -0.237684
-0.526339 8.94995 -0.208394
-0.526339 8.93647 -0.208394
-0.501613 8.92898 -0.198604
-0.476854 8.92148 -0.188801
-0.476854 8.90799 -0.188801
-0.501613 8.88852 -0.198604
-0.526339 8.86908 -0.208394
-0.600316 8.83782 -0.237684
-0.600316 8.82437 -0.237684
-0.526339 8.82864 -0.208394
-0.526339 8.81516 -0.208394
-0.551031 8.79578 -0.21817
-0.526339 8.7882 -0.208394
-0.501613 8.78061 -0.198604
-0.501613 8.76713 -0.198604
-0.501613 8.75364 -0.198604
-0.501613 8.74015 -0.198604
-0.476854 8.73253 -0.188801
-0.476854 8.71903 -0.188801
-0.476854 8.70553 -0.188801
-0.476854 8.69204 -0.188801
-0.501613 8.67271 -0.198604
-0.501613 8.65922 -0.198604
-0.57569 8.62836 -0.227933
-0.526339 8.62646 -0.208394
-0.526339 8.61298 -0.208394
-0.526339 8.5995 -0.208394
-0.452061 8.60334 -0.178985
-0.526339 8.57254 -0.208394
-0.526339 8.55906 -0.208394
-0.452061 8.56282 -0.178985
-0.452061 8.54931 -0.178985
-0.476854 8.53007 -0.188801
-0.476854 8.51657 -0.188801
-0.476854 8.50308 -0.188801
-0.476854 8.48958 -0.188801
-0.57569 8.45337 -0.227933
-0.600316 8.43427 -0.237684
-0.501613 8.44342 -0.198604
-0.501613 8.42993 -0.198604
-0.551031 8.40516 -0.21817
-0.551031 8.39169 -0.21817
-0.551031 8.37822 -0.21817
-0.551031 8.36475 -0.21817
-0.600316 8.34011 -0.237684
-0.600316 8.32665 -0.237684
-0.624909 8.30764 -0.247421
-0.624909 8.2942 -0.247421
-0.526339 8.30297 -0.208394
-0.526339 8.28949 -0.208394
-0.526339 8.27601 -0.208394
-0.526339 8.26253 -0.208394
-0.526339 8.24905 -0.208394
-0.526339 8.23557 -0.208394
-0.526339 8.22209 -0.208394
-0.526339 8.20861 -0.208394
-0.57569 8.18416 -0.227933
-0.57569 8.1707 -0.227933
-0.57569 8.15724 -0.227933
-0.624909 8.13289 -0.247421
-0.624909 8.11945 -0.247421
-0.600316 8.11142 -0.237684
-0.600316 8.09797 -0.237684
-0.600316 8.08452 -0.237684
-0.57569 8.07647 -0.227933
-0.57569 8.06301 -0.227933
-0.57569 8.04955 -0.227933
-0.57569 8.03609 -0.227933
-0.600316 8.01726 -0.237684
-0.600316 8.00381 -0.237684
-0.600316 7.99036 -0.237684
-0.649469 7.96625 -0.257145
-0.57569 7.96879 -0.227933
-0.57569 7.95533 -0.227933
-0.57569 7.94186 -0.227933
-0.551031 7.93372 -0.21817
-0.57569 7.91494 -0.227933
-0.624909 7.89092 -0.247421
-0.624909 7.87748 -0.247421
-0.624909 7.86403 -0.247421
-0.624909 7.85059 -0.247421
-0.624909 7.83715 -0.247421
-0.624909 7.8237 -0.247421
-0.551031 7.82596 -0.21817
-0.600316 7.80203 -0.237684
-0.600316 7.78858 -0.237684
-0.600316 7.77513 -0.237684
-0.600316 7.76168 -0.237684
-0.551031 7.75861 -0.21817
-0.600316 7.73478 -0.237684
-0.600316 7.72132 -0.237684
-0.551031 7.7182 -0.21817
-0.551031 7.70473 -0.21817
-0.526339 7.69642 -0.208394
-0.600316 7.66752 -0.237684
-0.600316 7.65406 -0.237684
-0.600316 7.64061 -0.237684
-0.600316 7.62716 -0.237684
-0.551031 7.62391 -0.21817
-0.526339 7.61554 -0.208394
-0.526339 7.60207 -0.208394
-0.526339 7.58859 -0.208394
-0.600316 7.5599 -0.237684
-0.600316 7.54645 -0.237684
-0.526339 7.54815 -0.208394
-0.551031 7.52962 -0.21817
-0.600316 7.50609 -0.237684
-0.600316 7.49264 -0.237684
-0.600316 7.47919 -0.237684
-0.526339 7.48076 -0.208394
-0.526339 7.46728 -0.208394
-0.526339 7.4538 -0.208394
-0.501613 7.44531 -0.198604
-0.551031 7.42186 -0.21817
-0.57569 7.40343 -0.227933
-0.57569 7.38997 -0.227933
-0.57569 7.37651 -0.227933
-0.600316 7.35813 -0.237684
-0.551031 7.35451 -0.21817
-0.57569 7.33613 -0.227933
-0.600316 7.31777 -0.237684
-0.600316 7.30432 -0.237684
-0.57569 7.29575 -0.227933
-0.57569 7.28229 -0.227933
-0.57569 7.26883 -0.227933
-0.57569 7.25536 -0.227933
-0.624909 7.23222 -0.247421
-0.624909 7.21878 -0.247421
-0.624909 7.20534 -0.247421
-0.649469 7.18709 -0.257145
-0.649469 7.17366 -0.257145
-0.649469 7.16022 -0.257145
-0.673996 7.14202 -0.266856
-0.673996 7.1286 -0.266856
-0.600316 7.12944 -0.237684
-0.551031 7.12553 -0.21817
-0.649469 7.09305 -0.257145
-0.649469 7.07962 -0.257145
-0.649469 7.06619 -0.257145
-0.649469 7.05275 -0.257145
-1.92842 6.78294 -0.763522
-1.92842 6.76997 -0.763522
-1.92842 6.757 -0.763522
-1.92842 6.74403 -0.763522
-1.92842 6.73106 -0.763522
-1.95126 6.71382 -0.772565
-1.95126 6.70086 -0.772565
-1.95126 6.6879 -0.772565
-1.95126 6.67494 -0.772565
-1.95126 6.66198 -0.772565
-1.95126 6.64902 -0.772565
-1.92842 6.64028 -0.763522
-1.92842 6.62731 -0.763522
-2.01961 6.59756 -0.799625
-2.01961 6.58463 -0.799625
-2.01961 6.57169 -0.799625
-2.01961 6.55875 -0.799625
-1.95126 6.55829 -0.772565
-1.95126 6.54533 -0.772565
-1.97408 6.52822 -0.781597
-1.99686 6.51114 -0.790617
-0.624909 6.74828 -0.247421
-0.624909 6.73484 -0.247421
-0.526339 6.73942 -0.208394
-0.526339 6.72594 -0.208394
-0.526339 6.71246 -0.208394
-0.526339 6.69898 -0.208394
-0.600316 6.67208 -0.237684
-0.600316 6.65863 -0.237684
-0.600316 6.64518 -0.237684
-0.600316 6.63173 -0.237684
-0.600316 6.61828 -0.237684
-0.600316 6.60483 -0.237684
-0.600316 6.59137 -0.237684
-0.57569 6.58232 -0.227933
-0.551031 6.57327 -0.21817
-0.551031 6.5598 -0.21817
-0.551031 6.54633 -0.21817
-0.551031 6.53286 -0.21817
-0.551031 6.51939 -0.21817
-0.551031 6.50592 -0.21817
-0.551031 6.49245 -0.21817
-0.624909 6.46598 -0.247421
-0.624909 6.45254 -0.247421
-0.624909 6.4391 -0.247421
-0.624909 6.42565 -0.247421
-0.624909 6.41221 -0.247421
-0.624909 6.39877 -0.247421
-0.624909 6.38533 -0.247421
-0.624909 6.37188 -0.247421
-0.624909 6.35844 -0.247421
-0.600316 6.34924 -0.237684
-0.600316 6.33579 -0.237684
-0.600316 6.32234 -0.237684
-0.600316 6.30889 -0.237684
-0.600316 6.29543 -0.237684
-0.600316 6.28198 -0.237684
-0.600316 6.26853 -0.237684
-0.600316 6.25508 -0.237684
-0.600316 6.24163 -0.237684
-0.649469 6.21986 -0.257145
-0.649469 6.20642 -0.257145
-0.649469 6.19299 -0.257145
-0.600316 6.18782 -0.237684
-0.600316 6.17437 -0.237684
-0.600316 6.16092 -0.237684
-0.600316 6.14746 -0.237684
-0.600316 6.13401 -0.237684
-0.600316 6.12056 -0.237684
-0.600316 6.10711 -0.237684
-0.600316 6.09366 -0.237684
-0.600316 6.08021 -0.237684
-0.600316 6.06675 -0.237684
-0.57569 6.05735 -0.227933
-0.649469 6.03178 -0.257145
-0.624909 6.02237 -0.247421
-0.624909 6.00893 -0.247421
-0.624909 5.99549 -0.247421
-0.624909 5.98204 -0.247421
-0.624909 5.9686 -0.247421
-0.600316 5.95914 -0.237684
-0.600316 5.94569 -0.237684
-0.600316 5.93224 -0.237684
-0.600316 5.91878 -0.237684
-0.600316 5.90533 -0.237684
-0.624909 5.88794 -0.247421
-0.624909 5.8745 -0.247421
-0.624909 5.86106 -0.247421
-0.624909 5.84761 -0.247421
-0.624909 5.83417 -0.247421
-0.624909 5.82073 -0.247421
-0.624909 5.80729 -0.247421
-0.624909 5.79384 -0.247421
-0.600316 5.78427 -0.237684
-0.600316 5.77081 -0.237684
-0.624909 5.75351 -0.247421
-0.624909 5.74007 -0.247421
-0.624909 5.72663 -0.247421
-0.600316 5.71701 -0.237684
-0.600316 5.70356 -0.237684
-0.624909 5.6863 -0.247421
-0.624909 5.67286 -0.247421
-0.624909 5.65942 -0.247421
-0.600316 5.64975 -0.237684
-0.600316 5.6363 -0.237684
-0.600316 5.62285 -0.237684
-0.624909 5.60564 -0.247421
-0.57569 5.59969 -0.227933
-0.57569 5.58623 -0.227933
-0.57569 5.57277 -0.227933
-0.624909 5.55187 -0.247421
-0.624909 5.53843 -0.247421
-0.624909 5.52499 -0.247421
-0.624909 5.51154 -0.247421
-0.551031 5.50915 -0.21817
-0.624909 5.48466 -0.247421
-0.624909 5.47122 -0.247421
-0.624909 5.45777 -0.247421
-0.624909 5.44433 -0.247421
-0.624909 5.43089 -0.247421
-0.624909 5.41745 -0.247421
-0.624909 5.404 -0.247421
-0.57569 5.39778 -0.227933
-0.600316 5.38071 -0.237684
-0.600316 5.36726 -0.237684
-0.600316 5.35381 -0.237684
-0.600316 5.34036 -0.237684
-0.600316 5.32691 -0.237684
-0.600316 5.31345 -0.237684
-0.624909 5.29646 -0.247421
-0.624909 5.28302 -0.247421
-0.649469 5.26606 -0.257145
-0.649469 5.25262 -0.257145
-0.649469 5.23919 -0.257145
-0.649469 5.22575 -0.257145
-0.624909 5.2158 -0.247421
-0.624909 5.20236 -0.247421
-0.624909 5.18892 -0.247421
-0.649469 5.17202 -0.257145
-0.600316 5.16548 -0.237684
-0.57569 5.15548 -0.227933
-0.57569 5.14202 -0.227933
-0.57569 5.12856 -0.227933
-0.600316 5.11168 -0.237684
-0.600316 5.09823 -0.237684
-0.600316 5.08477 -0.237684
-0.57569 5.07472 -0.227933
-0.600316 5.05787 -0.237684
-0.600316 5.04442 -0.237684
-0.600316 5.03097 -0.237684
-0.551031 5.02424 -0.21817
-0.600316 5.00406 -0.237684
-0.600316 4.99061 -0.237684
-0.551031 4.98383 -0.21817
-0.551031 4.97036 -0.21817
-0.624909 4.94695 -0.247421
-0.624909 4.9335 -0.247421
-0.624909 4.92006 -0.247421
-0.624909 4.90662 -0.247421
-0.624909 4.89318 -0.247421
-0.624909 4.87973 -0.247421
-0.624909 4.86629 -0.247421
-0.624909 4.85285 -0.247421
-0.624909 4.83941 -0.247421
-0.624909 4.82596 -0.247421
-0.624909 4.81252 -0.247421
-0.624909 4.79908 -0.247421
-0.624909 4.78563 -0.247421
-0.624909 4.77219 -0.247421
-0.624909 4.75875 -0.247421
-0.624909 4.74531 -0.247421
-0.624909 4.73186 -0.247421
-0.624909 4.71842 -0.247421
-0.624909 4.70498 -0.247421
-0.624909 4.69153 -0.247421
-0.624909 4.67809 -0.247421
-0.624909 4.66465 -0.247421
-0.624909 4.65121 -0.247421
-0.624909 4.63776 -0.247421
-0.600316 4.62741 -0.237684
-0.600316 4.61396 -0.237684
-0.600316 4.60051 -0.237684
-0.600316 4.58706 -0.237684
-0.600316 4.57361 -0.237684
-0.600316 4.56015 -0.237684
-0.624909 4.54366 -0.247421
-0.624909 4.53022 -0.247421
-0.57569 4.52282 -0.227933
-0.57569 4.50936 -0.227933
-0.57569 4.4959 -0.227933
-0.600316 4.47944 -0.237684
-0.551031 4.47198 -0.21817
-0.600316 4.45254 -0.237684
-0.600316 4.43909 -0.237684
-0.600316 4.42564 -0.237684
-0.600316 4.41218 -0.237684
-0.600316 4.39873 -0.237684
-0.624909 4.38235 -0.247421
-0.624909 4.36891 -0.247421
-0.649469 4.35256 -0.257145
-0.649469 4.33912 -0.257145
-0.649469 4.32569 -0.257145
-0.649469 4.31225 -0.257145
-0.600316 4.30457 -0.237684
-0.600316 4.29112 -0.237684
-0.600316 4.27767 -0.237684
-0.600316 4.26421 -0.237684
-0.600316 4.25076 -0.237684
-0.57569 4.24015 -0.227933
-0.600316 4.22386 -0.237684
-0.600316 4.21041 -0.237684
-0.624909 4.19415 -0.247421
-0.624909 4.18071 -0.247421
-0.624909 4.16727 -0.247421
-0.649469 4.15105 -0.257145
-0.649469 4.13762 -0.257145
-0.649469 4.12418 -0.257145
-0.649469 4.11075 -0.257145
-0.649469 4.09731 -0.257145
-0.624909 4.08661 -0.247421
-0.624909 4.07317 -0.247421
-0.624909 4.05972 -0.247421
-0.624909 4.04628 -0.247421
-0.624909 4.03284 -0.247421
-0.57569 4.02478 -0.227933
-0.624909 4.00595 -0.247421
-0.624909 3.99251 -0.247421
-0.649469 3.97641 -0.257145
-0.649469 3.96298 -0.257145
-0.649469 3.94954 -0.257145
-0.649469 3.93611 -0.257145
-0.649469 3.92267 -0.257145
-0.600316 3.91447 -0.237684
-0.600316 3.90102 -0.237684
-0.600316 3.88757 -0.237684
-0.649469 3.86894 -0.257145
-0.600316 3.86066 -0.237684
-0.57569 3.84979 -0.227933
-0.600316 3.83376 -0.237684
-0.600316 3.82031 -0.237684
-0.600316 3.80685 -0.237684
-0.600316 3.7934 -0.237684
-0.600316 3.77995 -0.237684
-0.57569 3.76902 -0.227933
-0.57569 3.75556 -0.227933
-0.624909 3.7371 -0.247421
-0.600316 3.72614 -0.237684
-0.600316 3.71269 -0.237684
-0.624909 3.69677 -0.247421
-0.624909 3.68332 -0.247421
-0.57569 3.67479 -0.227933
-0.57569 3.66133 -0.227933
-0.624909 3.643 -0.247421
-0.624909 3.62955 -0.247421
-0.600316 3.61853 -0.237684
-0.600316 3.60508 -0.237684
-0.600316 3.59163 -0.237684
-0.624909 3.57578 -0.247421
-0.624909 3.56234 -0.247421
-0.551031 3.55603 -0.21817
-0.551031 3.54256 -0.21817
-0.551031 3.52909 -0.21817
-0.600316 3.51092 -0.237684
-0.600316 3.49746 -0.237684
-0.600316 3.48401 -0.237684
-0.600316 3.47056 -0.237684
-0.526339 3.46406 -0.208394
-0.600316 3.44366 -0.237684
-0.600316 3.4302 -0.237684
-0.600316 3.41675 -0.237684
-0.600316 3.4033 -0.237684
-0.600316 3.38985 -0.237684
-0.600316 3.3764 -0.237684
-0.600316 3.36295 -0.237684
-0.551031 3.35398 -0.21817
-0.624909 3.33381 -0.247421
-0.624909 3.32037 -0.247421
-0.57569 3.31135 -0.227933
-0.624909 3.29348 -0.247421
-0.600316 3.28223 -0.237684
-0.624909 3.2666 -0.247421
-0.624909 3.25316 -0.247421
-0.649469 3.23755 -0.257145
-0.624909 3.22627 -0.247421
-0.600316 3.21498 -0.237684
-0.600316 3.20152 -0.237684
-0.624909 3.18594 -0.247421
-0.600316 3.17462 -0.237684
-0.600316 3.16117 -0.237684
-0.600316 3.14772 -0.237684
-0.600316 3.13427 -0.237684
-0.551031 3.125 -0.21817
-0.624909 3.10528 -0.247421
-0.624909 3.09184 -0.247421
-0.624909 3.0784 -0.247421
-0.624909 3.06496 -0.247421
-0.57569 3.0556 -0.227933
-0.649469 3.03604 -0.257145
-0.649469 3.02261 -0.257145
-0.649469 3.00917 -0.257145
-0.673996 2.99374 -0.266856
-1.97408 2.87553 -0.781597
-1.97408 2.86257 -0.781597
-1.95126 2.85143 -0.772565
-1.92842 2.84027 -0.763522
-1.90555 2.8291 -0.754467
-1.97408 2.81076 -0.781597
-1.95126 2.79959 -0.772565
-1.97408 2.78486 -0.781597
-1.97408 2.7719 -0.781597
-2.01961 2.75545 -0.799625
-2.01961 2.74252 -0.799625
-1.97408 2.73305 -0.781597
-1.97408 2.72009 -0.781597
-1.95126 2.70886 -0.772565
-1.81378 2.70622 -0.718129
-1.95126 2.68294 -0.772565
-1.95126 2.66998 -0.772565
-1.90555 2.6604 -0.754467
-1.92842 2.64574 -0.763522
-1.92842 2.63277 -0.763522
-1.90555 2.62146 -0.754467
-1.92842 2.60683 -0.763522
-1.92842 2.59386 -0.763522
-1.92842 2.58089 -0.763522
-1.90555 2.56955 -0.754467
-0.467062 10.2577 -0.21187
-0.491312 10.2373 -0.222871
-0.491312 10.2238 -0.222871
-0.51553 10.2035 -0.233856
-0.51553 10.19 -0.233856
-0.51553 10.1765 -0.233856
-0.539716 10.1562 -0.244827
-0.539716 10.1428 -0.244827
-0.563869 10.1225 -0.255784
-0.563869 10.1091 -0.255784
-0.442778 10.1295 -0.200854
-0.442778 10.116 -0.200854
-0.51553 10.0822 -0.233856
-0.51553 10.0687 -0.233856
-0.51553 10.0552 -0.233856
-0.51553 10.0417 -0.233856
-0.51553 10.0283 -0.233856
-0.51553 10.0148 -0.233856
-0.51553 10.0013 -0.233856
-0.539716 9.98113 -0.244827
-0.539716 9.96766 -0.244827
-0.539716 9.95419 -0.244827
-0.467062 9.96075 -0.21187
-0.467062 9.94725 -0.21187
-0.563869 9.90714 -0.255784
-0.563869 9.89368 -0.255784
-0.491312 9.90011 -0.222871
-0.51553 9.87999 -0.233856
-0.51553 9.86651 -0.233856
-0.51553 9.85303 -0.233856
-0.51553 9.83955 -0.233856
-0.51553 9.82607 -0.233856
-0.51553 9.8126 -0.233856
-0.51553 9.79912 -0.233856
-0.51553 9.78564 -0.233856
-0.539716 9.76561 -0.244827
-0.539716 9.75214 -0.244827
-0.51553 9.7452 -0.233856
-0.51553 9.73172 -0.233856
-0.539716 9.71173 -0.244827
-0.587989 9.68528 -0.266725
-0.587989 9.67183 -0.266725
-0.442778 9.69733 -0.200854
-0.51553 9.66433 -0.233856
-0.51553 9.65085 -0.233856
-0.51553 9.63737 -0.233856
-0.51553 9.62389 -0.233856
-0.51553 9.61041 -0.233856
-0.587989 9.57767 -0.266725
-0.51553 9.58346 -0.233856
-0.51553 9.56998 -0.233856
-0.491312 9.56291 -0.222871
-0.491312 9.54942 -0.222871
-0.51553 9.52954 -0.233856
-0.539716 9.50968 -0.244827
-0.563869 9.48985 -0.255784
-0.587989 9.47005 -0.266725
-0.587989 9.4566 -0.266725
-0.539716 9.4558 -0.244827
-0.467062 9.46136 -0.21187
-0.467062 9.44786 -0.21187
-0.51553 9.42171 -0.233856
-0.539716 9.40193 -0.244827
-0.539716 9.38846 -0.244827
-0.587989 9.36244 -0.266725
-0.563869 9.35525 -0.255784
-0.563869 9.34179 -0.255784
-0.563869 9.32833 -0.255784
-0.587989 9.30863 -0.266725
-0.587989 9.29518 -0.266725
-0.587989 9.28173 -0.266725
-0.491312 9.29315 -0.222871
-0.491312 9.27967 -0.222871
-0.491312 9.26618 -0.222871
-0.587989 9.22792 -0.266725
-0.587989 9.21447 -0.266725
-0.587989 9.20102 -0.266725
-0.587989 9.18757 -0.266725
-0.587989 9.17412 -0.266725
-0.587989 9.16066 -0.266725
-0.587989 9.14721 -0.266725
-0.587989 9.13376 -0.266725
-0.51553 9.13865 -0.233856
-0.587989 9.10686 -0.266725
-0.563869 9.09949 -0.255784
-0.563869 9.08603 -0.255784
-0.539716 9.07865 -0.244827
-0.491312 9.07735 -0.222871
-0.491312 9.06386 -0.222871
-0.491312 9.05037 -0.222871
-0.491312 9.03688 -0.222871
-0.491312 9.0234 -0.222871
-0.51553 9.00387 -0.233856
-0.51553 8.99039 -0.233856
-0.539716 8.97089 -0.244827
-0.636132 8.93349 -0.288564
-0.612077 8.92601 -0.277652
-0.612077 8.91257 -0.277652
-0.612077 8.89913 -0.277652
-0.587989 8.89163 -0.266725
-0.51553 8.89603 -0.233856
-0.491312 8.88852 -0.222871
-0.51553 8.86908 -0.233856
-0.51553 8.8556 -0.233856
-0.491312 8.84805 -0.222871
-0.491312 8.83457 -0.222871
-0.491312 8.82108 -0.222871
-0.51553 8.80168 -0.233856
-0.51553 8.7882 -0.233856
-0.587989 8.75711 -0.266725
-0.51553 8.76125 -0.233856
-0.51553 8.74777 -0.233856
-0.51553 8.73429 -0.233856
-0.51553 8.72081 -0.233856
-0.491312 8.71318 -0.222871
-0.51553 8.69385 -0.233856
-0.51553 8.68037 -0.233856
-0.539716 8.66109 -0.244827
-0.539716 8.64762 -0.244827
-0.587989 8.62259 -0.266725
-0.51553 8.62646 -0.233856
-0.51553 8.61298 -0.233856
-0.51553 8.5995 -0.233856
-0.51553 8.58602 -0.233856
-0.587989 8.55533 -0.266725
-0.587989 8.54188 -0.266725
-0.587989 8.52843 -0.266725
-0.587989 8.51498 -0.266725
-0.539716 8.51292 -0.244827
-0.539716 8.49945 -0.244827
-0.51553 8.49167 -0.233856
-0.51553 8.47819 -0.233856
-0.491312 8.47039 -0.222871
-0.491312 8.45691 -0.222871
-0.467062 8.44909 -0.21187
-0.467062 8.43559 -0.21187
-0.491312 8.41644 -0.222871
-0.491312 8.40295 -0.222871
-0.491312 8.38947 -0.222871
-0.491312 8.37598 -0.222871
-0.563869 8.34569 -0.255784
-0.563869 8.33223 -0.255784
-0.51553 8.32992 -0.233856
-0.51553 8.31644 -0.233856
-0.51553 8.30297 -0.233856
-0.51553 8.28949 -0.233856
-0.587989 8.25939 -0.266725
-0.563869 8.25146 -0.255784
-0.563869 8.238 -0.255784
-0.612077 8.21355 -0.277652
-0.539716 8.21658 -0.244827
-0.563869 8.19762 -0.255784
-0.539716 8.18964 -0.244827
-0.587989 8.16523 -0.266725
-0.587989 8.15178 -0.266725
-0.587989 8.13833 -0.266725
-0.563869 8.13032 -0.255784
-0.563869 8.11685 -0.255784
-0.539716 8.10882 -0.244827
-0.539716 8.09535 -0.244827
-0.563869 8.07647 -0.255784
-0.563869 8.06301 -0.255784
-0.563869 8.04955 -0.255784
-0.612077 8.02535 -0.277652
-0.612077 8.0119 -0.277652
-0.612077 7.99846 -0.277652
-0.612077 7.98502 -0.277652
-0.612077 7.97158 -0.277652
-0.587989 7.96346 -0.266725
-0.563869 7.95533 -0.255784
-0.587989 7.93655 -0.266725
-0.539716 7.93372 -0.244827
-0.539716 7.92025 -0.244827
-0.539716 7.90678 -0.244827
-0.539716 7.89331 -0.244827
-0.563869 7.87456 -0.255784
-0.539716 7.86637 -0.244827
-0.539716 7.8529 -0.244827
-0.539716 7.83943 -0.244827
-0.539716 7.82596 -0.244827
-0.539716 7.81249 -0.244827
-0.539716 7.79902 -0.244827
-0.587989 7.77513 -0.266725
-0.612077 7.75649 -0.277652
-0.587989 7.74823 -0.266725
-0.660155 7.71929 -0.299462
-0.660155 7.70587 -0.299462
-0.587989 7.70787 -0.266725
-0.587989 7.69442 -0.266725
-0.587989 7.68097 -0.266725
-0.563869 7.67265 -0.255784
-0.539716 7.66432 -0.244827
-0.587989 7.64061 -0.266725
-0.539716 7.63738 -0.244827
-0.563869 7.61881 -0.255784
-0.587989 7.60026 -0.266725
-0.587989 7.58681 -0.266725
-0.587989 7.57335 -0.266725
-0.51553 7.57511 -0.233856
-0.539716 7.55656 -0.244827
-0.539716 7.54309 -0.244827
-0.51553 7.53467 -0.233856
-0.51553 7.52119 -0.233856
-0.51553 7.50771 -0.233856
-0.51553 7.49424 -0.233856
-0.51553 7.48076 -0.233856
-0.539716 7.46227 -0.244827
-0.612077 7.43386 -0.277652
-0.563869 7.43035 -0.255784
-0.563869 7.41689 -0.255784
-0.563869 7.40343 -0.255784
-0.587989 7.38503 -0.266725
-0.587989 7.37158 -0.266725
-0.587989 7.35813 -0.266725
-0.587989 7.34467 -0.266725
-0.587989 7.33122 -0.266725
-0.563869 7.32267 -0.255784
-0.612077 7.29944 -0.277652
-0.587989 7.29087 -0.266725
-0.587989 7.27741 -0.266725
-0.587989 7.26396 -0.266725
-0.587989 7.25051 -0.266725
-0.612077 7.23222 -0.277652
-0.660155 7.20915 -0.299462
-0.587989 7.21016 -0.266725
-0.51553 7.21118 -0.233856
-0.51553 7.1977 -0.233856
-0.684146 7.15068 -0.310344
-0.684146 7.13726 -0.310344
-0.684146 7.12385 -0.310344
-0.660155 7.11517 -0.299462
-0.636132 7.10649 -0.288564
-0.684146 7.0836 -0.310344
-0.684146 7.07018 -0.310344
-0.587989 7.07564 -0.266725
-0.587989 7.06219 -0.266725
-0.684146 7.02993 -0.310344
-1.84399 6.79158 -0.836477
-1.84399 6.77859 -0.836477
-1.84399 6.76561 -0.836477
-1.86642 6.74832 -0.846652
-1.86642 6.73535 -0.846652
-1.86642 6.72237 -0.846652
-1.88882 6.70512 -0.856813
-1.88882 6.69215 -0.856813
-1.88882 6.67918 -0.856813
-1.88882 6.66622 -0.856813
-1.82153 6.66597 -0.82629
-1.82153 6.65298 -0.82629
-1.82153 6.63998 -0.82629
-1.93354 6.60594 -0.877097
-1.93354 6.59299 -0.877097
-1.97814 6.57169 -0.897328
-2.00039 6.5546 -0.907424
-1.77653 6.58341 -0.805874
-0.587989 6.79315 -0.266725
-0.587989 6.7797 -0.266725
-0.612077 6.76172 -0.277652
-0.563869 6.75732 -0.255784
-0.563869 6.74385 -0.255784
-0.612077 6.7214 -0.277652
-0.612077 6.70795 -0.277652
-0.612077 6.69451 -0.277652
-0.612077 6.68107 -0.277652
-0.587989 6.67208 -0.266725
-0.587989 6.65863 -0.266725
-0.563869 6.64963 -0.255784
-0.563869 6.63617 -0.255784
-0.587989 6.61828 -0.266725
-0.587989 6.60483 -0.266725
-0.660155 6.57818 -0.299462
-0.660155 6.56475 -0.299462
-0.612077 6.56008 -0.277652
-0.539716 6.5598 -0.244827
-0.612077 6.5332 -0.277652
-0.587989 6.52411 -0.266725
-0.587989 6.51066 -0.266725
-0.587989 6.49721 -0.266725
-0.612077 6.47943 -0.277652
-0.612077 6.46598 -0.277652
-0.612077 6.45254 -0.277652
-0.612077 6.4391 -0.277652
-0.587989 6.42995 -0.266725
-0.587989 6.4165 -0.266725
-0.587989 6.40305 -0.266725
-0.587989 6.3896 -0.266725
-0.587989 6.37614 -0.266725
-0.563869 6.36695 -0.255784
-0.587989 6.34924 -0.266725
-0.587989 6.33579 -0.266725
-0.563869 6.32657 -0.255784
-0.563869 6.31311 -0.255784
-0.563869 6.29965 -0.255784
-0.539716 6.2904 -0.244827
-0.539716 6.27693 -0.244827
-0.539716 6.26346 -0.244827
-0.684146 6.22498 -0.310344
-0.684146 6.21156 -0.310344
-0.612077 6.21057 -0.277652
-0.612077 6.19713 -0.277652
-0.612077 6.18368 -0.277652
-0.612077 6.17024 -0.277652
-0.612077 6.1568 -0.277652
-0.612077 6.14336 -0.277652
-0.612077 6.12991 -0.277652
-0.612077 6.11647 -0.277652
-0.612077 6.10303 -0.277652
-0.612077 6.08958 -0.277652
-0.612077 6.07614 -0.277652
-0.612077 6.0627 -0.277652
-0.612077 6.04926 -0.277652
-0.612077 6.03581 -0.277652
-0.587989 6.0264 -0.266725
-0.612077 6.00893 -0.277652
-0.612077 5.99549 -0.277652
-0.563869 5.99005 -0.255784
-0.563869 5.97659 -0.255784
-0.612077 5.95516 -0.277652
-0.612077 5.94171 -0.277652
-0.612077 5.92827 -0.277652
-0.636132 5.91088 -0.288564
-0.612077 5.90139 -0.277652
-0.612077 5.88794 -0.277652
-0.587989 5.87843 -0.266725
-0.587989 5.86498 -0.266725
-0.587989 5.85153 -0.266725
-0.587989 5.83807 -0.266725
-0.587989 5.82462 -0.266725
-0.587989 5.81117 -0.266725
-0.563869 5.8016 -0.255784
-0.563869 5.78814 -0.255784
-0.612077 5.76696 -0.277652
-0.612077 5.75351 -0.277652
-0.587989 5.74391 -0.266725
-0.563869 5.7343 -0.255784
-0.539716 5.72467 -0.244827
-0.563869 5.70737 -0.255784
-0.587989 5.6901 -0.266725
-0.587989 5.67665 -0.266725
-0.587989 5.6632 -0.266725
-0.587989 5.64975 -0.266725
-0.563869 5.64007 -0.255784
-0.587989 5.62285 -0.266725
-0.587989 5.60939 -0.266725
-0.612077 5.5922 -0.277652
-0.612077 5.57876 -0.277652
-0.587989 5.56904 -0.266725
-0.587989 5.55559 -0.266725
-0.587989 5.54213 -0.266725
-0.612077 5.52499 -0.277652
-0.587989 5.51523 -0.266725
-0.563869 5.50546 -0.255784
-0.612077 5.48466 -0.277652
-0.612077 5.47122 -0.277652
-0.587989 5.46142 -0.266725
-0.612077 5.44433 -0.277652
-0.612077 5.43089 -0.277652
-0.612077 5.41745 -0.277652
-0.612077 5.404 -0.277652
-0.612077 5.39056 -0.277652
-0.563869 5.38432 -0.255784
-0.612077 5.36367 -0.277652
-0.612077 5.35023 -0.277652
-0.612077 5.33679 -0.277652
-0.612077 5.32335 -0.277652
-0.612077 5.3099 -0.277652
-0.612077 5.29646 -0.277652
-0.612077 5.28302 -0.277652
-0.587989 5.2731 -0.266725
-0.587989 5.25965 -0.266725
-0.587989 5.2462 -0.266725
-0.587989 5.23274 -0.266725
-0.587989 5.21929 -0.266725
-0.587989 5.20584 -0.266725
-0.587989 5.19239 -0.266725
-0.587989 5.17894 -0.266725
-0.587989 5.16548 -0.266725
-0.612077 5.14859 -0.277652
-0.612077 5.13515 -0.277652
-0.636132 5.11828 -0.288564
-0.660155 5.10144 -0.299462
-0.636132 5.09142 -0.288564
-0.612077 5.08138 -0.277652
-0.612077 5.06793 -0.277652
-0.636132 5.05111 -0.288564
-0.684146 5.03096 -0.310344
-0.612077 5.0276 -0.277652
-0.612077 5.01416 -0.277652
-0.612077 5.00072 -0.277652
-0.587989 4.99061 -0.266725
-0.612077 4.97383 -0.277652
-0.612077 4.96039 -0.277652
-0.563869 4.95357 -0.255784
-0.563869 4.94011 -0.255784
-0.612077 4.92006 -0.277652
-0.612077 4.90662 -0.277652
-0.612077 4.89318 -0.277652
-0.612077 4.87973 -0.277652
-0.612077 4.86629 -0.277652
-0.612077 4.85285 -0.277652
-0.636132 4.83617 -0.288564
-0.612077 4.82596 -0.277652
-0.612077 4.81252 -0.277652
-0.612077 4.79908 -0.277652
-0.612077 4.78563 -0.277652
-0.587989 4.77538 -0.266725
-0.612077 4.75875 -0.277652
-0.612077 4.74531 -0.277652
-0.587989 4.73503 -0.266725
-0.587989 4.72158 -0.266725
-0.587989 4.70812 -0.266725
-0.539716 4.70096 -0.244827
-0.539716 4.68749 -0.244827
-0.539716 4.67402 -0.244827
-0.539716 4.66055 -0.244827
-0.539716 4.64708 -0.244827
-0.612077 4.62432 -0.277652
-0.51553 4.62324 -0.233856
-0.563869 4.60359 -0.255784
-0.563869 4.59013 -0.255784
-0.612077 4.57055 -0.277652
-0.612077 4.55711 -0.277652
-0.612077 4.54366 -0.277652
-0.636132 4.5272 -0.288564
-0.563869 4.52282 -0.255784
-0.563869 4.50936 -0.255784
-0.563869 4.4959 -0.255784
-0.539716 4.48545 -0.244827
-0.539716 4.47198 -0.244827
-0.539716 4.45851 -0.244827
-0.612077 4.43612 -0.277652
-0.612077 4.42268 -0.277652
-0.587989 4.41218 -0.266725
-0.587989 4.39873 -0.266725
-0.636132 4.37942 -0.288564
-0.636132 4.36599 -0.288564
-0.660155 4.34965 -0.299462
-0.660155 4.33623 -0.299462
-0.660155 4.3228 -0.299462
-0.684146 4.30651 -0.310344
-0.563869 4.30745 -0.255784
-0.563869 4.29399 -0.255784
-0.563869 4.28053 -0.255784
-0.612077 4.26136 -0.277652
-0.612077 4.24792 -0.277652
-0.636132 4.23165 -0.288564
-0.612077 4.22104 -0.277652
-0.612077 4.20759 -0.277652
-0.636132 4.19135 -0.288564
-0.636132 4.17792 -0.288564
-0.612077 4.16727 -0.277652
-0.612077 4.15382 -0.277652
-0.612077 4.14038 -0.277652
-0.563869 4.13246 -0.255784
-0.563869 4.119 -0.255784
-0.563869 4.10554 -0.255784
-0.563869 4.09208 -0.255784
-0.563869 4.07862 -0.255784
-0.563869 4.06516 -0.255784
-0.587989 4.04899 -0.266725
-0.587989 4.03553 -0.266725
-0.563869 4.02478 -0.255784
-0.563869 4.01131 -0.255784
-0.563869 3.99785 -0.255784
-0.563869 3.98439 -0.255784
-0.539716 3.97359 -0.244827
-0.587989 3.95482 -0.266725
-0.587989 3.94137 -0.266725
-0.587989 3.92792 -0.266725
-0.563869 3.91709 -0.255784
-0.563869 3.90363 -0.255784
-0.563869 3.89017 -0.255784
-0.587989 3.87411 -0.266725
-0.612077 3.85808 -0.277652
-0.612077 3.84464 -0.277652
-0.587989 3.83376 -0.266725
-0.587989 3.82031 -0.266725
-0.563869 3.8094 -0.255784
-0.563869 3.79594 -0.255784
-0.563869 3.78248 -0.255784
-0.612077 3.76398 -0.277652
-0.612077 3.75054 -0.277652
-0.612077 3.7371 -0.277652
-0.612077 3.72365 -0.277652
-0.563869 3.71518 -0.255784
-0.563869 3.70172 -0.255784
-0.587989 3.68579 -0.266725
-0.587989 3.67234 -0.266725
-0.539716 3.66379 -0.244827
-0.612077 3.643 -0.277652
-0.587989 3.63198 -0.266725
-0.587989 3.61853 -0.266725
-0.587989 3.60508 -0.266725
-0.660155 3.58444 -0.299462
-0.660155 3.57101 -0.299462
-0.660155 3.55759 -0.299462
-0.684146 3.5418 -0.310344
-0.587989 3.53782 -0.266725
-0.660155 3.51731 -0.299462
-0.660155 3.50389 -0.299462
-0.636132 3.49279 -0.288564
-0.636132 3.47936 -0.288564
-0.636132 3.46592 -0.288564
-0.636132 3.45249 -0.288564
-0.587989 3.44366 -0.266725
-0.587989 3.4302 -0.266725
-0.660155 3.40991 -0.299462
-0.660155 3.39649 -0.299462
-0.660155 3.38306 -0.299462
-0.660155 3.36964 -0.299462
-0.563869 3.3652 -0.255784
-0.587989 3.34949 -0.266725
-0.587989 3.33604 -0.266725
-0.587989 3.32259 -0.266725
-0.587989 3.30914 -0.266725
-0.587989 3.29569 -0.266725
-0.587989 3.28223 -0.266725
-0.587989 3.26878 -0.266725
-0.563869 3.25751 -0.255784
-0.563869 3.24405 -0.255784
-0.612077 3.22627 -0.277652
-0.612077 3.21283 -0.277652
-0.612077 3.19938 -0.277652
-0.612077 3.18594 -0.277652
-0.612077 3.1725 -0.277652
-0.612077 3.15906 -0.277652
-0.612077 3.14561 -0.277652
-0.612077 3.13217 -0.277652
-0.587989 3.12081 -0.266725
-0.587989 3.10736 -0.266725
-0.563869 3.09598 -0.255784
-0.587989 3.08046 -0.266725
-0.587989 3.06701 -0.266725
-0.636132 3.04948 -0.288564
-0.660155 3.03402 -0.299462
-0.636132 3.02261 -0.288564
-0.612077 3.01119 -0.277652
-0.612077 2.99774 -0.277652
-0.708105 2.97635 -0.321213
-1.91119 2.86439 -0.866962
-1.86642 2.85506 -0.846652
-1.86642 2.84208 -0.846652
-1.88882 2.82731 -0.856813
-1.93354 2.81076 -0.877097
-1.95585 2.79603 -0.887219
-1.95585 2.78309 -0.887219
-1.93354 2.7719 -0.877097
-1.93354 2.75895 -0.877097
-1.86642 2.75124 -0.846652
-1.86642 2.73826 -0.846652
-1.88882 2.72355 -0.856813
-1.88882 2.71058 -0.856813
-1.86642 2.69933 -0.846652
-1.91119 2.68294 -0.866962
-1.93354 2.66828 -0.877097
-1.84399 2.66209 -0.836477
-1.82153 2.65079 -0.82629
-1.79905 2.63948 -0.816089
-1.79905 2.62648 -0.816089
-1.93354 2.60352 -0.877097
-1.77653 2.60214 -0.805874
-0.503491 10.2439 -0.258761
-0.527112 10.2236 -0.2709
-0.503491 10.217 -0.258761
-0.503491 10.2035 -0.258761
-0.503491 10.19 -0.258761
-0.503491 10.1765 -0.258761
-0.503491 10.163 -0.258761
-0.503491 10.1496 -0.258761
-0.432438 10.1565 -0.222244
-0.432438 10.143 -0.222244
-0.527112 10.1024 -0.2709
-0.527112 10.0889 -0.2709
-0.5507 10.0687 -0.283023
-0.527112 10.0619 -0.2709
-0.527112 10.0485 -0.2709
-0.574257 10.0216 -0.29513
-0.503491 10.0283 -0.258761
-0.503491 10.0148 -0.258761
-0.503491 10.0013 -0.258761
-0.503491 9.98782 -0.258761
-0.503491 9.97434 -0.258761
-0.503491 9.96086 -0.258761
-0.479839 9.95406 -0.246605
-0.479839 9.94057 -0.246605
-0.432438 9.94043 -0.222244
-0.456154 9.92026 -0.234433
-0.456154 9.90676 -0.234433
-0.456154 9.89326 -0.234433
-0.432438 9.88641 -0.222244
-0.456154 9.86627 -0.234433
-0.456154 9.85277 -0.234433
-0.456154 9.83928 -0.234433
-0.432438 9.83239 -0.222244
-0.432438 9.81888 -0.222244
-0.503491 9.78564 -0.258761
-0.503491 9.77216 -0.258761
-0.503491 9.75868 -0.258761
-0.503491 9.7452 -0.258761
-0.503491 9.73172 -0.258761
-0.527112 9.71173 -0.2709
-0.5507 9.69177 -0.283023
-0.5507 9.67831 -0.283023
-0.597783 9.65192 -0.30722
-0.597783 9.63848 -0.30722
-0.597783 9.62504 -0.30722
-0.597783 9.6116 -0.30722
-0.574257 9.60457 -0.29513
-0.574257 9.59112 -0.29513
-0.574257 9.57767 -0.29513
-0.574257 9.56422 -0.29513
-0.574257 9.55077 -0.29513
-0.479839 9.56291 -0.246605
-0.456154 9.55584 -0.234433
-0.456154 9.54234 -0.234433
-0.456154 9.52885 -0.234433
-0.479839 9.50896 -0.246605
-0.432438 9.50824 -0.222244
-0.432438 9.49474 -0.222244
-0.574257 9.44315 -0.29513
-0.574257 9.4297 -0.29513
-0.527112 9.42886 -0.2709
-0.527112 9.41539 -0.2709
-0.527112 9.40193 -0.2709
-0.621276 9.36337 -0.319295
-0.621276 9.34994 -0.319295
-0.597783 9.34274 -0.30722
-0.5507 9.34179 -0.283023
-0.5507 9.32833 -0.283023
-0.5507 9.31487 -0.283023
-0.574257 9.29518 -0.29513
-0.574257 9.28173 -0.29513
-0.597783 9.26208 -0.30722
-0.503491 9.27344 -0.258761
-0.503491 9.25996 -0.258761
-0.574257 9.22792 -0.29513
-0.574257 9.21447 -0.29513
-0.574257 9.20102 -0.29513
-0.574257 9.18757 -0.29513
-0.621276 9.16186 -0.319295
-0.621276 9.14843 -0.319295
-0.574257 9.14721 -0.29513
-0.574257 9.13376 -0.29513
-0.574257 9.12031 -0.29513
-0.5507 9.11295 -0.283023
-0.503491 9.1117 -0.258761
-0.503491 9.09822 -0.258761
-0.503491 9.08474 -0.258761
-0.503491 9.07126 -0.258761
-0.479839 9.06386 -0.246605
-0.479839 9.05037 -0.246605
-0.479839 9.03688 -0.246605
-0.479839 9.0234 -0.246605
-0.479839 9.00991 -0.246605
-0.503491 8.99039 -0.258761
-0.527112 8.97089 -0.2709
-0.527112 8.95742 -0.2709
-0.527112 8.94395 -0.2709
-0.527112 8.93048 -0.2709
-0.503491 8.92299 -0.258761
-0.597783 8.88568 -0.30722
-0.597783 8.87224 -0.30722
-0.597783 8.8588 -0.30722
-0.597783 8.84536 -0.30722
-0.597783 8.83191 -0.30722
-0.597783 8.81847 -0.30722
-0.597783 8.80503 -0.30722
-0.597783 8.79159 -0.30722
-0.527112 8.79578 -0.2709
-0.527112 8.78231 -0.2709
-0.597783 8.75126 -0.30722
-0.527112 8.75537 -0.2709
-0.527112 8.7419 -0.2709
-0.503491 8.73429 -0.258761
-0.503491 8.72081 -0.258761
-0.574257 8.68985 -0.29513
-0.574257 8.6764 -0.29513
-0.574257 8.66295 -0.29513
-0.574257 8.6495 -0.29513
-0.574257 8.63604 -0.29513
-0.597783 8.61683 -0.30722
-0.574257 8.60914 -0.29513
-0.527112 8.60721 -0.2709
-0.527112 8.59374 -0.2709
-0.527112 8.58027 -0.2709
-0.527112 8.5668 -0.2709
-0.574257 8.54188 -0.29513
-0.621276 8.51704 -0.319295
-0.5507 8.52068 -0.283023
-0.574257 8.50153 -0.29513
-0.574257 8.48807 -0.29513
-0.574257 8.47462 -0.29513
-0.597783 8.45552 -0.30722
-0.621276 8.43644 -0.319295
-0.644739 8.41738 -0.331353
-0.644739 8.40396 -0.331353
-0.503491 8.42428 -0.258761
-0.503491 8.4108 -0.258761
-0.503491 8.39732 -0.258761
-0.503491 8.38384 -0.258761
-0.503491 8.37036 -0.258761
-0.527112 8.35128 -0.2709
-0.527112 8.33781 -0.2709
-0.503491 8.32992 -0.258761
-0.503491 8.31644 -0.258761
-0.503491 8.30297 -0.258761
-0.503491 8.28949 -0.258761
-0.503491 8.27601 -0.258761
-0.5507 8.25146 -0.283023
-0.5507 8.238 -0.283023
-0.5507 8.22454 -0.283023
-0.574257 8.20559 -0.29513
-0.574257 8.19214 -0.29513
-0.574257 8.17868 -0.29513
-0.668169 8.14345 -0.343394
-0.644739 8.13546 -0.331353
-0.644739 8.12204 -0.331353
-0.574257 8.12488 -0.29513
-0.574257 8.11142 -0.29513
-0.597783 8.09256 -0.30722
-0.574257 8.08452 -0.29513
-0.574257 8.07107 -0.29513
-0.644739 8.04149 -0.331353
-0.621276 8.03342 -0.319295
-0.621276 8.01999 -0.319295
-0.621276 8.00655 -0.319295
-0.503491 8.01991 -0.258761
-0.527112 8.00107 -0.2709
-0.574257 7.97691 -0.29513
-0.574257 7.96346 -0.29513
-0.574257 7.95 -0.29513
-0.574257 7.93655 -0.29513
-0.574257 7.9231 -0.29513
-0.5507 7.91494 -0.283023
-0.5507 7.90148 -0.283023
-0.597783 7.87748 -0.30722
-0.597783 7.86403 -0.30722
-0.597783 7.85059 -0.30722
-0.597783 7.83715 -0.30722
-0.5507 7.83418 -0.283023
-0.5507 7.82072 -0.283023
-0.574257 7.80203 -0.29513
-0.574257 7.78858 -0.29513
-0.574257 7.77513 -0.29513
-0.5507 7.76687 -0.283023
-0.597783 7.74305 -0.30722
-0.597783 7.72961 -0.30722
-0.597783 7.71616 -0.30722
-0.597783 7.70272 -0.30722
-0.5507 7.69957 -0.283023
-0.5507 7.68611 -0.283023
-0.5507 7.67265 -0.283023
-0.597783 7.64895 -0.30722
-0.5507 7.64573 -0.283023
-0.5507 7.63227 -0.283023
-0.5507 7.61881 -0.283023
-0.527112 7.61044 -0.2709
-0.527112 7.59697 -0.2709
-0.527112 7.5835 -0.2709
-0.5507 7.56496 -0.283023
-0.5507 7.5515 -0.283023
-0.5507 7.53804 -0.283023
-0.5507 7.52458 -0.283023
-0.5507 7.51112 -0.283023
-0.5507 7.49766 -0.283023
-0.5507 7.4842 -0.283023
-0.5507 7.47074 -0.283023
-0.5507 7.45728 -0.283023
-0.5507 7.44382 -0.283023
-0.574257 7.42538 -0.29513
-0.574257 7.41193 -0.29513
-0.597783 7.39354 -0.30722
-0.597783 7.38009 -0.30722
-0.597783 7.36665 -0.30722
-0.597783 7.35321 -0.30722
-0.597783 7.33976 -0.30722
-0.597783 7.32632 -0.30722
-0.597783 7.31288 -0.30722
-0.597783 7.29944 -0.30722
-0.597783 7.28599 -0.30722
-0.5507 7.28229 -0.283023
-0.5507 7.26883 -0.283023
-0.597783 7.24566 -0.30722
-0.574257 7.23706 -0.29513
-0.574257 7.22361 -0.29513
-0.597783 7.20534 -0.30722
-0.597783 7.19189 -0.30722
-0.621276 7.17366 -0.319295
-0.621276 7.16022 -0.319295
-0.597783 7.15157 -0.30722
-0.574257 7.1429 -0.29513
-0.597783 7.12468 -0.30722
-0.621276 7.10649 -0.319295
-0.527112 7.11206 -0.2709
-0.527112 7.09859 -0.2709
-0.761579 7.03801 -0.391401
-0.761579 7.02463 -0.391401
-0.761579 7.01125 -0.391401
-1.88838 6.77433 -0.970503
-1.779 6.78292 -0.914285
-1.95368 6.7356 -1.00406
-1.82284 6.74832 -0.936816
-1.80093 6.73964 -0.925558
-1.84471 6.71809 -0.948059
-1.84471 6.70512 -0.948059
-1.84471 6.69215 -0.948059
-1.84471 6.67918 -0.948059
-1.84471 6.66622 -0.948059
-1.86656 6.64902 -0.959288
-1.86656 6.63606 -0.959288
-1.86656 6.6231 -0.959288
-1.91018 6.60175 -0.981703
-1.93194 6.58463 -0.992888
-1.93194 6.57169 -0.992888
-1.93194 6.55875 -0.992888
-1.88838 6.55413 -0.970503
-1.86656 6.54533 -0.959288
-0.503491 6.79334 -0.258761
-0.5507 6.77078 -0.283023
-0.5507 6.75732 -0.283023
-0.5507 6.74385 -0.283023
-0.5507 6.73039 -0.283023
-0.5507 6.71693 -0.283023
-0.5507 6.70347 -0.283023
-0.5507 6.69001 -0.283023
-0.5507 6.67655 -0.283023
-0.574257 6.65863 -0.29513
-0.574257 6.64518 -0.29513
-0.574257 6.63173 -0.29513
-0.5507 6.62271 -0.283023
-0.5507 6.60925 -0.283023
-0.574257 6.59137 -0.29513
-0.574257 6.57792 -0.29513
-0.5507 6.56886 -0.283023
-0.597783 6.54664 -0.30722
-0.597783 6.5332 -0.30722
-0.597783 6.51975 -0.30722
-0.597783 6.50631 -0.30722
-0.597783 6.49287 -0.30722
-0.597783 6.47943 -0.30722
-0.597783 6.46598 -0.30722
-0.574257 6.45686 -0.29513
-0.574257 6.4434 -0.29513
-0.5507 6.43426 -0.283023
-0.574257 6.4165 -0.29513
-0.621276 6.3945 -0.319295
-0.621276 6.38106 -0.319295
-0.644739 6.36338 -0.331353
-0.5507 6.36695 -0.283023
-0.574257 6.34924 -0.29513
-0.574257 6.33579 -0.29513
-0.574257 6.32234 -0.29513
-0.5507 6.31311 -0.283023
-0.5507 6.29965 -0.283023
-0.5507 6.28619 -0.283023
-0.574257 6.26853 -0.29513
-0.574257 6.25508 -0.29513
-0.527112 6.24999 -0.2709
-0.574257 6.22818 -0.29513
-0.574257 6.21472 -0.29513
-0.574257 6.20127 -0.29513
-0.574257 6.18782 -0.29513
-0.574257 6.17437 -0.29513
-0.621276 6.15269 -0.319295
-0.574257 6.14746 -0.29513
-0.597783 6.12991 -0.30722
-0.574257 6.12056 -0.29513
-0.597783 6.10303 -0.30722
-0.597783 6.08958 -0.30722
-0.597783 6.07614 -0.30722
-0.597783 6.0627 -0.30722
-0.5507 6.05735 -0.283023
-0.597783 6.03581 -0.30722
-0.621276 6.01835 -0.319295
-0.621276 6.00492 -0.319295
-0.621276 5.99148 -0.319295
-0.621276 5.97805 -0.319295
-0.597783 5.9686 -0.30722
-0.621276 5.95118 -0.319295
-0.597783 5.94171 -0.30722
-0.597783 5.92827 -0.30722
-0.644739 5.90694 -0.331353
-0.644739 5.89351 -0.331353
-0.644739 5.88009 -0.331353
-0.574257 5.87843 -0.29513
-0.574257 5.86498 -0.29513
-0.574257 5.85153 -0.29513
-0.574257 5.83807 -0.29513
-0.597783 5.82073 -0.30722
-0.597783 5.80729 -0.30722
-0.597783 5.79384 -0.30722
-0.574257 5.78427 -0.29513
-0.574257 5.77081 -0.29513
-0.574257 5.75736 -0.29513
-0.574257 5.74391 -0.29513
-0.574257 5.73046 -0.29513
-0.574257 5.71701 -0.29513
-0.574257 5.70356 -0.29513
-0.597783 5.6863 -0.30722
-0.597783 5.67286 -0.30722
-0.597783 5.65942 -0.30722
-0.574257 5.64975 -0.29513
-0.574257 5.6363 -0.29513
-0.574257 5.62285 -0.29513
-0.597783 5.60564 -0.30722
-0.574257 5.59594 -0.29513
-0.574257 5.58249 -0.29513
-0.574257 5.56904 -0.29513
-0.574257 5.55559 -0.29513
-0.574257 5.54213 -0.29513
-0.574257 5.52868 -0.29513
-0.5507 5.51892 -0.283023
-0.5507 5.50546 -0.283023
-0.574257 5.48833 -0.29513
-0.574257 5.47488 -0.29513
-0.574257 5.46142 -0.29513
-0.574257 5.44797 -0.29513
-0.574257 5.43452 -0.29513
-0.574257 5.42107 -0.29513
-0.574257 5.40762 -0.29513
-0.574257 5.39416 -0.29513
-0.597783 5.37712 -0.30722
-0.597783 5.36367 -0.30722
-0.597783 5.35023 -0.30722
-0.597783 5.33679 -0.30722
-0.597783 5.32335 -0.30722
-0.597783 5.3099 -0.30722
-0.597783 5.29646 -0.30722
-0.597783 5.28302 -0.30722
-0.597783 5.26957 -0.30722
-0.597783 5.25613 -0.30722
-0.597783 5.24269 -0.30722
-0.597783 5.22925 -0.30722
-0.597783 5.2158 -0.30722
-0.597783 5.20236 -0.30722
-0.574257 5.19239 -0.29513
-0.574257 5.17894 -0.29513
-0.621276 5.15859 -0.319295
-0.621276 5.14515 -0.319295
-0.574257 5.13858 -0.29513
-0.574257 5.12513 -0.29513
-0.574257 5.11168 -0.29513
-0.574257 5.09823 -0.29513
-0.574257 5.08477 -0.29513
-0.574257 5.07132 -0.29513
-0.597783 5.05449 -0.30722
-0.621276 5.03768 -0.319295
-0.621276 5.02425 -0.319295
-0.597783 5.01416 -0.30722
-0.597783 5.00072 -0.30722
-0.597783 4.98728 -0.30722
-0.597783 4.97383 -0.30722
-0.574257 4.96371 -0.29513
-0.574257 4.95026 -0.29513
-0.574257 4.9368 -0.29513
-0.5507 4.92665 -0.283023
-0.574257 4.9099 -0.29513
-0.574257 4.89645 -0.29513
-0.574257 4.883 -0.29513
-0.597783 4.86629 -0.30722
-0.597783 4.85285 -0.30722
-0.574257 4.84264 -0.29513
-0.574257 4.82919 -0.29513
-0.574257 4.81574 -0.29513
-0.574257 4.80229 -0.29513
-0.574257 4.78883 -0.29513
-0.574257 4.77538 -0.29513
-0.574257 4.76193 -0.29513
-0.574257 4.74848 -0.29513
-0.527112 4.74137 -0.2709
-0.597783 4.71842 -0.30722
-0.597783 4.70498 -0.30722
-0.597783 4.69153 -0.30722
-0.597783 4.67809 -0.30722
-0.597783 4.66465 -0.30722
-0.597783 4.65121 -0.30722
-0.597783 4.63776 -0.30722
-0.574257 4.62741 -0.29513
-0.574257 4.61396 -0.29513
-0.5507 4.60359 -0.283023
-0.5507 4.59013 -0.283023
-0.574257 4.57361 -0.29513
-0.574257 4.56015 -0.29513
-0.574257 4.5467 -0.29513
-0.574257 4.53325 -0.29513
-0.574257 4.5198 -0.29513
-0.574257 4.50635 -0.29513
-0.574257 4.4929 -0.29513
-0.5507 4.48244 -0.283023
-0.574257 4.46599 -0.29513
-0.574257 4.45254 -0.29513
-0.574257 4.43909 -0.29513
-0.5507 4.4286 -0.283023
-0.574257 4.41218 -0.29513
-0.574257 4.39873 -0.29513
-0.574257 4.38528 -0.29513
-0.574257 4.37183 -0.29513
-0.574257 4.35838 -0.29513
-0.5507 4.34783 -0.283023
-0.574257 4.33147 -0.29513
-0.574257 4.31802 -0.29513
-0.691569 4.29023 -0.35542
-0.691569 4.27682 -0.35542
-0.597783 4.27481 -0.30722
-0.597783 4.26136 -0.30722
-0.597783 4.24792 -0.30722
-0.597783 4.23448 -0.30722
-0.597783 4.22104 -0.30722
-0.597783 4.20759 -0.30722
-0.574257 4.19696 -0.29513
-0.644739 4.17513 -0.331353
-0.668169 4.15893 -0.343394
-0.574257 4.1566 -0.29513
-0.574257 4.14315 -0.29513
-0.574257 4.1297 -0.29513
-0.574257 4.11625 -0.29513
-0.574257 4.10279 -0.29513
-0.5507 4.09208 -0.283023
-0.5507 4.07862 -0.283023
-0.527112 4.06788 -0.2709
-0.527112 4.05441 -0.2709
-0.5507 4.03824 -0.283023
-0.5507 4.02478 -0.283023
-0.574257 4.00863 -0.29513
-0.574257 3.99518 -0.29513
-0.644739 3.97376 -0.331353
-0.644739 3.96033 -0.331353
-0.574257 3.95482 -0.29513
-0.574257 3.94137 -0.29513
-0.574257 3.92792 -0.29513
-0.574257 3.91447 -0.29513
-0.574257 3.90102 -0.29513
-0.574257 3.88757 -0.29513
-0.5507 3.87671 -0.283023
-0.5507 3.86325 -0.283023
-0.597783 3.84464 -0.30722
-0.597783 3.8312 -0.30722
-0.597783 3.81775 -0.30722
-0.597783 3.80431 -0.30722
-0.597783 3.79087 -0.30722
-0.574257 3.77995 -0.29513
-0.621276 3.76147 -0.319295
-0.597783 3.75054 -0.30722
-0.597783 3.7371 -0.30722
-0.597783 3.72365 -0.30722
-0.597783 3.71021 -0.30722
-0.597783 3.69677 -0.30722
-0.597783 3.68332 -0.30722
-0.597783 3.66988 -0.30722
-0.574257 3.65888 -0.29513
-0.574257 3.64543 -0.29513
-0.574257 3.63198 -0.29513
-0.574257 3.61853 -0.29513
-0.574257 3.60508 -0.29513
-0.597783 3.58923 -0.30722
-0.621276 3.57339 -0.319295
-0.621276 3.55996 -0.319295
-0.597783 3.5489 -0.30722
-0.597783 3.53545 -0.30722
-0.597783 3.52201 -0.30722
-0.597783 3.50857 -0.30722
-0.597783 3.49513 -0.30722
-0.597783 3.48168 -0.30722
-0.597783 3.46824 -0.30722
-0.597783 3.4548 -0.30722
-0.621276 3.43906 -0.319295
-0.621276 3.42562 -0.319295
-0.621276 3.41219 -0.319295
-0.597783 3.40103 -0.30722
-0.597783 3.38758 -0.30722
-0.597783 3.37414 -0.30722
-0.597783 3.3607 -0.30722
-0.574257 3.34949 -0.29513
-0.574257 3.33604 -0.29513
-0.574257 3.32259 -0.29513
-0.574257 3.30914 -0.29513
-0.574257 3.29569 -0.29513
-0.574257 3.28223 -0.29513
-0.574257 3.26878 -0.29513
-0.574257 3.25533 -0.29513
