160.609 125.134 -150.932
33.4626 26.8398 -51.4318
202.042 82.439 -239.22
190.703 93.4198 -211.91
152.25 82.485 -175.651
137.474 100.207 -152.251
136.878 107.045 -154.7
138.25 101.214 -151.338
-5.66902 -6.46356 -12.4743
134.41 86.6241 -160.6
-5.6689 -6.46333 -12.474
161.463 125.729 -152.227
201.075 83.1601 -238.257
-5.66898 -6.46364 -12.4743
121.345 134.743 -172.876
154.567 48.6785 -268.382
161.486 118.815 -149.022
-5.66904 -6.46358 -12.4741
-5.66892 -6.46359 -12.4745
-5.66889 -6.46369 -12.4744
-5.66881 -6.46352 -12.474
-5.66914 -6.46344 -12.4741
139.761 106.063 -152.633
-5.66911 -6.46353 -12.4741
-5.66886 -6.46352 -12.474
-5.66904 -6.46347 -12.4743
155.447 105.182 -146.557
137.089 116.188 -158.316
165.154 112.44 -145.085
105.547 107.682 -169.219
130.879 123.41 -163.689
-5.66913 -6.46349 -12.474
127.822 119.597 -163.951
-5.66892 -6.46366 -12.4743
153.64 88.2081 -163.061
-5.66909 -6.46348 -12.474
-5.66898 -6.46346 -12.474
126.847 83.2429 -165.26
205.835 67.7217 -236.884
146.332 116.159 -154.141
136.961 125.079 -161.575
197.588 72.183 -214.362
135.578 84.3393 -165.161
76.1352 80.9491 -114.142
-5.66904 -6.46359 -12.4742
162.929 98.4718 -146.298
183.884 83.4318 -185.775
129.017 76.2859 -180.469
177.962 68.4407 -213.316
147.902 93.9431 -149.482
-5.66898 -6.46366 -12.4743
131.609 74.7762 -186.321
114.944 94.6067 -161.374
-5.66898 -6.46351 -12.4744
146.93 103.308 -149.192
125.561 104.119 -156.884
-5.66894 -6.4636 -12.4745
176.956 87.9188 -175.995
-5.66884 -6.46333 -12.4739
-5.66885 -6.46338 -12.4739
118.671 88.5388 -129.24
200.575 87.1399 -237.067
154.573 84.9313 -170.093
-5.66909 -6.46355 -12.4741
134.881 91.6713 -122.971
126.963 94.0521 -155.569
-5.66891 -6.46369 -12.4744
145.268 108.382 -151.528
90.0677 56.5129 -112.828
121.492 80.6604 -170.316
183.244 104.437 -194.73
-5.66895 -6.46363 -12.4742
129.562 69.9023 -195.397
173.226 105.254 -158.752
135.167 85.3861 -163.701
119.147 81.1946 -168.391
197.646 85.9202 -228.82
131.494 152 -176.213
159.54 127.441 -152.818
177.224 76.4683 -195.539
130.002 79.4454 -174.376
-5.66905 -6.46338 -12.474
-5.66894 -6.46359 -12.4745
123.382 114.662 -163.988
-5.66897 -6.46366 -12.4743
-5.66881 -6.46348 -12.4739
179.696 85.1962 -185.542
-5.66891 -6.46351 -12.474
142.139 125.406 -158.504
114.569 113.259 -168.452
197.232 59.1368 -240.864
188.339 95.8994 -206.295
161.658 81.9692 -181.09
125.945 89.8466 -155.235
160.598 81.1021 -183.826
117.254 107.027 -163.473
162.987 95.7712 -151.114
157.889 116.609 -150.142
-5.66909 -6.46357 -12.4741
108.607 88.0716 -162.376
166.439 89.8998 -163.816
-5.66907 -6.46344 -12.4742
-5.66889 -6.46331 -12.474
128.188 91.642 -154.821
123.672 84.2776 -166.459
37.8966 35.2177 -52.0277
85.3756 56.1039 -109.874
122.766 98.8702 -158.344
144.559 83.0301 -170.443
31.8382 25.6479 -310.184
105.907 93.7037 -164.48
190.712 91.3332 -211.398
171.221 79.2208 -191.596
-5.66888 -6.46371 -12.4744
148.961 120.263 -153.956
161.968 127.896 -152.942
52.3101 30.3301 -46.6685
138.298 94.3766 -150.993
109.114 111.41 -169.671
109.733 93.4583 -162.726
90.0354 105.465 -148.691
86.5746 62.3373 -102.172
152.846 87.6761 -165.741
165.564 88.1154 -167.208
128.344 92.2363 -154.462
125.182 116.804 -165.163
145.973 97.3947 -148.676
166.404 122.201 -151.596
140.495 58.7444 -229.881
81.0354 51.5811 -122.134
82.2237 51.0458 -123.63
114.722 97.0584 -161.727
166.777 79.9834 -188.657
125.484 99.8706 -158.427
168.245 80.1549 -189.125
105.964 84.1999 -162.722
200.076 84.3892 -233.867
110.324 86.4769 -179.362
96.399 68.1981 -99.5829
179.495 78.7908 -198.578
-5.66909 -6.46354 -12.4741
-5.66904 -6.46358 -12.4742
191.146 93.4039 -212.723
132.125 89.0614 -155.493
-5.66902 -6.46354 -12.474
-5.66914 -6.4634 -12.4741
192.59 103.845 -228.587
159.295 85.9149 -169.96
116.77 114.07 -166.992
131.919 79.3723 -227.6
96.8959 60.574 -103.452
154.494 105.349 -147.012
182.198 93.6142 -179.562
107.008 65.2856 -96.2613
147.296 119.385 -155.198
196.764 79.5515 -218.184
-5.66886 -6.46334 -12.4739
-5.66901 -6.46361 -12.4742
166.207 118.56 -149.094
187.033 89.3944 -193.021
119.881 141.879 -176.223
-5.66908 -6.46345 -12.4742
167.414 90.9282 -165.075
167.258 80.8873 -187.418
156.707 86.0244 -169.065
-4.65709 57.738 -311.984
142.826 160.683 -175.219
-5.66886 -6.46328 -12.474
179.617 78.6812 -194.399
-5.6691 -6.46345 -12.4742
-5.66909 -6.46353 -12.474
165.758 79.1511 -189.117
163.461 98.7292 -146.352
122.365 97.5836 -156.288
70.9719 71.1571 -121.358
163.915 98.5935 -146.545
145.286 118.907 -155.588
-5.66913 -6.46346 -12.474
172.4 98.0196 -152.655
-0.701032 -18.4628 -384.844
145.738 111.874 -152.824
195.916 70.9805 -221.455
158.156 55.9013 -242.113
105.043 62.9611 -100.184
186.505 95.0053 -198.843
176.288 99.3811 -166.353
85.1264 71.8247 -107.072
204.103 80.6005 -244.361
-5.66891 -6.46363 -12.4742
79.3277 54.1441 -115.235
139.479 60.7715 -226.862
127.902 92.8121 -154.615
140.198 68.3726 -203.883
-5.66905 -6.46358 -12.4741
145.119 112.359 -153.84
186.538 106.851 -210.138
-5.66878 -6.4635 -12.474
97.9919 60.0851 -104.534
-5.66899 -6.46361 -12.4742
172.783 100.593 -152.856
-5.66892 -6.46362 -12.4742
146.155 115.772 -154.159
122.875 159.573 -184.246
108.72 94.5256 -163.846
164.084 60.7153 -229.431
155.154 53.6782 -245.32
184.405 80.6768 -197.883
147.733 146.721 -166.159
126.592 88.8843 -155.28
-5.66896 -6.46356 -12.4745
-5.66898 -6.46356 -12.4741
190.394 88.4258 -203.831
159.726 133.254 -155.188
101.163 91.3027 -139.73
98.2705 76.3066 -102.141
-5.66914 -6.4634 -12.4741
179.548 71.7376 -212.784
-5.66886 -6.46367 -12.4744
123.786 92.3555 -156.608
85.2733 70.1602 -105.453
-5.66899 -6.46347 -12.474
76.0158 53.0793 -121.098
76.2229 52.1753 -121.591
129.862 104.885 -154.494
-5.66888 -6.46352 -12.474
-5.66902 -6.46353 -12.474
-5.66902 -6.46339 -12.474
124.427 107.077 -160.439
-5.66878 -6.46351 -12.474
104.163 117.549 -173.582
-5.66903 -6.46356 -12.4743
-5.66899 -6.46359 -12.4744
71.5239 79.5456 -117.12
165.244 117.378 -148.671
118.724 105.324 -135.498
-5.66881 -6.46347 -12.4739
-5.66888 -6.46354 -12.474
170.012 86.4933 -176.415
129.775 90.4138 -154.543
91.0572 78.8929 -106.049
109.038 116.459 -170.56
87.5097 71.1633 -105.048
38.9451 31.1974 -49.8188
-5.66895 -6.46336 -12.474
-5.66911 -6.46334 -12.474
98.3923 59.4882 -105.729
175.963 121.588 -187.268
128.212 147.779 -174.601
119.181 57.2079 -185.919
-5.66886 -6.46352 -12.474
-5.66889 -6.46351 -12.474
138.856 110.021 -155.899
141.935 104.801 -152.216
161.526 83.5626 -178.221
132.88 150.93 -174.18
-5.66836 -6.46331 -12.4741
104.714 112.867 -171.222
150.265 103.654 -148.357
-5.66907 -6.46346 -12.4743
158.83 152.619 -164.234
161.99 99.5447 -144.805
-5.66888 -6.46365 -12.4743
-5.66887 -6.4635 -12.474
-5.66901 -6.46359 -12.4741
-5.66903 -6.46355 -12.474
123.48 120.821 -166.031
131.027 79.2366 -178.904
154.929 102.084 -145.776
136.695 79.3324 -174.848
-5.66896 -6.46359 -12.4742
-5.66883 -6.46349 -12.474
-5.66896 -6.46361 -12.4742
158.124 108.564 -146.317
160.214 88.0876 -166.182
-5.66886 -6.46366 -12.4743
-5.66887 -6.46369 -12.4744
133.26 79.7214 -174.838
-5.66912 -6.46336 -12.4741
136.535 78.7214 -177.764
-5.66914 -6.46341 -12.474
-5.66911 -6.46343 -12.4742
-5.66908 -6.46343 -12.4742
161.926 126.2 -152.619
-5.6691 -6.46354 -12.4741
158.219 92.0871 -156.987
-5.66896 -6.46356 -12.4741
-5.66881 -6.46348 -12.4739
125.953 107.837 -160.123
-5.66877 -6.46353 -12.4741
154.168 118.267 -151.54
-5.66911 -6.46343 -12.4742
143.798 74.3939 -188.581
127.46 102.048 -157.313
38.6304 34.334 -51.2135
-5.66909 -6.46357 -12.4741
193.117 69.5171 -225.071
-5.66905 -6.46354 -12.474
197.225 69.4039 -224.713
-5.66903 -6.46355 -12.474
-5.66901 -6.46355 -12.4741
182.777 110.01 -199.521
-5.66896 -6.46354 -12.4745
-5.66901 -6.4636 -12.4743
164.78 110.577 -143.652
-5.66902 -6.46363 -12.4742
166.681 117.139 -149.019
-5.6689 -6.46354 -12.474
156.051 121.273 -153.366
143.053 104.87 -151.638
-5.66899 -6.46362 -12.4742
121.645 80.0646 -171.266
138.641 80.2342 -175.316
-5.66882 -6.46353 -12.4741
-5.66913 -6.46336 -12.4741
-5.66914 -6.46339 -12.4741
-5.66914 -6.46345 -12.4741
-5.66913 -6.46345 -12.4741
8.0936e-07 6.7261e-07 -7.52393e-07
-5.66907 -6.46349 -12.4742
164.895 122.557 -150.437
-5.66906 -6.46355 -12.4742
179.568 65.357 -218.9
148.402 130.704 -159.138
130.154 141.322 -171.683
-5.66897 -6.46367 -12.4744
-5.669 -6.46355 -12.4741
-5.66899 -6.46357 -12.4744
-5.66908 -6.46346 -12.4742
-5.66886 -6.46352 -12.474
-5.66881 -6.46349 -12.474
-5.66888 -6.46354 -12.4741
-5.66897 -6.46365 -12.4744
118.957 152.724 -182.255
-5.66897 -6.46366 -12.4743
-5.66896 -6.46366 -12.4744
-5.66888 -6.46371 -12.4744
-5.66885 -6.4637 -12.4744
187.257 80.6224 -196.762
-5.66911 -6.46341 -12.4742
108.858 138.787 -179.738
-5.66911 -6.46343 -12.4742
125.812 89.2352 -158.597
84.2067 53.8145 -117.105
-5.66908 -6.46341 -12.474
-5.6691 -6.46345 -12.4742
-5.66892 -6.46369 -12.4744
-5.66896 -6.46343 -12.4739
167.544 94.2836 -157.079
-5.66904 -6.46351 -12.4743
-5.66905 -6.46352 -12.474
-5.66907 -6.46357 -12.4742
128.833 103.014 -157.227
218.715 95.1986 -265.571
-5.66879 -6.4635 -12.474
-5.66906 -6.46356 -12.4741
-5.669 -6.46353 -12.474
-5.66897 -6.46355 -12.4745
134.952 104.318 -154.726
-5.66884 -6.46347 -12.4739
-5.66895 -6.46359 -12.4745
-5.669 -6.46362 -12.4742
147.007 134.73 -163.013
-5.66895 -6.46359 -12.4741
-5.66897 -6.46361 -12.4742
-5.669 -6.46346 -12.474
160.763 94.4703 -153.202
-5.6688 -6.46352 -12.474
258.135 132.511 -201.679
-5.66881 -6.46353 -12.4741
-5.66894 -6.46368 -12.4744
173.894 109.611 -167.622
-5.66895 -6.46368 -12.4744
181.036 111.329 -193.068
-5.66892 -6.46366 -12.4743
-5.66913 -6.46351 -12.474
-5.66894 -6.46368 -12.4744
148.169 92.778 -152.638
-5.66884 -6.46369 -12.4744
-5.6692 -6.46327 -12.4739
-5.66912 -6.46336 -12.4741
-5.66913 -6.4634 -12.4741
-5.66906 -6.46337 -12.474
-5.66911 -6.4634 -12.4742
-5.66911 -6.46341 -12.4742
-5.66903 -6.46339 -12.474
-5.66912 -6.46348 -12.474
-5.66903 -6.46341 -12.474
-5.66897 -6.46337 -12.474
-5.66911 -6.46349 -12.474
-5.66888 -6.4633 -12.4739
-5.66902 -6.46343 -12.474
-5.66893 -6.46336 -12.474
-5.66901 -6.46343 -12.474
201.084 97.8949 -251.798
145.26 119.88 -155.607
-5.66887 -6.46334 -12.4739
-5.66894 -6.46341 -12.4739
-5.66905 -6.4635 -12.4743
-5.66901 -6.46347 -12.474
-5.669 -6.4635 -12.4744
-5.669 -6.46351 -12.4744
-5.66901 -6.46352 -12.4744
-5.66899 -6.46351 -12.4744
-5.66903 -6.46354 -12.4743
-5.66892 -6.46346 -12.4739
-5.66893 -6.46347 -12.4739
-5.66899 -6.46362 -12.4743
-5.66896 -6.4636 -12.4744
-5.66895 -6.46362 -12.4745
-5.66898 -6.46364 -12.4743
-5.66896 -6.46365 -12.4743
-5.66898 -6.46367 -12.4743
-5.66891 -6.46364 -12.4742
-5.6689 -6.46365 -12.4743
136.125 74.9232 -188.594
122.264 90.5666 -156.585
86.4689 61.8125 -102.913
-5.66895 -6.46365 -12.4744
125.074 119.011 -164.806
-5.66908 -6.46337 -12.474
156.497 84.2014 -173.499
-5.66904 -6.46336 -12.474
131.696 73.1628 -188.719
39.3016 20.1532 -316.424
114.981 126.197 -173.281
126.299 102.772 -156.639
117.094 112.427 -165.159
174.029 88.1825 -175.24
-0.222298 -15.6337 -387.568
109.601 115.678 -170.433
171.683 86.5648 -176.112
146.046 109.392 -151.626
164.27 118.005 -148.184
130.177 87.407 -157.854
164.145 87.5374 -169.996
138.618 109.543 -153.829
148.398 89.9085 -157.951
131.377 84.1146 -164.307
-5.66906 -6.46354 -12.474
27.3415 27.0749 -309.712
-5.66909 -6.46357 -12.4741
-5.66906 -6.46357 -12.4741
137.577 104.555 -153.456
-5.66893 -6.46367 -12.4745
-5.66892 -6.4635 -12.4739
84.5494 54.6314 -111.742
-5.66915 -6.46336 -12.4741
115.918 109.138 -165.396
-5.66894 -6.46362 -12.4745
-5.66915 -6.4634 -12.4741
132.573 72.8258 -191.574
193.548 70.5065 -221.662
151.742 124.865 -155.567
-5.66904 -6.46348 -12.4743
142.088 110.492 -154.031
-5.669 -6.46347 -12.474
-5.66903 -6.46357 -12.4743
161.892 81.4821 -182.487
-5.66887 -6.46355 -12.4741
163.784 93.7107 -156.225
212.856 67.3867 -244.304
218.627 94.2856 -266.854
127.469 109.476 -159.491
-5.6689 -6.46359 -12.4746
-5.66897 -6.4636 -12.4742
137.374 100.918 -151.739
170.17 81.6879 -186.147
122.169 98.1802 -158.312
168.12 92.042 -163.632
135.178 103.877 -154.554
194.551 58.7077 -238.66
156.088 93.223 -155.049
125.903 88.2525 -156.363
168.139 95.5253 -153.5
125.412 83.0243 -168.525
165.261 97.2572 -148.528
168.797 98.5512 -148.641
150.868 93.6093 -151.268
147.741 93.929 -150.677
162.038 99.202 -144.857
145.92 101.318 -149.341
166.696 108.279 -144.425
141.108 102.073 -151.087
165.227 110.023 -144.323
137.94 107.793 -153.896
145.503 113.521 -152.662
146.991 113.854 -150.569
123.844 112.912 -163.023
105.472 111.447 -171.946
139.393 122.997 -159.504
116.348 119.066 -170.054
125.982 123.868 -165.481
183.936 71.3336 -209.859
185.967 81.9772 -188.189
178.041 80.4351 -186.789
184.858 83.4974 -184.046
169.343 81.9189 -181.332
175.132 83.9989 -179.219
164.123 80.6711 -182.777
167.784 82.0228 -180.942
160.313 81.3874 -177.744
166.885 83.6703 -176.279
165.412 83.6468 -175.932
161.636 83.6381 -175.253
166.145 84.99 -174.95
149.284 81.2774 -172.508
128.028 76.3957 -184.197
173.114 91.3959 -163.946
126.375 78.2403 -180.354
159.272 89.0738 -163.566
155.629 88.3692 -162.491
133.88 84.5738 -165.885
131.521 84.5139 -164.775
162.796 94.7332 -152.452
168.722 97.6101 -149.507
149.175 91.5231 -154.659
118.734 82.8953 -170.195
125.969 86.5897 -161.77
124.21 86.8998 -161.467
129.075 89.2924 -156.411
147.372 95.0381 -150.708
147.408 99.2977 -148.236
129.025 107.716 -158.166
118.687 109.228 -164.289
124.798 113.224 -162.44
115.049 110.709 -168.168
152.766 122.221 -153.221
160.378 126.321 -152.464
138.871 66.9352 -204.426
132.392 67.204 -209.322
178.148 82.6842 -184.042
181.709 86.1477 -177.126
142.747 75.1453 -182.393
176.068 87.1977 -172.89
132.439 81.0225 -171.617
168.917 93.4253 -157.204
152.74 95.7949 -148.517
166.28 103.957 -143.281
137.558 104.462 -153.768
151.159 115.883 -151.528
122.676 116.617 -164.659
105.263 113.125 -172.823
123.8 121.727 -168.193
178.277 87.4534 -172.615
128.838 72.8628 -191.415
159.507 82.9815 -175.185
163.15 86.5315 -168.817
143.523 81.4779 -170.541
155.856 92.6293 -154.108
128.331 84.2569 -166.058
120.341 84.6853 -164.891
149.451 93.8521 -151.445
160.2 102.3 -144.132
146.695 100.805 -148.859
123.084 98.3289 -158.467
139.651 106.307 -152.961
163.628 119.29 -148.475
116.382 112.31 -165.758
110.33 111.153 -169.211
152.269 126.126 -155.167
158.032 133.295 -156.218
181.396 81.7758 -187.935
171.875 81.8038 -181.439
180.42 85.1571 -180.774
172.007 84.7597 -176.003
167.557 86.4301 -170.998
170.744 91.8212 -162.837
160.773 88.6051 -163.779
154.149 90.3863 -159.716
121.384 82.6423 -169.886
163.666 98.7828 -146.657
127.817 87.9414 -164.028
124.976 89.9276 -156.624
108.16 87.8704 -165.415
130.362 96.106 -154.271
139.049 98.9804 -150.808
123.247 94.4722 -159.401
121.393 99.5568 -160.037
103.796 109.117 -174.053
103.123 113.928 -175.189
105.284 115.99 -174.32
120.643 123.08 -169.746
170.781 78.8107 -186.883
150.231 83.0216 -175.369
150.592 85.811 -166.7
150.781 89.0528 -161.592
125.663 85.5384 -164.289
118.834 115.496 -166.857
122.177 120.113 -167.645
141.412 83.0728 -172.138
152.333 96.0491 -149.504
142.515 92.9211 -151.793
133.595 90.1826 -155.986
150.435 98.965 -147.727
106.902 106.941 -170.849
117.869 124.707 -168.795
164.115 82.3309 -177.713
139.462 79.0753 -176.122
149.53 123.232 -147.344
123.467 92.1184 -156.8
128.086 90.9683 -154.918
127.955 96.0702 -155.63
200.429 62.1845 -233.739
163.148 54.0014 -242.532
155.208 53.8701 -242.303
187.417 78.29 -195.498
174.148 76.8411 -194.342
127.718 69.1799 -203.357
152.998 85.4604 -169.058
163.922 92.7398 -157.127
159.596 91.788 -157.966
129.826 87.3092 -160.485
167.026 110.036 -144.585
153.412 118.751 -152.222
112.351 108.475 -166.047
122.413 123.09 -166.787
137.944 71.7445 -195.302
179.061 87.0174 -174.119
170.817 87.1089 -171.449
128.693 74.2042 -188.271
169.476 90.9774 -162.134
165.711 90.1016 -163.016
167.91 91.1209 -163.969
136.095 81.9231 -172.407
161.071 90.127 -161.214
165.658 96.4874 -151.535
131.606 88.186 -158.829
126.862 90.0796 -155.33
127.006 102.542 -157.713
149.983 115.668 -152.305
107.923 118.677 -173.789
205.552 63.344 -233.265
195.553 66.6805 -221.01
160.061 59.4503 -228.539
182.757 73.0186 -204.062
185.979 76.6738 -197.995
139.259 61.9528 -224.785
146.929 68.9276 -202.24
181.238 80.8357 -188.484
173.919 82.9689 -181.163
127.811 73.7938 -190.534
160.423 89.0005 -164.064
135.896 81.3859 -173.065
152.823 87.4178 -164.507
129.46 84.9214 -164.858
127.243 88.7605 -157.726
105.671 84.6424 -164.594
163.526 116.493 -146.559
104.543 99.9836 -169.077
144.659 112.911 -152.763
164.768 123.533 -150.431
109.24 107.061 -167.524
162.074 131.644 -153.738
162.249 132.723 -155.013
119.358 7.54517 -376.367
160.488 55.6264 -237.089
159.629 58.8015 -230.079
159.208 60.6055 -225.359
156.822 62.7517 -219.028
182.592 73.7318 -204.183
190.262 77.3763 -198.266
150.492 66.6124 -209.15
166.323 81.3735 -181.494
164.302 84.7594 -174.014
156.222 85.0792 -170.689
131.698 88.7452 -158.16
147.473 102.208 -149.123
149.3 112.837 -151.722
141.978 121.026 -158.015
110.765 120.079 -171.689
117.873 34.2692 -342.515
155.654 64.2038 -215.405
179.033 79.5405 -190.197
135.891 73.0245 -192.899
153.839 85.9259 -167.763
119.852 76.9689 -180.393
155.773 89.5389 -159.877
170.135 94.0346 -156.769
148.914 91.5255 -153.05
149.659 92.7956 -153.434
108.145 85.4946 -161.751
121.843 97.6363 -158.376
135.331 103.094 -154.423
136.332 103.476 -154.197
157.669 115.214 -149.211
146.884 113.475 -153.182
139.917 118.345 -157.671
134.605 118.912 -160.391
161.052 133.735 -154.804
141.538 68.6386 -203.239
167.57 84.7622 -175.51
165.591 88.2548 -167.349
175.608 92.8538 -161.808
161.557 89.0987 -164.057
166.386 96.3786 -150.058
163.787 97.6984 -147.145
131.488 91.1318 -154.486
137.907 94.9174 -151.625
105.832 86.6543 -164.982
127.825 94.2619 -155.863
166.892 106.444 -143.259
144.713 107.838 -150.078
163.774 115.919 -148.52
165.348 119.446 -148.388
164.807 121.882 -149.723
114.111 108.534 -165.766
125.219 116.224 -163.225
158.582 52.8878 -245.707
148.383 61.5421 -220.5
124.637 81.5869 -171.752
121.696 80.6714 -173.953
129.393 88.2303 -158.941
134.164 98.4723 -153.165
109.658 93.1164 -163.205
105.159 95.2505 -167.012
117.42 118.845 -165.655
133.279 126.518 -162.983
101.93 118.287 -176.242
154.306 61.0153 -223.663
183.604 75.3826 -201.945
175.166 85.5876 -176.729
173.699 93.5275 -161.284
173.516 94.257 -155.818
126.489 83.7712 -167.032
147.448 96.4152 -148.556
175.066 91.5895 -163.256
164.334 94.8322 -153.449
129.416 86.0217 -159.943
162.27 117.054 -147.602
162.641 123.847 -150.913
108.724 83.8459 -166.691
105.22 103.413 -172.133
112.278 93.8009 -162.221
162.395 118.868 -148.001
159.657 91.0705 -159.609
138.518 97.8281 -151.145
145.002 119.583 -155.791
146.731 70.022 -197.132
137.698 73.0778 -190.221
121.328 78.2565 -175.86
126.974 89.2036 -156.704
148.261 121.513 -154.666
122.873 118.437 -165.611
106.123 117.669 -175.254
158.737 107.977 -146.609
140.577 111.287 -154.582
125.816 107.604 -160.062
111.737 112.825 -169.696
109.137 117.338 -172.099
149.268 63.9974 -209.376
131.606 77.1252 -180.282
137.794 65.032 -210.291
157.356 88.849 -162.696
131.103 98.79 -154.192
138.507 96.8555 -150.742
137.124 109.905 -155.273
156.161 115.426 -149.263
151.32 120.555 -152.74
123.413 81.606 -173.228
148.987 89.4727 -160.24
132.6 82.7985 -169.497
162.238 92.0799 -158.091
152.865 86.5803 -166.153
125.443 77.2977 -181.527
167.731 90.2393 -164.047
151.919 84.9675 -166.295
166.102 85.9208 -172.677
177.503 88.9088 -169.797
136.682 75.0367 -185.161
183.918 84.6407 -183.174
179.216 77.2382 -194.615
142.22 61.2567 -222.244
110.288 120.94 -172.539
110.341 116.218 -171.223
139.269 122.063 -159.532
161.523 125.173 -151.139
105.226 92.0138 -169.77
115.359 92.0135 -161.395
122.623 87.6574 -161.407
162.086 98.3446 -146.106
169.938 98.0803 -148.812
162.437 94.0018 -153.483
170.539 96.3806 -152.239
157.241 91.9129 -156.874
152.404 88.4314 -159.738
131.621 79.1372 -180.415
155.055 85.3875 -169.007
176.158 90.3234 -168.663
158.183 84.7419 -171.247
170.472 86.7087 -171.929
161.811 82.5193 -177.08
161.45 81.5196 -178.399
174.058 83.6821 -179.613
169.092 80.5286 -182.524
183.221 80.9868 -189.432
134.889 64.673 -214.825
189.606 78.7358 -196.446
188.749 77.8442 -197.011
152.153 64.5271 -212.963
154.18 63.8876 -214.201
191.819 70.004 -215.388
104.988 119.725 -174.947
149.345 117.394 -151.694
165.062 116.733 -147.018
137.977 107.153 -153.979
105.42 92.8154 -167.356
151.9 105.741 -147.37
147.805 95.4389 -149.584
120.43 83.2949 -169.591
163.321 96.2236 -150.582
161.642 94.3749 -152.999
171.876 96.2146 -155.335
126.73 80.4546 -175.35
138.252 82.0604 -170.798
139.063 81.8312 -171.658
172.325 91.6101 -164.511
157.065 86.5415 -167.399
176.71 91.8693 -163.303
137.526 79.7439 -176.756
168.948 82.9468 -178.621
168.729 81.2702 -183.034
180.493 73.8313 -202.912
136.541 118.284 -158.255
144.707 112.433 -152.427
144.518 112.188 -153.512
127.893 104.254 -158.264
137.854 105.411 -152.571
144.599 103.625 -148.359
124.895 84.4477 -165.651
126.904 84.904 -165.224
126.248 83.1548 -170.473
120.331 79.0551 -175.144
158.236 88.5966 -162.528
173.677 90.8772 -164.81
131.026 74.7797 -184.517
166.966 83.0748 -178.021
171.249 84.0403 -177.176
184.033 80.8018 -189.278
145.261 120.29 -155.546
-5.66899 -6.46365 -12.4743
141.718 136.096 -164.609
105.536 109.168 -170.236
-5.66894 -6.4636 -12.4745
152.667 100.973 -146.675
144.066 115.5 -154.668
131.779 78.2563 -176.571
-5.66897 -6.46367 -12.4744
115.398 121.914 -170.939
40.7455 28.5253 -48.7846
180.398 78.7663 -197.383
-5.66883 -6.46355 -12.4741
-5.66898 -6.4636 -12.4744
-5.66896 -6.46353 -12.4745
174.847 86.9612 -173.857
155.294 131.208 -155.45
-5.66882 -6.4637 -12.4744
169.582 124.739 -166.448
128.333 68.6558 -199.701
52.5258 17.6598 -78.5783
136.765 83.8103 -166.668
131.071 88.9753 -155.282
159.808 93.6855 -154.956
182.167 71.2939 -209.057
180.864 110.557 -192.064
126.916 69.9832 -196.648
162.295 120.318 -148.883
111.891 79.7755 -131.135
160.099 134.536 -158.015
161.535 135.821 -157.826
120.647 156.994 -183.577
191.766 70.9251 -221.099
201.71 74.7819 -231.094
126.48 108.058 -158.972
165.6 42.786 -235.238
135.031 140.011 -168.998
133.63 141.168 -170.725
196.313 58.3591 -251.66
202.085 83.4706 -239.857
198.337 100.662 -244.218
167.383 93.8655 -157.36
150.55 68.608 -209.056
163.173 96.4559 -151.222
161.977 98.5024 -145.606
141.609 115.679 -155.588
194.829 69.5195 -224.156
185.757 80.4121 -194.69
167.507 107.729 -143.769
124.878 119.489 -164.726
184.369 80.8311 -195.412
199.694 68.2153 -228.817
154.451 86.4552 -166.57
203.031 73.3579 -233.687
198.792 79.7454 -224.175
178.117 80.611 -193.702
139.331 74.7141 -188.618
-5.66885 -6.46349 -12.4739
-5.66888 -6.46351 -12.474
115.594 94.6266 -158.231
-5.66898 -6.46355 -12.4741
133.775 78.4325 -178.249
-5.66904 -6.46358 -12.4741
-5.66902 -6.46355 -12.474
124.371 83.1869 -163.795
-5.66905 -6.46357 -12.4741
-5.66907 -6.46356 -12.4741
-5.66895 -6.46346 -12.4739
-5.66904 -6.46351 -12.4743
155.851 117.786 -151.022
-5.66885 -6.46336 -12.4739
-5.66903 -6.46341 -12.474
-5.66913 -6.46349 -12.474
-5.66911 -6.46346 -12.4742
-5.66902 -6.46355 -12.4741
-5.66914 -6.46345 -12.474
-5.66914 -6.46343 -12.474
160.639 85.4288 -170.905
-5.66915 -6.46338 -12.4741
-5.66914 -6.46335 -12.4741
-5.66881 -6.4637 -12.4744
-5.6688 -6.46369 -12.4744
116.262 104.927 -162.49
-5.66896 -6.46368 -12.4744
168.582 109.719 -146.951
-5.66877 -6.4635 -12.474
175.548 122.997 -185.831
-5.66881 -6.46351 -12.474
159.89 116.093 -148.882
-5.66881 -6.46351 -12.474
-5.66884 -6.4635 -12.474
-5.66883 -6.46349 -12.4739
192.485 63.8406 -231.617
-5.669 -6.46355 -12.4744
173.045 75.7903 -201.566
-5.6689 -6.46346 -12.4739
-5.66899 -6.46343 -12.474
-5.66893 -6.46334 -12.474
154.06 142.366 -164.03
-5.66906 -6.46342 -12.474
184.301 74.9418 -209.183
-5.66889 -6.46366 -12.4743
-5.66884 -6.46353 -12.474
185.688 110.978 -208.015
-5.66899 -6.46362 -12.4744
-5.66897 -6.46359 -12.4741
163.362 78.0021 -191.938
148.933 118.959 -154.126
-5.66903 -6.4636 -12.4742
-5.66905 -6.46358 -12.4741
176.588 105.001 -170.301
-5.66906 -6.46355 -12.4742
-5.66907 -6.46354 -12.4742
-5.66903 -6.46348 -12.474
-5.66885 -6.4633 -12.4739
-5.66908 -6.46347 -12.4742
-5.66886 -6.46328 -12.474
-5.66895 -6.46365 -12.4744
-5.66911 -6.46341 -12.4742
143.17 94.522 -148.684
-5.66914 -6.46343 -12.4741
150.956 147.206 -166.063
-5.66914 -6.4634 -12.4741
121.38 77.5849 -181.183
-5.66895 -6.46369 -12.4744
-5.66882 -6.46353 -12.4741
-5.66899 -6.46365 -12.4743
-5.66883 -6.46352 -12.474
-5.66883 -6.46348 -12.4739
268.14 111.193 -243.32
-5.66885 -6.46349 -12.4739
-5.66898 -6.46357 -12.4744
-5.66914 -6.46335 -12.4741
-5.66887 -6.46343 -12.4739
-5.66905 -6.46352 -12.4743
-5.6691 -6.46356 -12.4741
-5.66892 -6.4634 -12.4739
172.654 92.7507 -163.679
-5.66913 -6.46348 -12.474
-5.66904 -6.46361 -12.4742
112.699 112.781 -167.544
176.577 108.402 -175.354
-5.66914 -6.4635 -12.474
-5.66904 -6.46335 -12.474
-5.66882 -6.46368 -12.4744
143.758 121.273 -157.214
110.59 105.16 -166.239
-5.66885 -6.46369 -12.4744
-5.66893 -6.4637 -12.4744
-5.66886 -6.46354 -12.4741
-5.66912 -6.4634 -12.474
-5.66904 -6.46358 -12.4741
-5.66907 -6.46357 -12.4742
-5.66892 -6.46371 -12.4745
-5.66887 -6.46348 -12.4739
-5.66914 -6.46344 -12.474
-5.6691 -6.46355 -12.474
-5.66902 -6.46353 -12.4743
93.2333 69.9224 -101.471
-5.66908 -6.46353 -12.474
-5.66911 -6.46341 -12.4742
-5.66903 -6.46358 -12.4741
-5.66905 -6.46357 -12.4742
-5.66899 -6.46365 -12.4743
-5.66907 -6.46351 -12.4742
-5.66894 -6.46364 -12.4745
-5.66888 -6.4636 -12.4741
-5.66889 -6.46351 -12.474
-5.66888 -6.46342 -12.4739
-5.66894 -6.4635 -12.474
-5.66911 -6.46348 -12.4741
163.781 116.784 -147.126
114.073 121.349 -171.482
132.455 105.538 -155.957
133.675 91.9535 -153.16
135.672 93.1717 -151.692
78.0652 52.8887 -116.562
105.704 68.4811 -154.203
128.015 95.8407 -155.254
159.466 121.777 -150.357
156.724 130.477 -155.107
105.612 111.831 -170.902
158.912 128.537 -153.724
145.964 117.514 -154.691
107.519 110.876 -169.27
178.202 108.418 -183.081
32.3184 44.3927 -343.007
156.34 126.929 -154.26
-5.66901 -6.46356 -12.4743
107.053 110.967 -170.106
111.628 105.041 -165.566
159.247 121.126 -150.736
-5.66881 -6.46348 -12.4739
50.8236 27.8947 -52.7437
51.7137 29.3304 -49.2647
41.2192 21.6362 -65.312
104.567 111.571 -171.24
40.2666 24.4566 -57.673
37.9866 25.4798 -54.4089
40.9704 28.8475 -48.6305
44.3283 31.514 -47.3574
180.045 63.2324 -231.907
192.071 88.9352 -211.415
43.2133 36.8947 -49.8511
40.6681 21.4588 -66.0013
42.3998 26.4875 -52.7998
124.199 93.7958 -156.316
40.4894 26.683 -52.2782
151.246 141.385 -163.176
149.46 109.921 -150.501
-5.66892 -6.46359 -12.4746
127.413 116.912 -162.371
39.2585 29.452 -49.2782
45.2008 35.4433 -48.2549
116.38 93.0004 -131.89
44.1506 38.2849 -49.9038
-5.669 -6.46354 -12.474
139.03 101.597 -152.011
128.686 115.304 -160.896
-5.66902 -6.46362 -12.4742
176.564 58.8597 -240
-5.66896 -6.46367 -12.4743
142.914 115.391 -155.308
162.907 97.1649 -148.525
154.499 105.808 -146.327
192.087 62.4166 -239.707
-5.66886 -6.46345 -12.4739
-5.66914 -6.4634 -12.4741
-5.66901 -6.46351 -12.474
118.234 80.2965 -170.854
104.334 60.5631 -105.167
110.159 65.8434 -95.1789
-5.66893 -6.46362 -12.4742
191.195 79.0201 -197.162
-5.66893 -6.46363 -12.4742
155.122 53.1427 -246.406
157.277 110.592 -146.405
145.754 100.198 -148.998
131.321 147.522 -173.243
173.843 95.9583 -155.261
259.055 89.6007 -288.227
-5.66897 -6.4636 -12.4744
130.08 102.771 -156.487
138.439 79.7977 -175.657
104.324 117.656 -173.789
102.019 118.904 -175.29
121.191 121.227 -168.296
135.533 108.061 -158.133
106.729 91.6354 -163.803
126.722 102.149 -157.505
136.696 61.0248 -227.253
-5.66901 -6.46361 -12.4743
106.057 85.321 -165.178
138.304 59.9777 -228.518
124.412 76.6809 -178.847
14.2842 17.46 -330.364
129.725 102.577 -156.298
119.807 97.1885 -158.457
84.751 72.6988 -106.858
192.752 111.187 -125.476
-5.66902 -6.46353 -12.4743
146.504 116.4 -153.896
106.57 102.875 -167.038
136.005 116.21 -158.27
117.043 75.5144 -139.301
170.455 89.9317 -165.979
166.093 117.521 -148.681
-5.66883 -6.46352 -12.474
174.365 91.0871 -168.561
149.792 122.899 -154.789
130.13 89.049 -157.954
-5.66909 -6.46348 -12.4742
117.87 137.539 -175.082
-5.66895 -6.46361 -12.4742
152.018 105.13 -147.839
178.744 99.6702 -173.138
148.836 104.944 -150.19
89.7608 47.2269 -45.3311
148.155 119.641 -154.85
131.401 79.1857 -176.64
-5.66901 -6.46355 -12.474
176.007 93.8491 -161.611
157.016 130.022 -155.028
203.515 91.5676 -255.064
132.71 117.558 -160.81
168.947 96.9422 -152.468
-5.66896 -6.46366 -12.4743
159.3 85.7807 -170.267
-5.66906 -6.46353 -12.4742
200.394 84.7034 -236.288
124.422 84.1091 -162.652
118.276 142.739 -177.554
179.509 68.9562 -212.098
128.1 110.765 -159.906
-5.66886 -6.46354 -12.474
73.7567 78.6082 -114.264
-5.66894 -6.46359 -12.4745
124.063 98.0866 -157.79
147.185 102.521 -150.042
104.089 112.331 -172.963
136.872 104.918 -154.302
135.052 154.023 -174.34
133.402 106.038 -156.279
158.829 97.5467 -146.546
132.084 96.4418 -153.786
146.786 116.714 -153.79
137.565 82.8333 -169.364
87.347 71.2683 -105.442
139.349 93.6482 -153.658
-5.66901 -6.4636 -12.4742
76.5635 82 -115.159
160.889 131.546 -155.484
180.687 65.1341 -228.025
47.153 21.1849 -66.9856
50.2164 27.8404 -52.1658
167.506 109.382 -145.616
164.359 135.324 -156.847
122.67 121.929 -167.563
-5.66902 -6.46357 -12.4741
-5.66912 -6.46351 -12.4741
109.777 116.451 -170.54
151.544 158.651 -169.888
-5.66893 -6.46336 -12.474
-5.66885 -6.46347 -12.4739
107.156 151.274 -186.987
26.6082 42.9859 -310.408
78.7239 58.5023 -105.655
141.049 102.156 -151.254
137.143 115.435 -158.63
173.905 104.363 -161.371
174.279 83.2101 -184.119
-5.66905 -6.46338 -12.474
137.298 100.842 -152.557
147.165 62.4719 -220.919
164.895 87.9502 -167.512
235.259 111.919 -238.504
128.902 107.397 -158.552
-5.66905 -6.46351 -12.474
82.9433 56.3684 -110.082
147.509 61.0131 -224.008
150.08 91.0437 -155.77
-5.66913 -6.46344 -12.4741
108.368 103.167 -186.607
-5.66895 -6.46363 -12.4742
156.611 156.371 -167.789
159.991 128.059 -154.059
133.998 109.691 -156.519
167.588 90.9204 -164.175
107.205 114.507 -174.766
133.072 69.1794 -196.532
174.779 75.5728 -196.284
139.333 65.7447 -209.206
139.976 112.508 -155.365
162.135 134.901 -157.405
45.0911 29.232 -310.279
-5.66901 -6.46359 -12.4741
159.807 108.664 -146.265
178.255 117.112 -189.218
178.455 70.4025 -207.586
121.661 107.908 -162.175
122.504 108.445 -160.283
143.029 79.0845 -180.026
145.884 116.774 -154.353
202.889 89.5453 -247.847
-5.66905 -6.46345 -12.4743
-5.66913 -6.4635 -12.474
68.1069 70.4536 -90.0356
150.456 117.315 -152.479
-5.66911 -6.46352 -12.4741
136.961 114.889 -157.031
105.758 136.072 -180.131
-5.66914 -6.46341 -12.4741
145.531 73.1809 -192.297
162.37 136.071 -157.551
109.665 110.301 -168.965
177.33 88.9806 -172.743
143.62 107.56 -151.633
141.97 103.395 -151.369
113.135 78.5673 -177.341
122.342 117.325 -165.14
84.9591 55.2503 -113.367
109.856 155.482 -188.421
45.4521 23.6592 -60.0685
157.665 86.006 -168.622
131.09 90.4248 -154.757
164.176 64.4407 -311.603
156.753 125.841 -153.959
-5.66882 -6.46346 -12.4739
118.195 114.028 -166.116
161.228 82.0578 -182.635
142.992 111.132 -153.695
-5.66909 -6.46355 -12.4741
178.024 91.6608 -167.097
146.322 107.899 -151.594
124.604 113.581 -163.828
207.075 94.3284 -258.808
-5.66912 -6.46342 -12.4741
-5.66897 -6.46347 -12.4739
137.663 80.2916 -175.146
151.596 87.6532 -165.54
144.092 82.1959 -172.896
176.133 73.9506 -204.531
-5.66902 -6.46361 -12.4742
133.282 76.4478 -181.686
120.839 97.6591 -157.002
134.016 120.736 -161.33
128.179 90.7416 -156.089
48.5937 27.8135 -52.0612
192.478 66.8873 -222.58
149.303 120.25 -154.889
163.221 117.712 -147.834
4.90044 23.7837 -311.763
128.962 66.2713 -208.784
127.468 103.974 -158.284
146.649 102.985 -150.813
161.824 122.078 -150.321
-5.66883 -6.4635 -12.474
-5.66911 -6.46353 -12.4741
136.036 107.365 -154.577
110.143 93.4169 -161.595
143.028 114.492 -154.771
71.5078 68.9185 -120.988
200.651 86.6039 -238.555
188.214 93.1236 -203.939
-6.24751 -29.3863 -377.517
127.228 88.6645 -156.365
170.31 94.7979 -157.551
159.015 92.7452 -157.403
138.578 82.9494 -168.929
128.546 106.118 -159.401
170.339 126.294 -171.338
192.025 89.7035 -211.342
144.723 146.963 -168.144
-5.66901 -6.46361 -12.4742
169.451 81.4689 -187.786
163.965 89.1346 -165.617
172.818 101.133 -154.358
167.653 110.739 -145.344
125.283 84.2947 -164.381
131.758 157.088 -178.4
180.276 97.7579 -177.733
-5.66893 -6.46361 -12.4742
-5.66902 -6.46356 -12.4743
-5.66901 -6.46362 -12.4742
173.108 125.982 -181.549
125.664 82.1799 -168.221
178.633 82.5669 -188.968
49.4516 34.0637 -45.5043
190.218 86.4882 -203.499
136.545 105.485 -154.177
-5.66887 -6.46352 -12.474
126.311 145.034 -174.948
181.871 112.558 -198.949
121.936 116.978 -165.485
138.621 121.234 -160.23
-5.66912 -6.4635 -12.4741
-5.66899 -6.46359 -12.4744
-5.66909 -6.46347 -12.4742
105.002 140.376 -182.965
-5.66894 -6.46359 -12.4741
144.945 105.566 -149.624
171.164 87.0176 -172.797
182.221 96.6879 -177.798
134.876 104.824 -154.933
-5.66906 -6.46357 -12.4741
-5.6691 -6.46346 -12.4742
136.293 109.156 -155.974
262.074 116.944 -238.804
131.408 112.765 -158.915
171.926 124.708 -175.467
127.36 89.5196 -156.499
83.9868 58.0428 -106.191
-5.66895 -6.46354 -12.4745
134.132 158.145 -176.785
166.676 123.152 -153.398
-5.66896 -6.46353 -12.4745
164.737 87.5833 -164.996
-5.66897 -6.46361 -12.4742
6.18422 45.5261 -331.027
-5.66896 -6.46366 -12.4743
127.689 75.1616 -186.841
168.99 94.7414 -156.274
191.738 91.5112 -214.604
107.87 119.832 -173.566
-5.66906 -6.46354 -12.4742
154.099 86.5266 -168.026
-5.6691 -6.46354 -12.4741
86.077 55.8904 -88.9164
-5.66915 -6.46337 -12.4741
50.1428 19.1915 -72.577
120.465 97.8051 -159.098
144.23 128.776 -159.692
183.7 80.0457 -199.141
122.742 108.435 -162.48
243.759 78.4327 -304.081
-5.66914 -6.46345 -12.474
133.819 99.7264 -153.736
213.229 82.8997 -286.741
-5.66904 -6.46356 -12.4741
138.871 112.331 -155.666
38.3484 24.9563 -56.541
137.448 100.537 -152.67
150.919 114.451 -151.575
121.047 88.1521 -158.817
105.403 105.495 -169.89
123.625 89.1707 -157.312
125.167 112.584 -162.439
162.095 95.3257 -151.573
123.673 80.5327 -170.076
232.916 121.294 -217.777
105.804 110.045 -170.557
130.79 76.6143 -179.732
121.57 105.705 -161.527
130.635 75.8811 -185.478
124.794 112.441 -162.117
136.165 78.619 -178.639
170.442 80.8303 -184.318
-5.66892 -6.46366 -12.4743
131.694 105.674 -156.192
134.443 99.9337 -154.458
161.413 94.0676 -154.449
174.525 84.2224 -185.376
137.329 119.356 -158.184
127.684 89.0094 -156.64
133.77 159.577 -178.709
205.33 91.2715 -259.257
154.439 65.1698 -211.026
162.026 52.5764 -331.665
105.631 131.612 -177.375
156.219 54.4855 -242.944
122.532 120.011 -166.56
257.787 126.694 -216.596
185.396 81.3032 -190.373
161.42 129.401 -152.854
182.431 91.0444 -175.872
-5.66896 -6.46345 -12.4739
122.557 122.584 -167.12
168.955 103.044 -142.245
185.377 113.388 -212.053
169.466 80.6878 -187.308
108.203 152.135 -187.39
190.537 76.6032 -202.523
147.401 119.377 -153.726
-5.66889 -6.46343 -12.4739
-5.66881 -6.46347 -12.4739
149.245 90.809 -156.867
-5.66901 -6.46358 -12.4743
184.762 59.5398 -241.751
190.739 82.8623 -201.894
114.558 121.83 -170.905
163.728 113.538 -147.979
-5.66887 -6.46352 -12.474
115.513 66.7863 -160.111
192.106 90.221 -212.842
-5.66911 -6.46341 -12.4742
-5.66898 -6.46357 -12.4741
175.303 116.405 -181.393
131.546 103.806 -155.932
35.9143 -2.73469 -388.096
122.384 87.3272 -157.151
129.937 93.6967 -154.004
41.5963 21.1077 -66.9182
146.518 54.8387 -240.305
52.8734 24.396 -328.027
277.836 129.598 -218.026
48.0831 33.4363 -46.1616
-5.66887 -6.46353 -12.474
109.986 74.3318 -140.945
-5.66896 -6.46358 -12.4745
174.345 104.173 -162.579
103.81 113.341 -172.716
-5.66897 -6.46364 -12.4744
-5.6688 -6.46353 -12.4741
126.001 104.943 -158.233
-5.66904 -6.46346 -12.4743
-5.66899 -6.46358 -12.4744
113.063 81.8662 -129.892
178.515 82.612 -189.652
-5.66913 -6.46341 -12.4741
-5.66902 -6.46352 -12.4743
-5.66908 -6.46356 -12.4741
-5.66911 -6.46345 -12.4742
49.9694 16.7981 -80.0739
-5.669 -6.46352 -12.474
-5.66899 -6.46366 -12.4743
132.749 76.5345 -182.666
-5.6689 -6.4633 -12.474
-5.66885 -6.46337 -12.4739
111.906 122.959 -170.908
-5.66883 -6.46353 -12.474
144.599 150.23 -169.887
128.57 85.8257 -161.043
-5.66911 -6.46343 -12.4742
193.108 77.3211 -206.094
118.643 139.05 -175.478
-5.66914 -6.46342 -12.474
-0.660597 41.5335 -307.221
-5.66883 -6.46353 -12.474
-5.669 -6.46365 -12.4743
130.51 89.3765 -154.458
-5.66908 -6.46355 -12.4742
112.566 132.521 -175.761
182.42 102.871 -191.035
-5.66909 -6.46355 -12.4741
-5.66902 -6.46354 -12.474
133.424 81.3496 -169.977
-5.66899 -6.46361 -12.4742
79.1863 76.8438 -112.454
-5.66881 -6.46351 -12.474
138.553 141.433 -168.266
-5.66898 -6.46365 -12.4744
-5.66911 -6.46342 -12.4742
-5.66902 -6.46349 -12.474
161.938 90.8583 -159.126
157.896 150.37 -163.615
-5.669 -6.46361 -12.4742
148.82 100.497 -147.925
-5.66891 -6.4635 -12.474
107.075 68.965 -152.913
154.848 89.7887 -163.366
179.76 92.7655 -172.838
-5.6691 -6.46341 -12.4742
170.146 85.7571 -179.325
168.192 98.0425 -148.897
136.044 114.478 -157.519
-5.66887 -6.46369 -12.4744
-5.66901 -6.46354 -12.474
99.3209 77.7381 -77.927
-5.66914 -6.46341 -12.4741
87.8556 46.6514 -111.28
-5.66895 -6.46343 -12.4739
-5.66896 -6.46354 -12.4745
33.5571 34.3849 -308.842
-5.6691 -6.46345 -12.4742
-5.66905 -6.46347 -12.474
141.588 106.806 -152.861
206.56 63.5777 -242.508
15.0232 -9.09132 -391.236
126.589 86.9865 -159.761
-5.669 -6.46358 -12.4741
266.787 121.542 -230.027
140.996 105.71 -152.403
-5.66911 -6.46353 -12.4741
116.338 74.8051 -141.342
-5.66906 -6.4635 -12.4742
-5.66894 -6.46359 -12.4741
124.992 94.2865 -156.591
-5.66882 -6.46354 -12.4741
-5.66911 -6.46342 -12.474
176.262 87.4915 -176.381
173.995 92.1976 -164.48
179.037 59.8925 -240.341
-5.66901 -6.46348 -12.4744
121.12 99.5388 -131.992
128.459 84.0375 -165.432
-5.66898 -6.46344 -12.474
86.4214 56.4654 -87.7683
-5.66904 -6.46356 -12.4741
-5.66903 -6.46356 -12.4741
-5.66896 -6.46363 -12.4742
-5.66903 -6.46358 -12.4741
-5.66904 -6.4636 -12.4742
133.695 63.4681 -219.263
-5.66901 -6.46354 -12.474
165.612 86.6562 -174.331
-5.669 -6.46355 -12.4741
154.842 159.813 -169.201
-5.66887 -6.46355 -12.4741
106.053 118.39 -173.774
-5.66883 -6.46352 -12.474
188.795 112.445 -220.758
151.978 113.774 -150.882
111.507 127.194 -173.864
-5.66902 -6.46357 -12.4743
160.262 149.998 -163.808
-5.66899 -6.46364 -12.4743
-5.66897 -6.46355 -12.4745
105.553 110.473 -170.473
-5.66893 -6.46362 -12.4742
-5.66887 -6.46369 -12.4744
-5.66887 -6.4637 -12.4744
-5.66902 -6.46362 -12.4742
171.974 82.2118 -188.745
160.418 117.593 -149.2
-5.66907 -6.46355 -12.4742
-5.66888 -6.46352 -12.474
196.455 85.3097 -221.975
-5.6689 -6.46371 -12.4745
165.348 89.435 -167.122
147.179 144.393 -166.938
-5.66886 -6.46333 -12.4739
142.265 108.4 -153.565
-5.66896 -6.46342 -12.474
-5.6691 -6.46355 -12.4741
-5.66901 -6.46351 -12.474
-5.66905 -6.46356 -12.4742
165.353 121.968 -150.852
-5.66905 -6.46356 -12.4741
32.4921 34.0775 -308.854
-5.66903 -6.46355 -12.4741
179.583 59.1033 -241.122
-5.66902 -6.46358 -12.4743
188.094 60.1145 -242.357
-5.66897 -6.46355 -12.474
125.309 108.882 -160.406
-5.66905 -6.4636 -12.4742
171.527 86.6191 -177.047
142.994 129.431 -160.99
113.661 78.0294 -180.088
147.806 138.204 -163.562
-5.66914 -6.46345 -12.474
142.004 136.387 -164.904
-5.66911 -6.46343 -12.4742
-5.66899 -6.46361 -12.4744
82.9765 52.5685 -95.6912
-5.66913 -6.4635 -12.474
138.077 118.963 -158.356
163.56 117.317 -148.93
198.752 85.613 -230.31
121.904 89.2914 -153.898
146.284 107.794 -150.814
180.257 75.1067 -205.375
139.174 72.535 -191.277
-5.66892 -6.46335 -12.474
163.65 127.641 -154.001
-5.66896 -6.46364 -12.4743
123.952 112.539 -162.16
147.918 105.563 -149.551
177.34 76.5273 -201.42
-5.66892 -6.46363 -12.4742
-5.66892 -6.46366 -12.4743
-5.66884 -6.46369 -12.4744
-5.66911 -6.46352 -12.4741
-5.66897 -6.46357 -12.4741
115.101 112.326 -167.481
-5.66885 -6.46371 -12.4745
92.7796 73.5216 -79.792
111.255 132.863 -175.852
157.315 86.3239 -171.424
133.285 144.442 -171.353
-5.66914 -6.46335 -12.4741
112.697 92.1339 -133.213
-5.66911 -6.46341 -12.4742
-5.66911 -6.46349 -12.474
201.746 62.2801 -246.036
-5.66893 -6.4634 -12.4739
81.2284 56.8834 -85.7412
163.058 86.6554 -171.495
-5.66895 -6.46343 -12.4739
80.9129 46.7339 -110.787
-5.6691 -6.46354 -12.4741
-5.669 -6.46354 -12.474
-5.66907 -6.46358 -12.4741
-5.66896 -6.46365 -12.4743
180.157 77.684 -199.376
-5.66915 -6.46339 -12.4741
166.199 86.3964 -174.971
-5.66884 -6.46337 -12.4739
-5.66907 -6.46354 -12.4742
-5.66908 -6.46355 -12.4742
-5.66883 -6.46348 -12.4739
167.685 106.039 -143.297
-5.669 -6.4635 -12.474
135.095 78.6484 -178.07
167.727 82.144 -182.732
163.419 87.937 -170.458
-5.6691 -6.46354 -12.4741
139.896 81.118 -172.984
-5.66905 -6.46355 -12.4742
194.367 62.1637 -240.736
-5.66888 -6.46344 -12.4739
-5.669 -6.46352 -12.474
-5.66904 -6.46348 -12.474
-5.66902 -6.46358 -12.4741
134.301 148.598 -172.874
-5.669 -6.4636 -12.4742
-5.66908 -6.46349 -12.4742
-5.66901 -6.46361 -12.4742
-5.66891 -6.46362 -12.4746
-5.66898 -6.46365 -12.4743
-5.66897 -6.46347 -12.4739
194.828 66.8061 -228.782
163.496 134.092 -156.652
8.31323e-07 4.60176e-07 -1.066e-06
-5.66902 -6.46357 -12.4741
189.041 76.0238 -208.275
132.319 86.4613 -158.883
148.337 152.053 -168.195
122.777 142.188 -174.236
166.815 106.661 -143.328
-5.66894 -6.46367 -12.4744
180.228 105.571 -186.167
225.527 114.649 -227.441
131.814 80.2239 -172.915
165.267 97.3305 -149.342
180.25 75.1676 -207.083
176.493 45.6924 -225.781
260.415 130.851 -210.667
179.086 96.0612 -172.617
127.722 87.6325 -157.403
200.934 70.7796 -227.285
27.6371 46.5083 -306.945
22.5079 26.2999 -311.936
2.08007 22.0295 -310.75
136.099 155.589 -174.406
121.121 130.195 -170.74
129.519 103.441 -155.773
2.1954 50.0092 -318.664
-5.66894 -6.46337 -12.474
117.37 153.843 -183.651
193.515 70.5961 -222.903
192.35 67.3908 -228.044
134.391 102.768 -153.603
194.632 86.3045 -218.414
30.5957 22.2013 -315.783
125.564 84.1826 -163.71
144.194 148.692 -168.429
-5.66912 -6.46336 -12.4741
183.557 94.6109 -184.403
-5.66914 -6.46342 -12.4741
157.689 144.69 -161.744
-5.66903 -6.46333 -12.474
154.218 140.204 -161.64
-5.66911 -6.46342 -12.474
133.696 80.3186 -174.205
166.539 121.064 -150.394
130.018 161.774 -182.104
-5.66894 -6.4634 -12.474
107.926 133.961 -178.788
241.954 128.165 -207.876
170.088 102.545 -144.542
165.448 129.696 -157.601
275.979 128.288 -222.177
133.29 86.5871 -160.177
-5.66886 -6.46335 -12.4739
159.261 124.224 -152.254
274.502 127.097 -223.238
177.613 99.3001 -169.278
189.551 105.539 -220.639
147.84 88.3884 -160.814
137.17 105.672 -154.093
195.305 101.932 -235.901
-5.66905 -6.46356 -12.4741
165.249 110.461 -144.916
-5.669 -6.46355 -12.474
-5.66876 -6.46352 -12.474
166.44 108.426 -144.46
236.384 73.9374 -311.143
-5.66896 -6.46357 -12.4744
144.61 103.667 -149.75
2.19624 31.0761 -313.233
125.055 147.191 -175.955
-5.66902 -6.46363 -12.4742
160.411 142.648 -160.492
179.02 100.775 -174.331
171.655 121.533 -171.632
108.803 110.109 -168.836
173.749 105.967 -160.703
-5.66885 -6.46351 -12.474
146.066 113.718 -153.454
146.131 165.005 -176.325
8.56573 19.0703 -317.741
144.754 94.5941 -147.617
112.433 140.951 -178.947
130.855 90.3129 -153.478
-5.66893 -6.46371 -12.4745
184.883 99.8201 -196.939
-5.66886 -6.46368 -12.4744
183.01 95.7248 -183.889
127.824 73.275 -188.883
195.095 81.0585 -214.392
161.265 93.1254 -155.718
206.691 72.1726 -244.699
179.985 65.5076 -227.395
128.067 114.459 -161.457
7.34013 38.805 -311.837
182.747 57.805 -242.728
194.296 57.8449 -249.698
-5.66888 -6.46369 -12.4744
129.614 87.9145 -157.525
132.996 142.473 -170.311
124.287 152.453 -178.801
152.151 144.659 -163.815
119.073 82.6814 -165.186
159.453 143.264 -160.463
172.815 91.6375 -167.064
111.04 106.595 -165.113
183.637 103.559 -198.324
173.879 111.977 -167.604
248.643 126.281 -214.052
175.276 120.59 -183.767
128.935 102.73 -155.911
188.57 89.8147 -199.95
169.647 100.533 -145.813
27.7884 16.5134 -324.429
148.658 93.719 -151.465
133.496 88.3015 -158.081
246.26 106.367 -252.703
162.726 84.1487 -178.576
202.875 94.9296 -256.194
189.977 87.6128 -203.69
180.328 71.3314 -215.279
190.646 108.632 -225.377
12.6718 24.9395 -318.885
169.777 80.9846 -190.04
1.81382 42.0277 -316.993
181.252 111.883 -196.002
188.545 65.3123 -232.079
181.185 59.489 -239.454
3.7606 29.3671 -311.855
11.9963 19.3893 -308.551
152.432 161.253 -170.183
191.537 90.6942 -211.47
138.328 138.342 -166.337
133.398 84.3511 -165.742
136.374 112.986 -157.274
141.1 116.236 -155.964
167.297 108.713 -144.696
236.267 123.956 -213.782
149.292 91.5459 -154.598
174.252 97.3943 -156.64
187.682 106.569 -213.542
185.411 62.5269 -236.01
223.768 108.444 -240.192
158.604 85.3906 -170.881
190.808 98.9162 -217.529
121.006 79.6566 -172.031
159.272 90.3182 -159.999
-5.66888 -6.46371 -12.4745
127.546 84.625 -162.561
130.172 74.4711 -185.67
188.664 93.406 -204.451
19.2704 28.9653 -315.656
176.059 83.9962 -186.758
246.615 131.028 -204.341
164.725 95.3712 -156.535
142.851 145.881 -168.154
178.765 74.5205 -208.233
183.39 71.7029 -215.646
209.278 62.882 -247.594
113.874 113.95 -167.853
182.775 59.0247 -242.274
157.521 163.338 -169.352
123.972 107.521 -159.99
142.613 150.06 -169.526
123 158.474 -183.42
158.794 148.202 -162.238
136.234 139.294 -168.088
163.039 136.278 -156.797
146.329 102.499 -148.4
170.045 128.503 -172.514
143.146 111.89 -153.539
193.595 86.2783 -213.761
92.8232 71.7351 -102.284
124.88 105.862 -158.854
133.67 105.83 -154.976
127.906 104.212 -156.86
156.45 89.4531 -159.658
278.968 130.622 -218.285
122.713 86.7973 -157.235
205.257 63.8448 -241.808
148.924 105.234 -148.764
196.634 101.508 -240.297
161.823 133.116 -156.263
138.304 82.9031 -169.791
182.98 95.8479 -182.835
192.532 88.3762 -213.248
193.138 87.7292 -214.58
194.448 80.8574 -212.554
178.115 118.642 -193.209
201.127 83.3378 -235.723
173.779 110.861 -166.526
191.957 78.0841 -206.786
152.714 95.7933 -148.424
119.841 89.5485 -157.609
175.214 111.483 -171.867
219.114 81.5626 -291.943
172.315 100.181 -151.419
121.213 88.087 -155.014
147.219 93.2259 -151.549
40.6472 32.2284 -308.453
165.321 134.815 -159.598
174.715 93.3109 -164.065
158.12 90.3243 -159.5
123.144 133.533 -170.841
-5.66892 -6.46337 -12.4739
154.246 119.172 -152.365
182.774 70.602 -217.936
166.225 82.9469 -182.894
139.658 109.709 -154.035
126.551 68.2492 -200.759
144.353 75.0323 -188.114
137.26 70.0258 -198.347
191.745 80.2049 -199.894
17.6262 30.7649 -312.637
187.741 59.0054 -243.818
113.593 107.921 -164.499
161.54 81.5512 -183.467
36.5512 22.4794 -314.699
23.2922 28.6413 -312.82
179.665 119.174 -198.085
192.648 86.0008 -211.774
161.156 130.714 -154.932
-5.66912 -6.46344 -12.4741
180.362 112.994 -193.778
173.863 105.131 -161.189
180.984 110.879 -194.923
155.456 130.034 -155.657
126.16 156.977 -181.039
140.926 67.4158 -201.644
148.508 115.542 -153.238
178.18 100.675 -173.655
-5.66877 -6.46351 -12.474
178.35 115.12 -189.27
133.267 87.5414 -158.359
167.893 81.0079 -187.851
161.8 94.5628 -152.962
199.925 97.9389 -248.057
177.991 106.933 -178.83
165.016 87.1757 -169.399
141.222 81.162 -173.977
192.438 89.7643 -214.54
137.034 105.851 -155.209
135.15 77.8235 -179.654
195.913 88.4084 -224.62
196.383 77.4076 -213.338
155.341 106.598 -147.52
193.311 87.0457 -214.367
175.374 72.5416 -208.762
156.089 85.0181 -170.942
186.092 82.9819 -191.975
199.462 84.8944 -232.3
198.028 85.5021 -228.594
135.188 83.8479 -166.088
35.575 19.1156 -319.806
133.243 113.482 -159.5
12.825 45.0153 -318.235
193.712 65.2268 -234.68
189.416 61.2358 -240.13
202.526 61.2415 -246.965
174.514 121.485 -182.988
135.205 103.264 -153.66
176.961 121.543 -191.236
150.945 93.6238 -151.995
130.104 102.516 -154.885
158.304 108.613 -146.43
174.075 116.473 -175.316
171.804 106.952 -154.726
131.061 78.9462 -177.078
157.45 91.2288 -157.616
161.636 131.118 -154.764
122.246 109.519 -162.098
181.805 105.489 -191.055
161.535 129.588 -154.165
112.182 108.105 -166.772
189.346 106.814 -219.971
128.295 107.393 -158.316
172.276 94.761 -159.778
187.501 79.7431 -195.069
150.215 92.9948 -152.91
191.701 99.8808 -221.383
189.821 94.3435 -209.317
158.094 92.1356 -157.141
175.954 89.6015 -168.134
216.888 97.3612 -258.627
197.033 77.6938 -218.517
201.063 78.8372 -232.891
152.977 85.3759 -168.963
