2.39681 0.120089 4.06373 0.874913 -0.240992 0.42006
2.23091 0.438578 4.65756 0.860745 -0.299635 0.411506
1.10641 -0.234094 2.92105 0.502057 0.347261 -0.792053
0.728453 -1.78433 5.47437 -0.0318487 -0.893755 -0.447423
1.54024 -0.712247 5.41921 0.884861 -0.233457 0.403135
2.36981 0.293492 4.24679 0.963567 -0.149774 0.221599
1.06374 0.98452 3.63957 0.494942 0.645256 -0.58196
0.940724 0.321783 3.09321 0.510338 0.496286 -0.702321
1.31978 -0.510853 6.05403 0.889445 -0.246222 0.38505
1.03358 -1.29732 6.15839 0.887577 -0.265645 0.376351
-0.71587 -0.727671 5.26229 -0.822192 0.397367 -0.407553
0.660098 -1.68626 5.29422 0.0449552 -0.875548 -0.481036
1.68379 -0.0966979 3.37382 0.515704 0.44685 -0.731009
2.85935 1.03692 3.87937 0.0675941 -0.76811 -0.63674
0.876611 -1.26026 4.54163 0.0291231 -0.86106 -0.507669
-1.75864 1.37822 3.60247 0.0942668 -0.984177 -0.150031
1.9797 -0.796116 4.34149 0.880902 -0.261816 0.394289
0.790323 0.670713 3.23978 0.389074 0.408819 -0.825523
1.15761 -1.20029 5.95334 0.869694 -0.264197 0.416932
1.80155 -0.375992 5.04365 0.873659 -0.292732 0.388623
1.65662 -0.504899 5.27565 0.895149 -0.237529 0.377211
1.65363 -0.918775 3.92334 0.0983702 -0.885314 -0.45447
-0.614777 -1.29373 4.89736 -0.320443 -0.82071 -0.473023
0.367941 -0.0481037 3.5951 -0.833696 0.471464 -0.28753
1.50525 -0.942688 5.34086 0.883507 -0.285328 0.371489
1.01281 -1.56123 5.08143 -0.0688323 -0.898449 -0.433649
1.21714 -1.64166 5.50337 0.758143 -0.571172 0.314615
1.01624 -1.83347 5.57599 0.197138 -0.916432 -0.348267
0.216622 -1.78545 5.49616 -0.0775572 -0.907425 -0.412994
2.20099 0.0542033 4.43376 0.870931 -0.259704 0.417172
2.26604 -0.596208 3.46205 0.488808 -0.114138 -0.864893
2.02125 -0.484907 3.37666 0.513461 0.27576 -0.812597
0.0944963 -0.490856 3.6692 -0.373436 -0.658711 -0.653181
1.8527 -0.650442 4.73677 0.931924 -0.251248 0.261518
0.828403 -1.57501 5.0933 0.0687361 -0.821251 -0.566411
-0.348942 -1.35241 4.89106 -0.00608991 -0.77945 -0.626434
1.15814 0.60457 3.416 0.527679 0.365257 -0.766904
2.04611 0.195747 4.92294 0.890132 -0.282522 0.357557
1.06047 0.798765 3.47964 0.547242 0.472149 -0.691087
0.920955 1.00999 3.53296 0.480118 0.577805 -0.660021
1.52041 -0.959116 5.29959 0.878794 -0.279918 0.386479
2.19977 -0.749383 3.71578 0.215286 -0.894305 -0.392263
0.286165 -1.58875 5.14373 -0.0533986 -0.858256 -0.510436
0.815281 1.76492 3.01191 0.443438 0.499649 -0.744119
2.04241 -0.537471 3.35502 0.485985 0.330226 -0.809178
1.89045 -0.997145 4.11696 0.150889 -0.914872 -0.374488
-0.511017 -1.44318 5.10084 -0.252467 -0.8233 -0.508368
0.545086 -1.54727 5.01665 -0.0889972 -0.835227 -0.542655
1.15561 -0.253247 2.9515 0.451235 0.318569 -0.833607
1.06877 -0.626205 3.45258 -0.0835797 -0.842085 -0.53283
1.17654 -1.19812 5.89813 0.868029 -0.285302 0.406361
0.922621 0.411235 3.15508 0.494691 0.415717 -0.763191
1.18248 -1.71598 5.46904 0.806284 -0.468244 0.361461
2.23335 -0.471921 4.00581 0.879902 -0.271976 0.389618
-0.466695 -1.41899 5.03966 -0.252467 -0.8233 -0.508368
1.10566 -1.29382 5.9857 0.872287 -0.274453 0.404712
1.96781 -0.605154 3.35026 0.0972567 -0.83248 -0.545453
0.109009 -1.54638 5.03884 -0.0392077 -0.833916 -0.550497
1.89689 -0.425603 3.32777 0.468322 0.350631 -0.811007
0.329491 -1.55274 5.06678 -0.0782804 -0.858382 -0.507004
-0.414001 -1.45629 5.05546 -0.195727 -0.82762 -0.526057
1.77729 -1.07073 4.64133 0.911837 -0.326703 0.248632
1.12631 0.361817 3.24376 0.482906 0.414677 -0.771261
0.727621 -0.0712809 2.83492 -0.404415 -0.706674 -0.580569
1.29004 0.469756 3.43406 0.538539 0.459735 -0.70613
-1.60182 1.3898 3.68255 0.0557377 -0.987008 -0.150692
2.02352 -0.655308 4.34652 0.872609 -0.254033 0.417158
0.571252 -1.21471 4.47806 -0.187851 -0.846511 -0.498127
1.81165 -0.498558 3.247 0.468322 0.350631 -0.811007
0.540498 -0.340076 3.24169 -0.309439 -0.74085 -0.596146
-0.344003 -1.43696 5.02605 -0.106122 -0.799812 -0.590795
-1.78589 1.38279 3.74128 0.120759 -0.983547 -0.13436
2.33396 -0.274981 3.69206 0.405932 0.521104 -0.750779
-0.247611 -1.24658 4.69414 -0.194692 -0.751764 -0.630037
1.10447 -0.315151 3.04183 -0.285677 0.232595 -0.929671
2.14551 1.34249 3.55282 0.237829 -0.359466 -0.902342
2.144 0.0993988 4.57448 0.866871 -0.292315 0.40384
2.3695 1.10595 3.69492 0.101522 -0.728192 -0.677812
0.799163 -0.105332 2.84201 -0.303458 -0.734359 -0.607149
1.57224 -0.745228 5.32525 0.858912 -0.221365 0.461809
2.38973 -0.197109 3.83889 0.902495 -0.281782 0.325734
1.84591 -0.724222 4.71399 0.918589 -0.214946 0.331652
-0.464104 -1.27365 4.83387 -0.0691029 -0.821862 -0.56548
-1.21055 0.53777 5.13159 -0.123193 -0.818392 -0.561301
-1.56422 1.40051 3.49188 0.0557377 -0.987008 -0.150692
-0.137561 -0.425377 4.40327 -0.812655 0.465043 -0.351178
1.45193 -0.452289 3.11795 -0.00461127 -0.649464 -0.760378
0.832246 0.920667 3.39193 0.466243 0.513397 -0.720445
1.01999 -0.0357722 2.94897 0.513608 0.414761 -0.751119
1.41001 -0.557463 5.79699 0.896919 -0.242015 0.370087
2.39616 -0.0452073 3.88921 0.846674 0.22872 -0.480449
2.10274 0.704485 4.19531 0.499846 0.584865 -0.638817
0.778985 1.86569 3.05755 0.443432 0.499666 -0.744112
1.08851 -1.38957 5.93977 0.864828 -0.294954 0.406294
0.891712 0.091951 2.93899 0.479417 0.413568 -0.774029
-0.213833 -1.40356 4.94244 -0.0949228 -0.784143 -0.613277
1.34916 -0.931497 5.69178 0.86811 -0.255303 0.425683
0.882044 0.269056 3.03107 0.480824 0.484026 -0.731114
0.851709 -0.454954 3.24827 -0.214765 -0.79422 -0.56841
1.51417 -1.38663 4.96531 0.841771 -0.440151 0.312553
2.34376 -0.587278 3.5048 0.488808 -0.114138 -0.864893
0.4061 -0.687755 3.73052 -0.257614 -0.746789 -0.61314
1.21211 -1.20015 5.80948 0.884756 -0.256248 0.389286
2.00188 0.269314 3.8146 0.49171 0.501251 -0.712017
-0.328853 -1.3882 4.94061 -0.0949228 -0.784143 -0.613277
2.19844 0.170421 4.53294 0.864211 -0.285865 0.41403
2.02666 -0.119706 3.58856 0.512739 0.462585 -0.723266
2.00799 -0.0116768 3.65625 0.50501 0.421957 -0.752939
1.06745 -1.77896 5.6952 0.847074 -0.332131 0.414915
2.11548 -0.597899 4.18492 0.879171 -0.261089 0.39861
-0.325782 -0.99207 4.40238 -0.239225 -0.73618 -0.633095
0.87932 0.136144 2.95516 0.525592 0.404059 -0.748658
2.27721 0.0682715 4.27559 0.881043 -0.297334 0.367908
1.28772 -1.46367 4.98915 0.132815 -0.872303 -0.470582
1.39473 0.256378 3.38263 0.54939 0.392344 -0.737725
2.13126 0.625813 4.13589 0.482544 0.545804 -0.685018
1.03604 -0.64459 3.48267 -0.108149 -0.855069 -0.50711
2.38923 0.0121352 3.99175 0.887077 -0.267049 0.376536
2.26604 0.223747 4.44559 0.883728 -0.281704 0.373721
1.59207 -0.506072 3.14499 -0.0491848 -0.904704 -0.423192
2.20909 -0.657821 3.50553 0.175926 -0.909585 -0.376438
0.977856 -0.112296 2.89943 0.38793 0.310357 -0.867865
1.65036 -0.829565 5.20095 0.786716 -0.224729 0.574956
2.02159 0.193815 3.77257 0.490793 0.487864 -0.72188
0.48341 -0.754412 3.79939 -0.19049 -0.794641 -0.576419
1.59851 0.501494 3.67613 0.504285 0.422711 -0.753002
1.92119 -0.636949 4.59969 0.890436 -0.237313 0.388337
1.09333 -0.412743 3.13273 -0.139496 -0.807651 -0.572923
1.62846 -1.24282 4.7009 0.664893 -0.7453 -0.0494383
2.34503 -0.230863 3.71005 0.340532 0.502768 -0.79452
1.90683 -0.223155 4.92469 0.874442 -0.29579 0.384525
1.25796 -1.62596 5.38128 0.885452 -0.354683 0.300291
-0.387416 -1.17974 4.68336 -0.215726 -0.747618 -0.628116
2.15539 -0.820558 3.91404 0.742498 -0.629259 0.229628
-0.502455 -1.12213 4.64964 -0.425198 -0.672069 -0.606243
1.6083 -1.26622 4.85202 0.721801 -0.645696 0.249158
1.20678 -1.41759 5.68875 0.854473 -0.291089 0.430283
1.22315 -1.08453 5.86811 0.896905 -0.266313 0.353042
1.29656 -0.48519 6.124 0.889525 -0.246111 0.384936
1.36367 -0.764012 5.79188 0.873749 -0.297176 0.385031
-0.349796 -1.24754 4.76767 -0.215443 -0.839351 -0.499074
2.15228 -0.676778 4.04122 0.852575 -0.338543 0.398126
0.655491 1.85376 2.97722 0.443432 0.499667 -0.744111
1.99787 0.22959 3.78421 0.560057 0.42758 -0.709586
-0.0994043 -1.2615 4.69009 -0.136665 -0.789599 -0.598211
1.48155 -1.39397 4.84179 0.105225 -0.890651 -0.442345
0.675986 -0.44917 3.32464 -0.256116 -0.76907 -0.585607
1.35238 -1.00406 5.6398 0.85702 -0.278041 0.433832
2.26909 -0.527508 3.89722 0.866556 -0.287461 0.407979
0.919393 -1.48751 4.96022 0.0332826 -0.88521 -0.464
1.45103 -1.00359 5.42125 0.873058 -0.273242 0.403866
1.68614 -1.21761 4.73815 0.679345 -0.729892 0.0758151
1.72946 0.297777 3.62783 0.498182 0.403029 -0.767712
1.45578 0.449377 3.54654 0.522487 0.488686 -0.698708
1.76747 0.279162 3.64128 0.514969 0.392093 -0.762279
1.82027 -0.735927 3.6208 0.106479 -0.904465 -0.413045
2.20201 -0.754744 3.87816 0.861871 -0.309522 0.401715
0.884476 -1.5876 5.1153 0.0939792 -0.848257 -0.521179
1.50227 0.431855 3.56005 0.50039 0.464692 -0.730528
2.16537 0.181576 3.88713 0.570522 0.504215 -0.648284
2.16505 -0.653132 3.47955 0.143627 -0.91557 -0.375636
0.775679 -1.53921 5.0417 0.0735796 -0.837378 -0.54165
1.04453 -1.60376 5.88904 0.857565 -0.331792 0.39306
1.25131 -1.50208 5.52261 0.902084 -0.254475 0.348551
2.17809 -0.77006 3.90332 0.860614 -0.33645 0.38229
1.14409 -1.1615 5.98262 0.875488 -0.26553 0.403751
1.83214 -1.07173 4.45241 0.907291 -0.32371 0.268393
1.00777 -1.70406 5.37111 0.0395245 -0.883398 -0.466954
1.22099 0.64043 3.49215 0.547489 0.460482 -0.698722
1.27926 0.914519 3.7051 0.480557 0.509115 -0.714049
2.21586 -0.548761 3.98751 0.88039 -0.272443 0.388186
2.25046 0.00356607 4.29259 0.87673 -0.299484 0.376368
-0.256818 -1.14472 4.59625 -0.215619 -0.747547 -0.628237
1.80535 -0.206274 5.16027 0.885975 -0.250337 0.390358
1.91871 -0.829983 4.45783 0.889314 -0.278188 0.36295
-0.275128 -1.36403 4.89687 -0.0849067 -0.785125 -0.613489
-0.187631 -1.61619 5.24902 -0.12387 -0.829766 -0.544192
2.35194 0.048039 4.09684 0.869226 -0.269236 0.414679
0.210461 -1.65108 5.23074 -0.0332829 -0.858004 -0.512564
0.709053 -0.0600848 2.84396 -0.515479 -0.586073 -0.62514
2.10519 -0.534506 4.25576 0.866858 -0.268987 0.419766
1.62952 -0.467696 3.15517 0.468322 0.350631 -0.811007
1.46807 -0.717028 5.56746 0.880592 -0.230606 0.41398
1.55882 -1.30603 4.89822 0.717596 -0.60341 0.347782
0.249675 -1.65237 5.19552 0.0439698 -0.803898 -0.59314
1.11555 -0.610809 3.42087 -0.0835569 -0.842093 -0.532821
2.1747 -0.638727 3.43253 0.2403 -0.871513 -0.427458
-0.34916 -0.955993 4.37172 -0.239338 -0.73638 -0.63282
1.67512 -0.564489 5.21669 0.853343 -0.159774 0.496264
1.12721 -1.50167 5.01428 0.132815 -0.872303 -0.470582
0.782613 -1.59708 5.11975 0.0687361 -0.821251 -0.566411
1.41072 -0.989662 5.52129 0.878028 -0.296936 0.375362
1.8961 0.531658 3.89209 0.496361 0.374801 -0.783039
1.47328 -0.585764 3.3041 -0.108269 -0.819989 -0.562047
1.05388 -0.732183 3.6622 -0.0954208 -0.833838 -0.543699
1.0749 0.850631 3.51296 0.530059 0.526125 -0.665003
2.2906 -0.382177 3.92881 0.880497 -0.236908 0.41061
0.599056 -0.318962 3.19059 -0.236387 -0.752783 -0.61436
0.907978 0.346362 3.10802 0.450476 0.491475 -0.745335
2.0185 -0.163479 3.56403 0.495762 0.487789 -0.718528
1.79819 -0.57821 3.27217 -0.00825351 -0.88431 -0.466828
1.78494 -0.587872 3.28914 -0.0273465 -0.885242 -0.464327
1.64359 -0.310076 5.45029 0.88036 -0.282294 0.381151
0.453089 -1.50986 4.98437 -0.0569175 -0.823197 -0.564896
2.24726 0.421496 4.59695 0.88232 -0.257551 0.393928
2.18532 -0.603666 4.01639 0.880549 -0.272254 0.387958
2.17268 -0.555509 4.07842 0.875216 -0.277991 0.395876
1.23209 -0.980735 5.91328 0.886861 -0.263633 0.37944
2.45719 0.630938 4.35029 0.486282 -0.638584 -0.596439
2.2273 -0.666466 3.53493 0.175926 -0.909585 -0.376438
-0.219946 -0.778427 4.13373 -0.680891 -0.321117 -0.658233
1.83301 -1.10764 4.34195 0.186928 -0.884082 -0.428319
1.33024 -1.10381 5.61716 0.875437 -0.289147 0.387304
2.1357 -0.77979 3.77553 0.201464 -0.909107 -0.364604
1.57821 -0.499521 3.16976 -0.0496674 -0.887998 -0.457158
1.72478 0.35197 3.66868 0.525348 0.442134 -0.726999
0.84116 0.319591 3.13301 -0.602662 0.759274 -0.245565
2.37776 -0.572031 3.59861 0.869576 -0.410565 0.27436
0.674011 -0.515649 3.4114 -0.239626 -0.799716 -0.550485
1.95818 -0.198064 4.82237 0.889881 -0.282818 0.357946
1.26843 0.0225429 3.15988 0.449219 0.451061 -0.771198
1.62679 -0.44186 5.35624 0.878803 -0.265698 0.396371
1.68885 -1.20451 4.6929 0.65986 -0.734094 0.160283
-0.626146 -1.18435 4.77829 -0.471099 -0.543623 -0.694651
2.79617 0.558018 4.73731 0.211804 -0.85214 -0.478536
2.07453 0.388616 3.91183 0.477941 0.415523 -0.773895
1.21777 0.901215 3.65786 0.484605 0.57563 -0.658641
1.13264 1.10648 3.89648 0.520176 0.623856 -0.583284
0.236304 -1.54807 5.0829 -0.0199508 -0.830273 -0.556999
1.84227 0.299682 3.70889 0.523213 0.443023 -0.727996
2.38246 -0.233972 3.8361 0.849735 -0.300461 0.433212
1.21862 -1.57304 5.55964 0.900749 -0.255656 0.351129
0.876458 0.383974 3.1177 0.491493 0.379089 -0.784045
2.01359 -0.12529 4.73494 0.890396 -0.257739 0.375187
0.707359 -0.0201145 2.79639 -0.499112 -0.602835 -0.622476
1.85561 0.593535 3.89604 0.496361 0.374801 -0.783039
-0.618923 -0.797262 5.07077 -0.823488 0.395833 -0.406428
1.04824 -1.64868 5.8474 0.864245 -0.314539 0.392613
0.423076 0.0150755 3.53883 -0.833696 0.471464 -0.28753
1.83801 -1.08009 4.43682 0.896212 -0.309623 0.317707
0.959377 -1.70907 5.35719 0.0486142 -0.866859 -0.496177
1.32162 -0.0901827 3.12605 0.460763 0.422225 -0.780656
1.21619 0.12879 3.19662 0.504698 0.458791 -0.731294
1.48697 -1.16129 5.22174 0.849622 -0.308928 0.42744
0.860303 -0.076689 2.80805 0.0351254 -0.471037 -0.881414
1.42794 -1.47043 5.13233 0.871909 -0.334578 0.357536
1.58676 -1.29441 4.83733 0.671116 -0.737302 0.0773876
1.51261 -1.23461 5.13734 0.834466 -0.39969 0.379361
0.518197 -1.57664 5.08977 -0.0999314 -0.870936 -0.481129
2.59486 1.17116 3.71067 0.181637 -0.503691 -0.844573
2.27321 -0.694036 3.76135 0.863223 -0.326886 0.384697
1.49555 -1.37507 5.00331 0.875308 -0.415008 0.248202
0.472273 -0.787618 3.85442 -0.205785 -0.790159 -0.577323
1.62426 -0.383337 3.15298 0.497999 0.403946 -0.767349
2.11533 0.326444 4.79219 0.871645 -0.292005 0.39366
1.08693 0.770187 3.46241 0.482263 0.525249 -0.701096
-0.0758936 -1.36258 4.79909 -0.158745 -0.815689 -0.556283
1.33024 -0.269642 3.03841 0.467049 0.355244 -0.809732
1.93463 -0.114049 4.94209 0.876419 -0.262108 0.403967
2.53517 0.35304 5.10265 0.122269 -0.932261 -0.340499
-0.463561 -1.02167 4.51394 -0.283495 -0.731841 -0.619709
1.77644 -0.244091 5.20003 0.886137 -0.253158 0.388164
2.64466 0.63088 4.42608 0.422176 -0.681591 -0.597663
0.0836462 -1.32759 4.73674 -0.139301 -0.789988 -0.597088
1.07877 -1.1335 6.14743 0.891406 -0.256171 0.373859
2.27633 0.423929 4.08246 0.516486 0.452192 -0.727162
1.74247 -1.20976 4.5512 0.722022 -0.670683 0.16991
2.12698 0.269884 3.89802 0.469595 0.399644 -0.787251
0.0195939 -1.63844 5.22273 -0.0882673 -0.863308 -0.496898
0.382101 -1.4848 4.95277 0.0498216 -0.780772 -0.622827
2.27495 0.184318 4.37466 0.881049 -0.29723 0.367977
2.07072 -0.609582 4.26945 0.875945 -0.253025 0.410729
0.366344 -1.5592 5.07203 -0.0782804 -0.858382 -0.507004
2.36038 0.0911238 3.95858 0.667515 0.436955 -0.602905
0.934828 0.251276 3.04308 0.508616 0.436145 -0.742353
1.3246 -1.54175 5.27213 0.837766 -0.386326 0.385875
2.37765 0.169717 3.98182 0.411214 0.444003 -0.796093
1.60569 -0.525891 3.1796 0.0239923 -0.874354 -0.484695
1.40014 -0.0590223 3.18848 0.546141 0.412008 -0.729369
2.21008 -0.750873 3.73401 0.207964 -0.910329 -0.357843
2.38252 -0.210523 3.76007 0.675083 0.44221 -0.59052
2.35946 -0.630021 3.59052 0.814991 -0.544524 0.198201
2.10312 -0.841582 3.97976 0.87027 -0.33625 0.359953
1.74225 -0.0415041 3.45272 0.49778 0.414293 -0.761955
1.35255 -1.25295 5.47062 0.851875 -0.311343 0.421159
1.25177 -0.75171 6.04399 0.876626 -0.285859 0.387054
1.77854 -1.11243 4.35158 0.16962 -0.890969 -0.421193
1.63015 -1.24541 4.85623 0.717596 -0.60341 0.347782
2.25698 -0.720657 3.75097 0.845479 -0.466115 0.260581
0.901228 0.374948 3.15675 -0.602662 0.759274 -0.245565
1.38096 -0.778389 5.74155 0.873749 -0.297176 0.385031
1.39817 -0.407969 3.07245 0.133712 -0.643737 -0.753474
0.911174 -0.554007 3.39947 -0.191339 -0.814598 -0.547558
1.72559 -0.193837 3.34336 0.494181 0.449033 -0.744415
1.72062 -0.504526 3.19186 0.468322 0.350631 -0.811007
0.729612 -0.538416 3.42021 -0.23953 -0.799785 -0.550427
1.24047 0.00128951 3.1251 0.450394 0.458316 -0.766219
0.895821 -1.62653 5.20143 0.0744176 -0.837944 -0.540658
1.3071 -0.265282 3.02696 0.467056 0.355261 -0.809721
1.6227 -0.355795 5.46604 0.878528 -0.263827 0.398225
-0.111743 -0.694024 3.97149 -0.272833 -0.738528 -0.616554
0.444717 -1.65457 5.20933 -0.0123487 -0.835949 -0.548668
0.860503 -1.63714 5.19661 0.0864313 -0.835919 -0.542004
1.22588 -1.16527 5.79795 0.896684 -0.232345 0.376794
-0.265417 -1.54584 5.15946 -0.12387 -0.829766 -0.544192
1.0602 -0.332422 3.00677 -0.135274 -0.865336 -0.482592
1.18513 -0.127932 3.02133 0.50061 0.361094 -0.786766
-1.67264 1.10795 4.3531 -0.0570001 -0.907684 -0.415764
2.14741 -0.544541 4.13997 0.877465 -0.274093 0.39361
1.77408 -0.991799 4.07516 0.0973676 -0.880395 -0.464139
0.822931 0.333363 3.03907 0.413935 0.493607 -0.764859
2.38032 -0.271454 3.81327 0.849412 -0.300528 0.433799
1.42533 -0.445509 5.8316 0.896985 -0.242469 0.36963
1.99213 0.104538 4.98525 0.890132 -0.282522 0.357557
0.816137 -0.116629 2.84742 -0.297556 -0.73443 -0.609978
0.979459 0.127756 3.01149 0.532857 0.416796 -0.73644
1.17651 0.749295 3.51768 0.555083 0.481605 -0.678188
2.31926 0.17706 4.26753 0.880562 -0.301427 0.365723
2.15383 0.442923 4.81575 0.871807 -0.297377 0.389255
2.12309 -0.151702 4.47577 0.884051 -0.273649 0.378905
1.86237 -1.05847 4.33468 0.823572 -0.457915 0.334729
-0.148541 -1.36583 4.83955 -0.278872 -0.878052 -0.388914
1.19901 -0.0728541 3.05973 0.498216 0.425151 -0.755664
1.8097 -0.687374 4.85715 0.934893 -0.189449 0.300141
1.48839 -0.983202 5.35508 0.878887 -0.280194 0.386069
2.37383 0.605565 4.26339 0.552014 0.293694 -0.7804
1.05134 -1.18579 6.18745 0.896389 -0.251348 0.365118
2.20551 -0.76656 3.77441 0.366199 -0.868967 -0.332858
1.75722 -1.14653 4.40956 0.113615 -0.893085 -0.435305
1.55859 -0.502067 3.16094 -0.120895 -0.847313 -0.517151
1.39466 -1.42285 5.23906 0.837766 -0.386326 0.385875
1.11668 -1.31592 5.94881 0.872121 -0.27465 0.404935
0.950282 -1.67387 5.32778 0.0727717 -0.850329 -0.521196
2.09804 -0.841479 3.9031 0.247754 -0.895043 -0.370831
1.53229 -0.0464572 3.2929 0.524382 0.461489 -0.715578
1.24936 -1.00291 5.8398 0.874819 -0.296004 0.383502
2.25078 -0.671724 3.83062 0.863223 -0.326886 0.384697
1.75656 -0.705068 5.07483 0.940752 0.00228519 0.339088
2.17223 0.472727 4.05748 0.505046 0.445328 -0.739332
2.38534 -0.443022 3.69565 0.93225 -0.259455 0.252177
1.94374 -0.685026 4.51859 0.890437 -0.237316 0.388333
1.64998 -0.611466 5.24478 0.853343 -0.159774 0.496264
1.93761 0.45495 3.88169 0.496361 0.374801 -0.783039
1.83067 -1.10449 4.41782 0.907291 -0.323708 0.268395
1.38471 1.58156 3.22966 0.45152 0.427133 -0.783382
2.19693 0.361823 4.66168 0.864361 -0.292972 0.408714
2.12539 -0.510707 4.22393 0.879827 -0.256288 0.400277
2.21902 1.29867 3.55657 0.172634 -0.457989 -0.872034
1.08468 -1.03555 6.20431 0.887614 -0.25986 0.380281
1.27834 -1.10825 5.72706 0.865493 -0.256615 0.430199
0.158924 -0.520644 3.65362 -0.364658 -0.65761 -0.659221
1.4174 -0.76041 3.6261 -0.0179517 -0.86535 -0.500846
0.47236 -0.422883 3.37427 -0.37939 -0.649716 -0.658736
1.28459 -0.205841 3.03992 0.467121 0.355424 -0.809612
1.16303 1.01232 3.72889 0.487708 0.639012 -0.594815
1.29015 0.0426911 3.18579 0.509602 0.468602 -0.721608
2.0649 -0.865999 4.06628 0.888743 -0.339314 0.308225
1.13169 -1.06614 6.09192 0.869332 -0.262324 0.418865
-0.079392 -1.49 5.02084 -0.136313 -0.82369 -0.550413
1.06908 -1.04995 6.23655 0.885524 -0.272683 0.376153
0.398357 -1.71335 5.32351 0.037605 -0.888565 -0.457207
1.67588 -0.488039 3.17315 0.468322 0.350631 -0.811007
1.9791 -0.941426 4.24758 0.866588 -0.328333 0.375796
1.66939 -0.55695 3.24113 -0.0910856 -0.85889 -0.503995
1.45282 0.516153 3.56809 0.515304 0.438099 -0.736567
1.94857 -0.751259 4.44174 0.88101 -0.261563 0.394216
1.38181 -1.26644 5.39428 0.845169 -0.329814 0.420608
2.57201 0.808787 4.16142 0.186614 -0.814253 -0.549697
0.960064 1.01251 3.57261 0.517086 0.575539 -0.633543
1.27765 -0.523138 6.14012 0.87725 -0.237588 0.417114
1.45637 -0.404912 5.79086 0.88242 -0.248036 0.399766
2.26733 -0.534511 3.49117 0.621919 0.322079 -0.71378
2.02221 -0.0454449 3.62763 0.502847 0.431184 -0.74915
1.0465 0.00128101 2.98629 0.532616 0.416342 -0.736872
1.77842 -1.18121 4.79631 0.55647 -0.818049 -0.145384
1.92089 -0.990337 4.30262 0.855114 -0.355382 0.37747
2.02209 -0.168632 4.67883 0.888714 -0.241646 0.389609
2.0138 -0.320506 3.43843 0.493066 0.494801 -0.715583
1.73019 -0.954229 4.02565 0.0543141 -0.899074 -0.434415
2.22594 0.652386 4.18486 0.479909 0.518893 -0.707416
1.78909 -0.67145 4.99261 0.960064 -0.0174562 0.279235
1.54372 0.837054 3.83408 0.48448 0.479089 -0.731952
0.136919 -1.35032 4.77026 -0.123897 -0.920456 -0.370688
2.31638 -0.532502 3.55083 0.52586 0.367619 -0.767025
1.25733 -0.723504 3.57141 -0.0628328 -0.841574 -0.536475
1.92089 -0.617115 3.35869 0.024121 -0.908804 -0.416525
0.0127461 -1.59429 5.16439 -0.0962644 -0.811249 -0.576722
2.07249 -0.624988 3.37975 0.125594 -0.826396 -0.548904
1.90366 -0.502174 3.29857 0.468322 0.350631 -0.811007
1.55932 0.259224 3.49749 0.530503 0.434348 -0.727948
1.47083 -1.32684 5.1621 0.871909 -0.334578 0.357536
-0.0235578 -1.67084 5.34976 -0.084057 -0.898574 -0.430695
1.04867 -0.767564 3.71106 -0.113562 -0.826446 -0.551445
1.55711 0.223787 3.46929 0.520247 0.44075 -0.731494
1.89834 0.294575 3.74437 0.522934 0.44314 -0.728126
0.91573 0.38601 3.15536 -0.602662 0.759274 -0.245565
0.646425 -1.76496 5.43609 0.0148884 -0.878887 -0.476797
-0.00653023 -1.24847 4.64637 -0.140548 -0.79184 -0.594336
1.52038 0.809951 3.8011 0.48448 0.479089 -0.731952
1.61355 -0.528537 5.36173 0.894879 -0.230072 0.382438
2.19169 -0.665133 3.96501 0.87019 -0.280619 0.404996
2.18184 0.721239 4.22826 0.418857 0.645046 -0.63912
1.96836 -0.964479 4.2372 0.859485 -0.338122 0.383353
1.31517 -0.00404648 3.14668 0.492103 0.43628 -0.753322
0.699462 -1.5801 5.09191 0.0178734 -0.838199 -0.545071
0.299865 -0.496206 3.54412 -0.458037 -0.589634 -0.665232
0.943838 0.0798942 2.96446 0.475671 0.366449 -0.799658
1.7113 -0.808652 5.12574 0.786716 -0.224729 0.574956
1.10977 -0.99641 6.17416 0.877248 -0.287139 0.384692
2.28637 0.347641 4.45966 0.883793 -0.263628 0.386536
1.23129 -1.46129 4.96881 0.132815 -0.872303 -0.470582
2.71927 0.329436 5.03857 0.176388 -0.88677 -0.427231
1.15319 1.04467 3.85857 0.505888 0.672056 -0.540756
0.0515597 -1.57094 5.13953 -0.0583152 -0.822474 -0.565805
1.74356 -1.12566 4.68902 0.974351 -0.224539 -0.0149155
-1.69436 1.34711 3.49685 0.0958436 -0.985321 -0.141271
2.24979 -0.396094 3.56652 0.466376 0.476987 -0.744968
1.19357 -1.62316 5.20301 0.0873409 -0.91528 -0.393235
1.1506 -0.393262 3.06084 -0.201708 -0.808469 -0.552894
0.926877 -1.8551 5.91318 0.854256 -0.395273 0.337648
1.59891 -0.531988 5.39892 0.887711 -0.238392 0.393877
-0.585537 -1.23019 4.80138 -0.404072 -0.616119 -0.676108
1.60911 1.49232 3.3225 0.456254 0.416746 -0.786229
1.15063 0.970604 3.67392 0.487708 0.639012 -0.594815
0.778463 -1.78658 5.48476 -0.0259527 -0.89024 -0.454753
2.24503 -0.319157 4.07264 0.883899 -0.254072 0.392644
2.34371 0.274255 4.28158 0.881332 -0.288125 0.374484
1.78764 -1.00666 4.93453 0.849102 -0.266698 0.455958
0.253931 -0.340467 3.48027 -0.818393 0.146066 -0.555785
1.87045 -0.532719 3.2764 0.472777 0.3299 -0.817097
1.03034 -1.04143 6.3368 0.887639 -0.267292 0.375035
0.00156838 -1.61333 5.19177 -0.0903757 -0.812699 -0.575632
0.951732 0.335537 3.11595 0.507312 0.477618 -0.717298
0.32133 -1.44938 4.89256 0.0138986 -0.782394 -0.622629
1.94729 -0.789598 4.4262 0.865024 -0.292286 0.407801
0.0341391 -1.46244 4.94823 -0.111264 -0.879164 -0.463348
1.67085 -0.507658 3.16176 0.468322 0.350631 -0.811007
1.99892 -0.37357 3.41941 0.514323 0.457251 -0.72553
1.10616 -0.814715 6.32414 0.86736 -0.270622 0.417672
-1.98459 0.926141 4.77454 -0.104806 -0.864713 -0.491209
2.19393 -0.507804 4.06536 0.880461 -0.272062 0.388292
-1.57684 0.196857 5.75585 -0.364221 -0.725619 -0.583798
1.86491 -1.06832 4.38246 0.887398 -0.308715 0.342375
0.716381 -1.76419 5.4385 -0.0098008 -0.881592 -0.471911
0.898823 0.472048 3.15372 0.390813 0.494301 -0.776487
1.13421 0.737975 3.47501 0.555083 0.481605 -0.678188
0.0127072 -1.31707 4.71618 -0.111645 -0.804789 -0.582967
1.54502 -0.296459 3.1471 0.498002 0.403957 -0.767342
1.97896 -0.032273 4.88217 0.890472 -0.257583 0.375114
1.55561 -0.538769 5.49083 0.881797 -0.247593 0.401411
1.06912 -0.556158 6.53888 0.865823 -0.246296 0.435532
1.12166 -1.59609 5.71739 0.844709 -0.323923 0.426076
-0.0169346 -1.48128 5.01592 -0.208212 -0.819157 -0.534443
0.560205 -1.79578 5.4618 0.0400307 -0.881482 -0.470517
2.58383 0.359405 5.16654 0.133748 -0.921871 -0.363683
1.90989 1.38243 3.44215 0.44874 0.338801 -0.82695
1.26332 -1.11962 5.75268 0.871425 -0.255262 0.41888
1.9994 -0.583322 4.43804 0.880829 -0.26142 0.394716
1.74854 -1.17387 4.81242 0.550365 -0.82596 -0.122018
-0.298773 -1.10988 4.55957 -0.222179 -0.748428 -0.624894
2.3934 0.267377 4.15927 0.881323 -0.288149 0.374487
1.69185 0.0191248 3.44855 0.509263 0.414529 -0.754199
1.02556 -1.62421 5.20461 0.0338954 -0.869855 -0.492142
2.02965 -0.912108 4.00664 0.247075 -0.889909 -0.383426
0.918953 0.483531 3.16041 0.505083 0.504853 -0.70001
0.747092 -0.65412 3.58546 -0.207303 -0.792679 -0.573311
1.33972 -0.500065 6.01127 0.897008 -0.243255 0.369058
2.20764 -0.545382 3.47011 0.52586 0.367619 -0.767025
1.40684 -0.854198 5.62278 0.871231 -0.258521 0.417281
0.616281 -1.69553 5.27876 0.0400307 -0.881482 -0.470517
1.96897 -0.103547 4.86125 0.889225 -0.266065 0.372139
1.76717 -1.11889 4.62669 0.858132 -0.453065 0.241539
1.35628 -1.36371 5.37085 0.847725 -0.320293 0.422818
2.06978 -0.48158 3.39764 0.517191 0.332291 -0.78873
1.14556 0.0184596 3.07598 0.499034 0.424449 -0.755518
2.21311 0.565253 4.13456 0.545287 0.43842 -0.714458
2.23803 0.139347 3.97963 0.916789 0.384615 -0.107563
1.78339 -0.141443 5.25016 0.885119 -0.249884 0.392585
2.08342 -0.635785 3.41147 0.0882282 -0.847848 -0.522847
1.10814 -1.26004 5.99813 0.882052 -0.265505 0.38922
0.994234 -0.646351 3.52061 -0.0955714 -0.834158 -0.543182
1.87271 0.230727 3.68691 0.520902 0.40222 -0.752914
1.7896 -0.986724 4.714 0.933752 -0.223519 0.279546
2.23673 0.129003 3.93158 0.916789 0.384615 -0.107563
-1.62617 1.35617 3.73348 0.0376932 -0.988473 -0.146633
2.20383 -0.739798 3.69605 0.215288 -0.894298 -0.392277
1.63778 -0.739278 5.25345 0.786716 -0.224729 0.574956
0.538385 -0.426139 3.3571 -0.276283 -0.767661 -0.578243
1.26308 -1.62019 5.30558 0.871483 -0.460623 0.168357
1.94458 -0.0412267 3.58322 0.541156 0.361063 -0.759463
1.19544 -0.498325 3.21917 -0.0414155 -0.855862 -0.515543
1.47249 -0.456184 3.11522 -0.0356204 -0.830095 -0.556483
1.82142 -0.892485 4.84585 0.995079 0.0303709 -0.0943115
2.10349 0.183445 3.8361 0.592726 0.46042 -0.660825
0.800986 0.158439 2.92543 0.477281 0.511661 -0.714427
1.54202 -0.01856 3.31808 0.524359 0.461487 -0.715596
2.13352 0.189213 4.68142 0.864209 -0.285868 0.414032
2.38774 -0.388431 3.73777 0.880543 -0.278704 0.383365
1.80957 -1.12127 4.75865 0.893798 -0.231497 -0.384103
2.35027 -0.136699 3.7809 0.437783 0.519487 -0.733811
1.00667 0.963902 3.54711 0.528959 0.52759 -0.664719
1.1531 -1.62968 5.6437 0.849345 -0.32918 0.412618
2.32402 0.642925 4.23786 0.537619 0.361264 -0.761875
1.13229 -0.132289 2.98598 0.500692 0.36119 -0.78667
0.886464 0.514095 3.17676 0.489383 0.400607 -0.774608
1.54266 -0.676105 5.43978 0.887462 -0.230433 0.399139
1.55362 -0.747391 5.37019 0.885502 -0.259854 0.385177
1.98305 -0.748964 4.36076 0.872703 -0.272038 0.405445
2.37515 -0.263082 3.71983 0.624286 0.464498 -0.628099
-0.733789 -1.26818 4.93364 -0.320445 -0.820707 -0.473027
1.44757 -1.2222 5.28031 0.873155 -0.300524 0.383777
1.89606 -0.069484 3.55247 0.507983 0.440338 -0.740308
0.936496 -0.0548782 2.88908 0.493093 0.399632 -0.772757
1.22926 -1.48278 5.02119 0.101108 -0.907855 -0.406912
2.00022 -0.672373 4.38505 0.872555 -0.254153 0.417199
2.22161 0.215683 3.93489 0.47248 0.409073 -0.780655
2.10146 -0.808874 3.81047 0.208772 -0.892187 -0.400521
-0.163086 -1.30972 4.7639 -0.255769 -0.857293 -0.446802
0.831896 -0.141999 2.86434 -0.334775 -0.719864 -0.608047
1.9611 -0.57669 4.54804 0.864748 -0.310774 0.394501
1.36063 -0.722075 5.82554 0.881274 -0.273953 0.385105
1.46622 -0.765207 5.54948 0.880986 -0.228806 0.41414
0.523846 -0.367005 3.29409 -0.348053 -0.705704 -0.617124
0.40694 0.0538507 3.60106 -0.787634 -0.0197364 -0.615827
1.09366 -1.63628 5.75509 0.858302 -0.318194 0.402579
1.48515 -1.20672 5.18767 0.870604 -0.311657 0.380682
0.778732 -0.0914559 2.83393 -0.31909 -0.726319 -0.608803
-0.322768 -1.14766 4.62284 -0.215704 -0.747603 -0.628141
2.36067 -0.331644 3.65309 0.536097 0.388821 -0.749278
1.53958 0.195383 3.43467 0.493272 0.393469 -0.775799
1.80077 -1.06673 4.2628 0.114107 -0.909595 -0.399521
1.74114 -0.635864 5.09548 0.892878 -0.0677751 0.44517
2.39134 -0.316293 3.68301 0.536097 0.388821 -0.749278
1.52214 -0.177108 3.2089 0.51344 0.359619 -0.779136
-1.97654 0.0785202 6.06198 -0.364221 -0.725619 -0.583798
1.13336 -0.261682 2.93624 0.451235 0.318569 -0.833607
1.13889 -0.227673 2.94445 0.502057 0.347261 -0.792053
0.991454 0.442233 3.19866 0.505393 0.466355 -0.72601
2.05505 0.497074 4.01016 0.465969 0.407087 -0.785591
2.01441 -0.768769 4.28054 0.872765 -0.272147 0.405236
0.814557 0.84014 3.33511 0.389074 0.408819 -0.825523
-0.169945 -1.23328 4.67949 -0.181496 -0.774839 -0.605544
2.28891 -0.653734 3.55876 0.284922 -0.886377 -0.364905
1.85853 -0.178863 3.44556 0.517162 0.480096 -0.708556
1.17169 -1.62181 5.61141 0.837684 -0.379711 0.392562
1.81778 -0.405019 4.98768 0.870301 -0.27865 0.406117
1.83617 -0.590049 3.2937 0.0011548 -0.886566 -0.462601
1.76246 -0.189722 5.26695 0.881932 -0.258393 0.394244
0.248809 -1.7283 5.36473 -0.0773959 -0.907382 -0.41312
1.38803 -0.291584 3.06213 0.467042 0.355226 -0.809744
0.590796 -1.66331 5.23792 0.0147348 -0.889879 -0.455958
0.526631 1.85495 2.90412 0.443432 0.499667 -0.744111
2.34468 -0.487589 3.76365 0.864048 -0.25698 0.432877
0.313323 -0.604652 3.71073 -0.264947 -0.788081 -0.555636
2.40403 -0.0773496 3.88743 0.960128 -0.151745 0.234792
1.64526 -0.176554 3.29504 0.542006 0.450944 -0.70914
0.680184 -0.662109 3.62027 -0.207334 -0.792558 -0.573467
1.75443 -0.566251 3.2553 -0.013008 -0.870228 -0.492477
1.08996 -1.66179 5.25082 0.0389262 -0.902159 -0.429644
0.632007 -0.662376 3.63717 -0.207434 -0.792299 -0.573789
2.19499 -0.430469 4.11544 0.877632 -0.27279 0.394141
2.38878 -0.280112 3.713 0.669215 0.508594 -0.541741
0.651303 -0.383355 3.24934 -0.236616 -0.752628 -0.614463
1.87423 -0.997908 4.43313 0.844099 -0.426034 0.325563
1.80916 0.532559 3.83741 0.496361 0.374801 -0.783039
2.13611 0.0252608 4.54242 0.869401 -0.277777 0.408635
0.745157 -0.605535 3.51895 -0.207312 -0.792667 -0.573325
0.437587 -0.745895 3.80977 -0.205808 -0.79015 -0.577326
-0.168418 -1.1928 4.60551 -0.194688 -0.751766 -0.630036
2.27328 -0.703989 3.73526 0.845376 -0.451634 0.285246
2.29891 -0.0518085 3.80799 0.446506 0.365109 -0.816902
1.64578 -0.475422 3.16122 0.468322 0.350631 -0.811007
2.04404 -0.70554 4.26726 0.875938 -0.253024 0.410746
0.821309 0.332077 3.15582 -0.724975 0.507282 -0.465914
1.77815 -0.80459 5.00718 0.9888 0.00281001 0.149222
1.23817 -1.64991 5.43209 0.863772 -0.417943 0.281464
2.33648 0.135467 4.19221 0.857448 -0.317726 0.404763
1.30069 -0.979117 5.75121 0.85706 -0.278614 0.433384
-0.737864 -0.89392 5.24866 -0.874301 0.314398 -0.369799
2.84633 1.01031 3.9101 0.0675941 -0.76811 -0.63674
2.00199 -0.493062 3.35163 0.481794 0.310568 -0.819403
1.24712 -1.27124 5.69474 0.870308 -0.287348 0.399993
1.13838 -1.69321 5.62247 0.848887 -0.329798 0.413068
2.11746 -0.0235871 4.55442 0.881519 -0.222751 0.416301
0.202153 -0.493716 3.59926 -0.319676 -0.705159 -0.632896
1.67761 -0.362924 5.33321 0.874095 -0.285947 0.392674
2.26709 -0.647135 3.50161 0.2403 -0.871513 -0.427458
2.26963 -0.675472 3.58285 0.23008 -0.894905 -0.382372
-0.499305 -1.25424 4.78131 -0.0887852 -0.807029 -0.583799
0.400687 -0.393757 3.36452 -0.427469 -0.638273 -0.640217
1.20204 -0.0157857 3.0923 0.450394 0.458316 -0.766219
1.6415 -0.0292908 3.39157 0.504502 0.42186 -0.753334
0.186271 -1.69556 5.31542 -0.0770978 -0.90712 -0.41375
1.0989 -0.065633 2.9975 0.499288 0.424255 -0.75546
-0.00938596 -1.51467 5.03292 -0.131129 -0.862233 -0.489244
1.38273 -1.51781 5.07716 0.238066 -0.860858 -0.44972
1.47319 -1.3944 5.07701 0.866995 -0.402671 0.293556
2.27993 -0.272537 4.02058 0.875919 -0.300719 0.377273
1.00948 -1.2235 4.46577 0.0322267 -0.84111 -0.539903
0.330244 -1.48676 4.95897 0.0346484 -0.782419 -0.621788
0.984769 -1.85809 5.6144 0.54462 -0.828734 -0.128796
0.523478 -0.106618 3.05412 -0.512424 -0.553619 -0.656451
0.757017 -1.59275 5.06931 -0.0023587 -0.886224 -0.46325
1.28385 -1.24323 5.6184 0.880415 -0.296751 0.369877
-0.704333 -1.24769 4.86369 -0.36448 -0.695525 -0.619192
-0.654494 -1.34135 4.99739 -0.32277 -0.81744 -0.477086
2.0292 -0.915467 4.12774 0.855114 -0.355382 0.37747
2.32307 -0.653536 3.64417 0.851842 -0.459865 0.250779
1.49781 -1.31519 5.08017 0.86719 -0.354471 0.34976
2.14264 0.368001 3.96225 0.491567 0.43446 -0.754723
0.908105 -1.65187 5.22001 0.0490318 -0.866917 -0.496035
1.54228 -0.633341 5.46265 0.88065 -0.22973 0.414342
2.37934 0.0573825 4.05732 0.863767 -0.278533 0.419913
1.79732 -0.156211 5.20997 0.88567 -0.25027 0.391092
2.10118 0.582327 4.05424 0.51896 0.523769 -0.675534
1.39743 0.640994 3.62548 0.493875 0.425717 -0.758191
-0.531833 -1.19698 4.73741 -0.127532 -0.77171 -0.623056
1.51003 0.512812 3.61862 0.500105 0.464814 -0.730645
-0.300826 -1.41685 4.96802 -0.0849067 -0.785125 -0.613489
1.0521 -1.84125 5.62041 0.793815 -0.59756 0.11305
2.38677 -0.181346 3.85427 0.877795 -0.263761 0.399882
0.662463 1.80678 2.94933 0.443432 0.499667 -0.744111
1.23545 1.64385 3.17816 0.451043 0.458413 -0.765779
1.96767 0.0134002 4.95252 0.880195 -0.25954 0.397361
1.29388 -1.27288 5.57076 0.880415 -0.296751 0.369877
-1.90589 0.987778 4.64353 -0.0446475 -0.907011 -0.418733
1.62437 -0.513711 3.17787 -0.0920154 -0.878157 -0.469439
-0.0770232 -1.66416 5.34626 -0.084057 -0.898574 -0.430695
2.32771 -0.296197 3.67381 0.405919 0.521108 -0.750783
0.246639 -1.46366 4.91254 -0.0257689 -0.842991 -0.53731
2.0536 -0.55874 3.36405 0.496392 0.389179 -0.775974
2.24693 0.372818 4.56644 0.863038 -0.286792 0.415831
-0.363845 -1.03081 4.48037 -0.245558 -0.735289 -0.631705
2.27663 -0.542974 3.87029 0.866556 -0.287461 0.407979
0.768751 0.106591 2.88345 0.2772 0.553116 -0.785635
1.12178 -1.00129 6.13983 0.883346 -0.267809 0.384679
-0.130671 -1.13125 4.47781 -0.20884 -0.777018 -0.593825
1.49016 -1.35509 5.05898 0.867106 -0.354748 0.349688
1.3026 -1.19343 5.6139 0.874943 -0.290676 0.387276
1.03346 -0.249308 2.92798 -0.26454 -0.664504 -0.698895
1.85104 -0.435912 4.89438 0.876859 -0.249989 0.410639
2.29978 1.08587 3.68796 -0.0235762 -0.79456 -0.606728
2.35077 0.359973 4.97423 0.113856 -0.945367 -0.305479
2.01331 -0.741704 3.60435 0.170668 -0.904478 -0.390886
0.41545 -0.322044 3.296 -0.393838 -0.66608 -0.633426
1.28882 -1.34065 5.52328 0.837388 -0.347064 0.422289
2.127 0.0498016 4.61461 0.889477 -0.231272 0.394136
0.943089 0.412925 3.17144 -0.602662 0.759274 -0.245565
2.22841 -0.227909 3.68452 0.461159 0.511647 -0.724948
1.80605 -0.293411 5.09713 0.884502 -0.268231 0.381718
0.903388 -0.503809 3.32726 -0.191715 -0.814771 -0.547169
1.56844 -0.379483 3.11872 0.498015 0.403983 -0.76732
1.22252 0.413776 3.35369 0.459387 0.46467 -0.756998
0.969976 -0.758237 3.71865 -0.0953131 -0.833773 -0.543818
1.52679 -1.37156 4.95256 0.841771 -0.440151 0.312553
0.352457 -1.70722 5.30016 -0.0461875 -0.866815 -0.496487
1.03052 0.709323 3.38808 0.470657 0.516482 -0.715351
0.907415 -1.90252 5.71761 0.0481709 -0.928292 -0.368719
0.645331 -1.60985 5.10834 -0.0329584 -0.860114 -0.509036
2.06401 -0.592743 3.37487 0.13766 -0.747715 -0.649594
0.724541 0.0819742 2.82154 0.336761 0.540416 -0.771066
1.07385 -1.43434 5.96244 0.872708 -0.274877 0.403515
1.55488 -0.494328 5.52848 0.878496 -0.263619 0.398435
1.15809 -0.695971 3.53525 -0.103476 -0.873443 -0.475804
1.71162 -0.19116 5.37847 0.880331 -0.284591 0.379506
0.628558 -1.8021 5.51113 -0.0098008 -0.881592 -0.471911
1.8974 -0.939648 4.00905 0.119949 -0.892702 -0.434391
2.20148 0.405952 4.02096 0.459789 0.451103 -0.764919
1.78845 -0.47843 3.2423 0.468322 0.350631 -0.811007
1.12174 -1.28455 5.95394 0.882134 -0.264844 0.389482
1.17519 -1.11202 5.94772 0.875488 -0.26553 0.403751
0.989998 -1.76217 5.86228 0.854256 -0.395273 0.337648
2.34435 0.449533 4.37063 0.899966 -0.189252 0.392741
1.94655 -0.707944 4.47619 0.876543 -0.268198 0.399677
2.19418 0.539344 4.10421 0.545287 0.43842 -0.714458
-0.691981 -1.26717 4.90352 -0.320455 -0.820693 -0.473045
0.631874 -0.248801 3.09057 -0.267288 -0.744811 -0.611402
1.66496 0.316968 3.59658 0.50252 0.415329 -0.758271
1.36744 -0.410409 3.06266 0.0184224 -0.813173 -0.581731
1.29886 -0.713836 5.96546 0.879476 -0.283473 0.382316
-1.65742 1.37447 3.55925 0.037693 -0.988474 -0.146627
1.6282 0.402436 3.63171 0.522571 0.436612 -0.732318
1.85048 -1.0232 4.45732 0.896277 -0.309477 0.317667
2.50741 0.705638 4.30313 0.194853 -0.784696 -0.58846
2.39605 0.364269 4.2437 0.883093 -0.234286 0.406518
1.3354 0.615934 3.54509 0.515346 0.438096 -0.736539
-0.0849506 -1.37216 4.84445 -0.244557 -0.826303 -0.50736
2.0656 -0.12222 3.61257 0.502847 0.431184 -0.74915
2.00649 -0.549172 4.4431 0.878915 -0.27233 0.391592
-0.429994 -1.07456 4.56587 -0.208291 -0.73931 -0.64034
-0.102169 -1.59435 5.16994 -0.140056 -0.800424 -0.582842
0.915257 -0.20462 2.91535 -0.269426 -0.750665 -0.60325
-0.352046 -1.1817 4.67351 -0.21572 -0.747614 -0.628122
1.61459 -0.332871 5.50153 0.878512 -0.263721 0.398332
1.40641 -1.28495 5.32796 0.856117 -0.32841 0.399012
1.21992 0.726807 3.5304 0.571386 0.45095 -0.685684
-0.481126 -1.44846 5.06869 -0.195774 -0.827575 -0.52611
1.17854 1.71759 3.20114 0.443772 0.495182 -0.746901
1.43064 -0.593598 3.33977 -0.0823312 -0.838952 -0.537942
-0.430145 -1.4152 5.01206 -0.106122 -0.799812 -0.590795
2.18458 -0.230348 4.28081 0.899837 -0.247161 0.359451
2.2884 -0.614726 3.46648 0.396632 -0.21 -0.893635
1.43068 -1.31045 4.9633 0.820497 -0.520425 0.236523
0.514468 1.96063 2.96953 0.443432 0.499667 -0.744111
1.80575 -1.11871 4.48413 0.910533 -0.32187 0.259479
2.31945 0.116279 4.21658 0.880612 -0.301003 0.365949
2.22425 0.220595 4.51294 0.864033 -0.286004 0.414305
1.50217 -1.39135 4.86373 0.157713 -0.918119 -0.363571
0.338124 -1.51248 4.98778 -0.0344718 -0.826716 -0.561562
1.15224 -0.989666 6.08687 0.876406 -0.245445 0.414329
0.695678 -0.173592 2.9747 -0.298627 -0.716689 -0.630221
1.72308 -0.559947 3.23274 -0.0895131 -0.869524 -0.48571
0.852827 -1.81622 5.51337 0.0284616 -0.857401 -0.513861
2.16721 0.357594 4.73143 0.860676 -0.299575 0.411694
2.39976 0.428013 4.19464 0.622012 0.453574 -0.638257
1.36039 0.721108 3.63881 0.468413 0.468383 -0.749137
0.982848 -1.73062 5.90741 0.863527 -0.325914 0.384839
1.01935 -1.81841 5.73999 0.854621 -0.389267 0.343647
2.38437 0.219961 4.15708 0.857448 -0.317726 0.404763
1.28268 -1.49192 5.43394 0.903682 -0.27054 0.331915
0.891129 -0.096284 2.84127 -0.0101174 -0.381579 -0.924281
1.92042 -0.160405 3.50324 0.517162 0.480096 -0.708556
2.35606 -0.110741 3.79926 0.415415 0.51522 -0.749652
1.89424 -0.387415 3.34884 0.472777 0.3299 -0.817097
1.73813 -0.439286 3.23017 0.468322 0.350631 -0.811007
1.23342 0.0967031 3.17124 0.537307 0.455963 -0.709506
2.35852 -0.0899137 3.80938 0.460229 0.415927 -0.784343
2.26142 0.173841 3.92486 0.450378 0.404476 -0.795964
1.91965 -0.933936 4.35852 0.855114 -0.355382 0.37747
2.01866 -0.397133 4.53723 0.894858 -0.27363 0.352641
1.90598 -0.769326 4.54119 0.89692 -0.28301 0.339763
2.40604 0.717907 4.25321 0.194853 -0.784696 -0.58846
2.28744 -0.67975 3.72702 0.856618 -0.411047 0.311844
0.0675091 -1.46664 4.95249 -0.123289 -0.868277 -0.480515
2.38524 -0.420979 3.62432 0.536097 0.388821 -0.749278
0.173839 -1.61925 5.17784 -0.0180347 -0.797594 -0.602925
1.662 -0.535809 3.20533 -0.0884546 -0.868909 -0.487004
-0.315424 -1.08459 4.54018 -0.208291 -0.73931 -0.64034
2.22268 0.482834 4.69184 0.848777 -0.349068 0.397151
1.24292 -1.44468 5.60449 0.901441 -0.244473 0.357264
0.23169 -1.69501 5.3029 -0.0332829 -0.858004 -0.512564
1.87863 -0.497892 3.28597 0.468322 0.350631 -0.811007
1.02725 -0.537697 6.61961 0.864387 -0.25359 0.434197
1.25621 0.672579 3.52497 0.571386 0.45095 -0.685684
-0.0812002 -1.29696 4.71896 -0.173679 -0.826275 -0.535822
2.00045 0.553054 4.00678 0.465969 0.407087 -0.785591
0.948461 -1.88148 5.70265 0.221847 -0.96849 -0.113186
-0.149417 -1.08862 4.43256 -0.266754 -0.765613 -0.585388
-1.70171 1.33976 3.85535 -0.0184752 -0.950261 -0.310905
2.29183 -0.694232 3.66649 0.360889 -0.897957 -0.25186
1.44032 -1.44325 5.08409 0.875308 -0.415008 0.248202
2.32971 1.21672 3.61431 0.185462 -0.485568 -0.854299
1.7309 0.427351 3.71943 0.525432 0.442099 -0.72696
-0.608755 -0.750151 5.07161 -0.824369 0.391266 -0.409056
0.682364 0.101799 2.84264 0.270226 0.564315 -0.780081
2.39498 -0.168051 3.78747 0.967702 0.135602 -0.21252
1.74471 -0.379907 5.17512 0.892232 -0.237324 0.384187
1.5052 -0.45679 3.12001 -0.111694 -0.797905 -0.592344
-0.62638 -1.27268 4.85677 -0.248494 -0.706727 -0.66241
-0.124525 -1.19625 4.61697 -0.176997 -0.776292 -0.605015
1.64341 0.102857 3.46114 0.546719 0.425266 -0.721282
-0.192143 -1.45697 4.99317 -0.192537 -0.808541 -0.55605
1.13677 -1.70191 5.54127 0.745202 -0.63836 0.192795
2.02736 -0.264181 4.61486 0.873799 -0.256117 0.413375
2.34221 0.552361 4.23101 0.588328 0.397652 -0.704091
0.703017 -1.57965 5.04452 -0.0023587 -0.886224 -0.46325
-0.605785 -1.34124 4.96444 -0.32272 -0.81751 -0.477
1.68751 -0.974269 4.03396 0.113114 -0.864038 -0.490554
2.37786 -0.593383 3.59394 0.951962 -0.271736 0.141168
1.54516 -1.35 4.85373 0.779894 -0.54695 0.30432
1.03672 -0.655992 6.55621 0.863179 -0.257004 0.434594
2.40459 0.121881 4.04358 0.901644 -0.263205 0.343164
2.09447 -0.0882416 4.55687 0.878872 -0.250945 0.405723
0.865846 -0.753656 3.72476 -0.0950193 -0.833732 -0.543932
1.252 0.836344 3.62753 0.499019 0.51485 -0.697072
2.30772 0.186021 4.29882 0.880935 -0.298262 0.367414
2.11052 0.645559 4.09726 0.503014 0.490632 -0.711518
1.81806 -0.72928 4.78774 0.931155 -0.251918 0.263605
1.05768 -1.38751 6.02213 0.879602 -0.278298 0.385812
1.88626 -0.601609 3.32038 0.0544695 -0.899259 -0.434012
1.54048 -0.493018 3.16427 -0.0802502 -0.880729 -0.466773
0.699251 -1.79414 5.49479 -0.0098008 -0.881592 -0.471911
1.9323 -0.067758 4.96967 0.874031 -0.264802 0.407369
0.883254 0.776667 3.30614 0.473107 0.404806 -0.782497
2.1552 -0.779854 3.95569 0.864294 -0.315531 0.39171
-0.465701 -0.986965 4.48622 -0.216497 -0.747124 -0.628439
1.75643 -1.15684 4.42711 0.0946236 -0.904068 -0.416782
1.03025 -1.59316 5.1618 -0.0410757 -0.912791 -0.406355
-0.104067 -1.33933 4.78241 -0.26402 -0.868287 -0.419966
1.51556 -0.471268 5.61261 0.880859 -0.255245 0.39867
1.34215 -0.382648 3.03337 0.0376101 -0.766358 -0.641312
0.350919 -0.626892 3.70906 -0.263524 -0.787224 -0.557524
2.02415 0.053457 4.83054 0.897435 -0.246459 0.36588
1.40684 -0.0895762 3.17368 0.541617 0.395356 -0.741852
0.34235 -0.556503 3.583 -0.25312 -0.815746 -0.520086
0.470326 -0.805835 3.88007 -0.205791 -0.790157 -0.577324
2.03813 -0.860723 4.17057 0.89076 -0.294444 0.346192
2.36962 -0.436547 3.7484 0.870105 -0.266 0.414923
1.35546 -0.860587 5.73543 0.87377 -0.297153 0.385001
1.07426 -1.4881 5.91535 0.858404 -0.31781 0.402666
2.3126 0.53339 4.5368 0.840262 -0.463697 0.280972
1.84555 -0.138647 3.45551 0.52596 0.462865 -0.713528
1.22786 -0.25471 2.98584 0.467078 0.355315 -0.809685
2.27026 -0.104833 3.76267 0.324202 0.502565 -0.801449
1.96674 -0.102341 3.57859 0.520308 0.407187 -0.750652
2.3845 -0.382976 3.64351 0.536097 0.388821 -0.749278
0.324218 -1.72641 5.36135 -0.00902045 -0.895184 -0.445606
0.839085 0.343469 3.05077 0.462218 0.472169 -0.750607
1.07542 -0.335488 3.04567 -0.285677 0.232595 -0.929671
1.82589 -0.691299 4.79208 0.931744 -0.251684 0.261741
1.92212 -0.528946 3.30782 0.472777 0.3299 -0.817097
1.61908 -1.27942 4.66827 0.67142 -0.722509 -0.164851
1.76161 -0.563587 5.06543 0.892878 -0.0677751 0.44517
1.15874 0.667241 3.45585 0.543567 0.495483 -0.677518
2.68199 1.10436 3.76426 0.0762335 -0.759491 -0.646036
2.14239 -0.418611 3.48172 0.517838 0.459175 -0.721805
-0.0589127 -1.42226 4.89501 -0.247349 -0.855871 -0.454205
1.04983 -1.72335 5.39357 0.13709 -0.912355 -0.385766
2.31871 -0.669411 3.67719 0.895789 -0.299288 0.328618
2.40225 -0.272594 3.7361 0.997831 0.0599742 -0.0271258
1.04704 -0.879363 6.40713 0.867189 -0.271314 0.417579
0.0775049 -1.31764 4.70455 -0.111645 -0.804789 -0.582967
2.10472 0.0719688 4.64776 0.884759 -0.274742 0.376454
1.44219 -1.07614 5.39079 0.872939 -0.273348 0.404053
2.00996 -0.952291 4.16692 0.866588 -0.328333 0.375796
0.78712 1.77084 2.9985 0.443433 0.499665 -0.744112
1.42682 0.746528 3.68955 0.482403 0.466636 -0.741308
2.17939 -0.157104 3.67741 0.546082 0.421568 -0.72393
0.769017 0.266947 2.98312 0.268234 0.521448 -0.810026
2.39841 0.105865 3.97592 0.475713 0.524825 -0.705872
2.41209 0.289728 4.14055 0.954902 -0.184297 0.232804
0.837643 1.81413 3.05776 0.443442 0.499636 -0.744126
2.03691 -0.598513 4.34544 0.880386 -0.261686 0.395526
1.37902 -1.14985 5.4791 0.872962 -0.274301 0.403357
1.16473 -1.27758 5.86849 0.868012 -0.28511 0.406531
0.868537 -0.610855 3.48173 -0.20731 -0.792677 -0.573312
-0.396183 -1.06829 4.53657 -0.245571 -0.735286 -0.631704
0.949677 -0.218292 2.91956 -0.310237 -0.738392 -0.598774
-0.203242 -1.23378 4.66437 -0.198901 -0.762889 -0.615174
0.608821 0.275483 3.34163 -0.741654 -0.116245 -0.660633
0.905011 -1.89976 5.77389 0.221847 -0.96849 -0.113186
0.914853 1.12997 3.6534 0.498846 0.555067 -0.665623
0.706261 0.122584 2.8624 0.297485 0.555625 -0.776391
2.11375 -0.585142 3.38284 0.517191 0.332291 -0.78873
0.834252 1.16921 3.63195 0.511256 0.562232 -0.650009
2.00472 0.0563755 4.88982 0.892663 -0.261937 0.366799
2.60109 0.37583 5.0654 0.122269 -0.932261 -0.340499
-1.84954 1.00959 4.59072 -0.0446426 -0.90701 -0.418737
1.72492 -0.462932 3.21232 0.468322 0.350631 -0.811007
0.827995 0.420622 3.08822 0.298233 0.469498 -0.831041
0.532731 1.89386 2.93466 0.443432 0.499667 -0.744111
2.39818 0.177218 4.09681 0.872473 -0.258979 0.414391
1.1402 -1.5885 5.11025 -0.0811019 -0.903305 -0.421264
2.31673 0.248559 4.33062 0.880721 -0.300086 0.366441
0.899685 0.395896 3.12994 0.508801 0.381689 -0.771644
-0.703297 -1.29034 4.94453 -0.322347 -0.818037 -0.476349
1.51667 0.469828 3.60377 0.511415 0.459567 -0.726122
1.97089 -0.153739 3.52613 0.493145 0.494866 -0.715483
1.91007 -0.78493 4.50988 0.904767 -0.28433 0.317101
1.13204 -1.70156 5.37126 0.13709 -0.912355 -0.385766
2.47267 0.521255 4.6357 0.282412 -0.860113 -0.424792
1.26672 -1.39852 5.51924 0.894671 -0.258117 0.364609
2.23387 -0.540009 3.96108 0.87019 -0.280619 0.404996
1.05454 -0.720724 6.48742 0.86318 -0.257555 0.434265
1.02247 0.39571 3.19918 0.483523 0.414749 -0.770836
1.88961 -0.978067 4.40607 0.872194 -0.322947 0.367401
1.99246 -0.617197 3.37665 0.020729 -0.876662 -0.48066
-0.0219119 -1.63709 5.22776 -0.0882673 -0.863308 -0.496898
0.0920939 -1.68296 5.30542 -0.0988647 -0.883463 -0.457951
0.931399 1.68239 3.03354 0.44389 0.497767 -0.745111
-0.241502 -1.37058 4.95126 -0.216172 -0.84694 -0.48576
-0.162186 -0.44776 4.43054 -0.812658 0.465034 -0.351184
2.39949 0.553034 4.29798 0.95257 -0.171605 0.25132
2.15934 -0.0154408 4.48581 0.873129 -0.260291 0.412182
2.35582 -0.505292 3.58146 0.621919 0.322079 -0.71378
0.30597 -1.6165 5.18732 0.0100446 -0.79702 -0.603869
0.751771 -0.584209 3.47242 -0.210897 -0.811722 -0.544637
1.98995 -0.714889 4.36882 0.872707 -0.272046 0.40543
1.78895 -1.08418 4.88674 0.849102 -0.266698 0.455958
0.887189 0.287909 3.0524 0.507729 0.42828 -0.747521
2.32701 -0.346976 3.88318 0.858253 -0.2866 0.425749
0.0828896 -1.35683 4.80606 -0.0304454 -0.883514 -0.467414
2.04516 -0.0203238 4.74357 0.883583 -0.272333 0.38094
1.04675 -0.96161 6.35078 0.871588 -0.28908 0.395938
0.858709 1.76503 3.03917 0.443485 0.499482 -0.744203
2.26081 -0.488232 3.92969 0.880284 -0.272426 0.388439
1.23342 -0.089489 3.07436 0.460763 0.422225 -0.780656
1.11491 -1.74068 5.44722 0.123778 -0.83008 -0.543733
