1.58541 -0.91855 3.91264
1.21015 -0.507829 3.18169
1.56863 -0.912563 3.90023
1.09263 -0.3755 2.99091
1.72769 -1.09101 4.28291
1.58568 -0.95129 3.97513
1.79232 -1.16992 4.47803
1.74745 -1.1763 4.39181
1.74758 -1.16268 4.45303
1.40563 -0.799935 3.69129
1.76173 -1.18475 4.48576
1.0558 -0.403982 3.03643
1.52158 -0.961943 3.98976
1.23047 -0.62921 3.40639
1.43201 -0.880585 3.83649
1.15024 -0.555938 3.29911
1.49431 -0.953915 4.01923
1.45918 -0.925077 3.92986
1.66889 -1.16274 4.39039
1.64021 -1.12967 4.35438
1.4978 -0.982142 4.02532
1.48755 -0.973117 4.03426
1.54771 -1.05021 4.17144
1.17727 -0.62204 3.42342
1.32688 -0.825915 3.76375
1.4668 -1.04678 4.14327
1.63823 -1.24041 4.55956
1.43481 -1.01066 4.09516
1.38618 -0.963658 3.99185
1.50734 -1.12317 4.29436
1.12148 -0.674292 3.50251
1.21004 -0.77733 3.70059
1.4559 -1.08876 4.22689
1.53284 -1.17564 4.44128
1.41442 -1.04272 4.16101
1.19303 -0.792077 3.72598
1.61472 -1.34353 4.79078
1.2567 -0.954565 4.00558
1.37418 -1.09971 4.23414
1.3605 -1.08696 4.22083
1.36685 -1.09747 4.22659
1.45279 -1.2199 4.48122
1.52203 -1.30387 4.68973
1.53426 -1.327 4.75442
1.32779 -1.09338 4.19612
1.39761 -1.19098 4.43535
1.21691 -0.984222 4.05175
1.32975 -1.12239 4.30529
1.26621 -1.04886 4.17032
1.06241 -0.831617 3.79355
0.85703 -0.581643 3.40708
1.10992 -0.896027 3.87477
1.07981 -0.881935 3.89373
1.42786 -1.32779 4.71626
1.45266 -1.40923 4.87904
1.02685 -0.893275 3.91273
1.35572 -1.30581 4.65584
1.36131 -1.34475 4.73173
1.12156 -1.05422 4.20959
1.12859 -1.07249 4.22443
0.976419 -0.904139 3.92576
1.07905 -1.04318 4.17895
1.02436 -0.987552 4.07065
1.12488 -1.11473 4.28917
1.32855 -1.37318 4.807
1.27589 -1.30661 4.65745
0.945533 -0.896662 3.92127
0.979772 -0.984355 4.07218
1.32938 -1.43372 4.89988
1.08385 -1.13406 4.34557
0.912967 -0.95479 4.028
1.17958 -1.30656 4.64442
1.16235 -1.28518 4.6122
0.936028 -0.997706 4.10349
0.839474 -0.901597 3.94476
1.17158 -1.33382 4.68321
1.10002 -1.27161 4.54276
0.750399 -0.824439 3.8502
0.903233 -1.03052 4.16861
0.797623 -0.908262 3.99327
1.18806 -1.41616 4.8551
0.968739 -1.16761 4.4154
1.08375 -1.33219 4.71565
0.563936 -0.677455 3.64077
1.03391 -1.3356 4.71048
0.860656 -1.1136 4.31937
0.730564 -1.00388 4.14832
1.0749 -1.46317 4.95367
1.04293 -1.42115 4.87504
0.812986 -1.11666 4.32503
0.655324 -0.914597 4.04958
1.09784 -1.50163 5.02431
0.811249 -1.15899 4.41335
1.0438 -1.54065 5.05918
0.73193 -1.1339 4.37907
0.874263 -1.34585 4.73342
0.933438 -1.43604 4.90892
0.976988 -1.49305 4.97181
0.560047 -0.954534 4.18128
0.640948 -1.06748 4.27019
0.866723 -1.38923 4.82364
0.583956 -1.11563 4.40573
0.577571 -1.11385 4.38364
0.658525 -1.46729 4.96181
0.621549 -1.41654 4.87254
0.507473 -1.2885 4.69856
0.594404 -1.49544 5.04259
0.465165 -1.31659 4.73254
0.443323 -1.39659 4.89848
0.466032 -1.44044 4.98815
0.429953 -1.42315 4.99882
0.481323 -1.56697 5.1713
0.380699 -1.55505 5.20881
0.302721 -1.50292 5.06164
0.125873 -1.43324 5.00321
0.196679 -1.58635 5.24497
2.11766 -0.678914 3.52496
2.05312 -0.666517 3.46151
2.04806 -0.657939 3.46279
2.07045 -0.67702 3.52338
1.96584 -0.679341 3.47517
1.95107 -0.694017 3.51116
1.8004 -0.564804 3.22632
2.12864 -0.847836 3.92875
1.76213 -0.527973 3.18671
1.91947 -0.687085 3.50009
1.72936 -0.542428 3.18901
1.71203 -0.531528 3.18496
1.30152 -1.1745 4.35199
1.52803 -1.25788 4.57443
1.35809 -1.20365 4.41795
1.18078 -1.13477 4.27074
1.21842 -1.15076 4.30914
1.12392 -1.12094 4.2394
1.14991 -1.24534 4.48589
1.24358 -1.29799 4.61056
1.06189 -1.2314 4.45035
0.856823 -1.1487 4.32129
1.40161 -1.37009 4.78814
1.10846 -1.2542 4.5353
1.33503 -1.36204 4.74028
1.32333 -1.35749 4.74732
0.937697 -1.22169 4.42248
0.727332 -1.12876 4.31227
0.817694 -1.17416 4.36525
0.737586 -1.23034 4.47876
1.16079 -1.44861 4.88752
0.940053 -1.37575 4.71933
0.673627 -1.27009 4.54298
0.518523 -1.34528 4.70678
0.0342295 -1.48493 5.00098
0.750123 -1.82304 5.53841
0.0382799 -1.53149 5.07666
1.31596 -1.52093 5.00259
1.72893 -1.16469 4.8782
2.07484 -0.758578 4.03747
2.27752 -0.235365 3.99715
1.8155 -1.0626 4.28438
1.19207 -1.72383 5.36324
0.982956 -1.70213 5.24965
2.26891 0.45511 4.40078
2.26636 -0.107503 4.13787
1.85453 -0.938256 4.58333
1.5363 -1.13033 4.7565
1.14674 -1.74513 5.61522
0.925389 -1.77954 5.46787
0.573481 -1.30839 4.54826
1.28424 -0.404808 6.17207
2.25489 -0.0983243 4.21196
1.87033 -0.606449 4.78925
2.33691 -0.463949 3.8329
1.87002 -0.754259 4.5154
1.35574 -1.28092 5.43807
1.66781 -1.17198 4.93988
2.12028 -0.836446 3.88266
2.19448 -0.702278 3.57567
1.89128 -0.735018 3.59966
1.43478 -1.40911 4.81188
1.3975 -0.870009 3.82686
1.77073 -0.486921 5.0223
1.56496 -0.791917 5.30248
2.25231 -0.405682 3.99041
2.11068 -0.544128 4.20942
1.78303 -1.04016 4.99749
1.86981 -0.918452 4.49845
1.53204 -1.34704 4.7715
1.46282 -1.452 4.91973
1.8612 -0.756642 3.63988
1.43997 -1.27534 4.52357
1.55199 -0.909075 3.89911
0.942089 -1.77208 5.39256
0.155777 -1.62412 5.17926
2.01065 -0.318606 4.61032
1.87084 -0.487664 4.8332
1.78388 -0.550573 5.00212
2.18779 -0.33083 4.20279
2.21865 -0.334401 4.1711
2.04219 -0.425205 4.41479
1.49132 -0.809494 5.50611
2.01934 -0.464783 4.43394
1.46891 -0.941357 5.42548
2.30502 -0.562463 3.79799
1.95512 -0.779998 4.3932
1.02936 -1.41836 6.08149
2.0664 -0.760825 4.18338
2.30215 -0.63323 3.77778
1.24819 -1.48403 5.56563
2.08151 -0.754372 3.76255
1.2201 -1.61505 5.54754
1.42873 -1.49944 5.00329
1.62853 -1.14679 4.37017
1.87253 -0.773971 3.67467
1.26911 -1.64719 5.26282
1.10446 -1.82521 5.56536
1.55499 -1.14188 4.33705
0.97491 -1.93458 5.7374
1.48604 -1.21992 4.41968
1.25627 -1.44861 4.83752
0.882021 -1.49139 4.92549
0.658537 -1.758 5.33298
0.22769 -1.53312 4.99702
-0.0481427 -1.51483 5.02651
2.25161 0.0884887 4.34544
1.5165 -0.359907 5.70872
2.0333 -0.192777 4.63342
2.32718 -0.0505483 4.0825
2.38228 -0.0331967 3.96475
1.8712 -0.317076 4.94266
2.30917 -0.0917835 4.09744
1.8228 -0.337139 5.00487
2.12537 -0.283613 4.35783
2.22363 -0.358814 4.09378
1.77612 -0.750071 4.90342
1.59396 -0.900118 5.23583
1.90871 -0.669364 4.59875
1.2058 -1.11433 5.91619
1.55129 -0.954437 5.23436
1.14713 -1.25312 5.96251
2.23968 -0.597744 3.907
1.72667 -1.15749 4.96185
1.98763 -0.884127 4.30044
2.28995 -0.712665 3.69771
1.83066 -1.1104 4.38001
1.42445 -1.52269 5.06903
1.87234 -0.775389 3.68183
1.30054 -1.61758 5.21304
1.33159 -1.32148 4.61934
1.10431 -1.62084 5.13385
1.35611 -1.27592 4.49199
1.47115 -1.015 4.07952
1.17405 -1.42694 4.78973
1.41705 -0.903661 3.89394
0.77745 -1.81317 5.45411
0.90834 -1.60169 5.07908
1.16155 -1.18689 4.34197
0.883864 -1.38788 4.70284
0.965691 -1.18818 4.39061
0.606334 -1.62739 5.09263
2.4062 0.420415 4.23164
2.3746 0.395839 4.2789
2.34585 0.399904 4.30274
1.48583 -0.423877 5.72762
1.77793 -0.379532 5.07763
2.19801 -0.154687 4.28204
1.40641 -0.611263 5.78753
1.99528 -0.293651 4.66352
1.14878 -0.780587 6.26709
2.07219 -0.276712 4.48474
2.18809 -0.218776 4.24141
2.26349 -0.190586 4.11277
1.84156 -0.456051 4.91904
1.7392 -0.562135 5.10884
2.12516 -0.306462 4.31945
2.36352 -0.211415 3.89781
1.61158 -0.653794 5.28706
1.49682 -0.73435 5.48756
1.91887 -0.481433 4.67328
1.54145 -0.745636 5.40194
1.18391 -1.02104 6.0104
1.88365 -0.621843 4.69862
1.27747 -1.04334 5.8086
1.89653 -0.646366 4.62626
1.93575 -0.665434 4.36475
1.21959 -1.42756 5.65485
2.19186 -0.810765 3.90532
1.63668 -1.21545 4.83971
1.33846 -1.40549 5.35802
1.41166 -1.38357 5.24598
1.90363 -0.91153 3.97118
1.45838 -1.52268 5.10821
1.66725 -1.20266 4.48075
1.7247 -1.03533 4.20522
1.70265 -1.04106 4.18135
0.996463 -1.90695 5.77895
1.43208 -1.32841 4.66472
1.15172 -1.73725 5.39815
1.75106 -0.755429 3.63293
1.35316 -1.37361 4.72846
1.12737 -1.60873 5.11196
1.20013 -1.38065 4.73283
1.14428 -1.45989 4.85523
1.32277 -1.1639 4.33767
1.26241 -1.18297 4.3845
1.54493 -0.712478 3.56584
1.0745 -1.48312 4.89375
1.01131 -1.48662 4.87903
1.49728 -0.651165 3.45431
1.31922 -0.937199 3.9364
0.933817 -1.48543 4.85787
0.71058 -1.73457 5.3114
0.855898 -1.46186 4.83122
0.675666 -1.70258 5.25128
0.699861 -1.27667 4.53859
0.577976 -1.01701 4.18386
2.12662 0.259415 4.68102
2.26938 0.123128 4.34178
1.79009 -0.114591 5.22159
1.76653 -0.199199 5.26648
2.32624 -0.0565656 4.10494
2.11601 -0.22052 4.42831
2.31011 -0.159561 4.0165
2.20148 -0.257932 4.20466
1.88977 -0.462068 4.81962
2.14865 -0.306018 4.31456
2.13239 -0.289234 4.29571
1.95415 -0.417618 4.65386
1.2211 -1.17536 5.8561
1.09693 -1.25195 6.05529
1.88805 -0.781744 4.58742
1.32065 -1.14864 5.63777
1.84961 -0.80425 4.57151
1.56521 -1.07062 5.09862
2.11551 -0.767471 4.02898
1.8669 -0.941108 4.47977
1.98369 -0.878448 4.26977
2.14616 -0.788755 3.97352
1.42259 -1.28724 5.29237
1.03746 -1.60473 5.95
1.7364 -0.726158 3.57559
1.00105 -1.84912 5.57155
1.44298 -1.1572 4.34912
1.42786 -1.12172 4.28582
0.939821 -1.86932 5.58583
1.22716 -1.36818 4.70837
1.4763 -0.883696 3.86323
1.24331 -1.20217 4.41806
1.03531 -1.57358 5.04091
0.955241 -1.71679 5.25397
1.14503 -1.28977 4.56169
1.31063 -1.01298 4.08412
0.863966 -1.74915 5.31815
1.1758 -1.12585 4.26735
0.781105 -1.75828 5.34787
0.874631 -1.59015 5.05419
1.05692 -1.17611 4.35929
2.11499 0.0925861 4.62503
2.39275 0.140984 4.07102
2.11329 -0.0598176 4.52821
1.50254 -0.425306 5.69025
2.00388 -0.23077 4.7002
1.82995 -0.352871 5.03345
2.2394 -0.124039 4.22632
1.0238 -0.766076 6.48652
2.35298 -0.115259 3.97747
2.15302 -0.203794 4.326
2.2008 -0.205567 4.25614
1.73627 -0.461017 5.12003
1.33719 -0.710111 5.89581
2.02903 -0.320277 4.53349
2.36992 -0.125564 3.8485
2.07278 -0.368443 4.41459
1.86178 -0.510901 4.82375
2.07082 -0.366188 4.40211
1.94015 -0.472484 4.67329
2.30204 -0.246722 3.97046
1.75563 -0.605597 5.04075
1.88246 -0.505201 4.74687
1.96474 -0.532235 4.62621
2.20895 -0.360216 4.11116
2.04154 -0.489223 4.40472
1.49312 -0.866171 5.43561
2.01867 -0.51515 4.39941
1.05736 -1.12267 6.21875
1.16907 -1.09048 6.03534
0.774592 1.92239 3.09885
2.3039 -0.405704 3.90069
1.3962 -0.934384 5.55849
1.89245 -0.670362 4.64325
2.32828 -0.442388 3.8588
2.33831 -0.4169 3.82001
2.15826 -0.513411 4.13169
1.26411 -1.07269 5.80712
2.05253 -0.583412 4.31107
1.13102 -1.18189 6.03119
1.8634 -0.94534 4.90281
1.34762 -1.07235 5.62617
1.53002 -0.956199 5.25928
2.15319 -0.57137 4.10681
0.547666 1.97807 3.02792
0.518973 2.02422 3.0061
1.33836 -1.11023 5.62217
1.96535 -0.70857 4.40832
1.30269 -1.21166 5.66093
1.18047 -1.31195 5.85508
1.2346 -1.31721 5.78286
1.42596 -1.16809 5.4012
1.8629 -0.880482 4.57835
1.95023 -0.81799 4.40628
1.16981 -1.29903 5.80708
1.33981 -1.21364 5.4978
1.34045 -1.24336 5.5196
1.83871 -0.967887 4.54029
2.11646 -0.804279 4.01833
2.19614 -0.769861 3.88985
1.07698 -1.58092 5.87503
1.00823 -1.61455 5.98054
2.23433 -0.690824 3.6069
1.51493 -1.30243 5.03879
1.9014 -0.899304 3.95758
1.9732 -0.828704 3.79425
1.23334 -1.63141 5.21634
1.60331 -0.992377 4.05788
1.4844 -1.11302 4.27923
1.33205 -1.33051 4.64128
0.938375 -1.83709 5.53579
1.09202 -1.4954 4.9476
1.213 -1.13065 4.29895
1.11212 -1.28039 4.54042
1.26258 -0.98136 4.02223
1.19535 -1.0057 4.08757
1.0776 -1.1634 4.34069
0.746754 -1.72672 5.28686
0.920332 -1.43995 4.79529
0.840386 -1.58063 5.02979
0.736201 -1.68558 5.2129
1.04229 -0.832718 3.81141
0.827185 -0.922975 3.97758
0.539925 -1.4881 4.89014
0.136374 -1.35875 4.74102
2.38666 0.518678 4.30362
2.37298 0.504516 4.32716
2.36439 0.469103 4.34196
2.32496 0.463462 4.3845
2.06873 0.332226 4.84001
2.13579 0.153997 4.67213
2.13059 0.124304 4.57111
1.25992 -0.441222 6.25889
2.36041 0.0872358 4.11384
2.30189 0.0865309 4.18303
1.60114 -0.287504 5.51825
1.58856 -0.366105 5.5322
2.34691 0.0327118 4.06282
1.55743 -0.386131 5.58628
2.37583 0.0289862 4.02144
2.26416 -0.0434432 4.22109
2.36252 0.00669925 4.0259
2.04571 -0.222012 4.58127
2.17707 -0.172086 4.32089
1.72261 -0.418984 5.18496
1.92771 -0.304649 4.77588
1.22968 -0.73827 6.11192
2.10616 -0.258657 4.41593
2.02703 -0.31963 4.58204
2.37092 -0.134336 3.92793
2.16291 -0.244848 4.31697
2.39671 -0.117691 3.87204
1.53044 -0.578523 5.49359
1.82696 -0.442726 4.95865
1.59526 -0.566893 5.37642
1.78762 -0.467144 5.00972
1.79742 -0.460645 4.97857
2.10971 -0.295916 4.37972
1.87154 -0.449205 4.84823
1.58525 -0.603877 5.37747
1.85472 -0.454334 4.8673
1.7621 -0.519223 5.03673
1.87438 -0.451652 4.81039
2.37952 -0.194368 3.86178
2.09931 -0.343033 4.37018
2.09082 -0.385512 4.34617
2.10119 -0.402112 4.33054
1.88438 -0.51862 4.72074
2.39014 -0.275491 3.80887
1.22339 -0.942063 5.96048
1.32276 -0.897978 5.79211
2.21888 -0.380729 4.10195
0.00177705 -0.686114 7.13412
1.58748 -0.780087 5.30045
1.02841 -1.08558 6.30236
1.27376 -0.98654 5.8586
2.39225 -0.321307 3.76391
1.51291 -0.851962 5.37727
1.93522 -0.609697 4.55768
2.2984 -0.407773 3.87158
1.40187 -1.0008 5.55353
1.90835 -0.731651 4.57897
1.79967 -0.801806 4.74246
1.24663 -1.19237 5.75127
1.38991 -1.11688 5.49876
1.02547 -1.34357 6.14282
1.09896 -1.34086 6.02322
1.05552 -1.35001 6.07081
1.27039 -1.23801 5.67702
2.35853 -0.523506 3.64424
2.05162 -0.808767 4.1537
1.6093 -1.19834 4.98741
1.00839 -1.54803 6.01041
1.91416 -0.968299 4.36302
1.18331 -1.46723 5.66226
1.1327 -1.52988 5.75292
1.47942 -1.32554 5.12355
2.01701 -0.914634 4.02644
1.17945 -1.59633 5.65768
2.13036 -0.759214 3.71985
1.09486 -1.72326 5.7424
1.11772 -1.70393 5.68388
1.55024 -1.34666 4.72798
1.77947 -0.877821 3.886
1.16668 -1.77988 5.51555
1.47531 -1.3449 4.69322
1.37502 -1.46441 4.90567
1.52261 -1.14134 4.33574
0.924096 -1.84997 5.52851
0.893805 -1.76874 5.38795
1.06768 -1.34924 4.64917
0.849688 -1.14867 4.33092
0.434308 -1.42635 4.79603
2.80077 0.438756 4.74927
2.02208 0.181174 4.86923
2.09865 0.200718 4.71339
2.00999 0.10346 4.88401
1.9458 0.041229 5.00392
2.33933 0.232834 4.21164
1.8678 0.00833458 5.12603
2.39821 0.201826 4.10704
1.79314 -0.081983 5.26491
2.32236 0.109149 4.19451
2.09707 -0.0482863 4.5533
2.30374 0.0410959 4.14806
2.12666 -0.0647322 4.50281
1.67172 -0.330835 5.41048
2.30064 0.0231165 4.16478
2.18168 -0.0511671 4.40509
1.50799 -0.422655 5.66997
1.67736 -0.338691 5.35148
2.24266 -0.11459 4.23364
2.17308 -0.12779 4.33734
2.04364 -0.213885 4.60544
1.90171 -0.290845 4.87247
2.33934 -0.066761 4.01719
2.12426 -0.188633 4.42481
1.9685 -0.324546 4.77738
2.24885 -0.12467 4.18769
1.20933 -0.722401 6.19731
2.33331 -0.115358 4.02772
2.23503 -0.168077 4.19637
1.91622 -0.374543 4.79447
1.98313 -0.325532 4.64307
1.98444 -0.385996 4.6077
2.02895 -0.370142 4.52201
1.52541 -0.677093 5.47169
1.86488 -0.509659 4.79925
1.05017 -1.02899 6.30177
1.27197 -0.911655 5.86878
1.27919 -0.952907 5.88756
2.03852 -0.465414 4.41262
1.23531 -0.973419 5.94096
1.2666 -0.988723 5.89809
1.54595 -0.807474 5.33128
1.07509 -1.06882 6.18822
1.49844 -0.868394 5.4177
1.88114 -0.631001 4.66999
1.42073 -0.939624 5.56136
2.20103 -0.445927 4.07593
1.87983 -0.643924 4.64732
1.89214 -0.653019 4.63274
1.45928 -0.942207 5.45408
1.0287 -1.17914 6.22104
2.01634 -0.61346 4.39555
1.17674 -1.14633 5.93639
1.59577 -1.08521 5.06526
1.91646 -0.865161 4.45332
1.31974 -1.25936 5.54913
1.35999 -1.24402 5.44338
1.59506 -1.20938 5.03259
1.04365 -1.56159 5.97388
1.76022 -1.12903 4.71564
1.8114 -1.05722 4.57138
1.45394 -1.32149 5.23377
1.01919 -1.5978 5.97797
1.76217 -1.03927 4.19242
1.62239 -1.20122 4.46443
1.64503 -1.14119 4.36651
1.50994 -1.27783 4.58188
1.74226 -0.869468 3.85016
1.34883 -1.16889 4.35326
1.15843 -1.46453 4.83324
1.35764 -1.05683 4.1588
1.30145 -1.08858 4.23669
0.646126 -1.6522 5.14877
-5.80972 -1.89054 10.8581
-2.41033 -0.124151 6.80332
-3.02511 -0.456476 7.60567
-4.27029 -1.20751 9.16736
-2.77379 -0.389781 7.41126
0.954966 -0.463205 3.25433
0.63614 -0.464402 3.37301
1.506 -1.19167 4.44285
1.42386 -1.31413 4.70971
1.10604 -1.27702 4.54824
1.0741 -1.26582 4.54203
0.840601 -0.199847 2.89319
1.1505 -0.418907 3.09757
1.07246 -0.380632 3.05579
0.715431 -0.381522 3.2115
1.57734 -0.882124 3.82567
0.63054 -0.449838 3.33856
0.722309 -0.878636 3.93463
1.48546 -1.27831 4.59309
0.846942 -1.34905 4.69612
1.50237 -0.621376 3.34734
1.97511 -0.829334 3.73167
0.658277 -0.22221 3.01808
0.873285 -0.354535 3.09668
0.493457 -0.656113 3.70227
0.653676 -0.757862 3.77633
1.49683 -1.18301 4.41023
1.08101 -1.03057 4.1169
0.496935 -0.886153 4.00917
0.734608 -1.02068 4.15017
0.99725 -1.85219 5.76301
0.138081 -1.47118 5.02802
0.925312 -1.86275 5.78114
0.28969 -1.63059 5.23285
1.03131 -0.81757 3.7629
1.39524 -1.0563 4.15582
1.18452 -0.9775 4.00822
0.380638 -0.637907 3.70045
1.30909 -1.09019 4.22036
1.31449 -1.16462 4.35549
1.3433 -1.18409 4.38333
0.806162 -0.954854 4.03392
0.874678 -0.443637 3.2318
1.40853 -0.995513 4.03268
1.24136 -0.956377 3.96372
1.39502 -1.02482 4.09395
1.66065 -1.14387 4.37547
0.818853 -0.904451 3.95682
1.04952 -1.05748 4.17086
1.33156 -1.18479 4.38508
1.46885 -1.2477 4.55743
1.0836 -1.0963 4.23888
1.31495 -1.29954 4.631
0.961169 -1.25016 4.50109
0.942583 -1.34139 4.68319
0.985602 -1.38284 4.76697
0.637821 -1.24837 4.55193
0.247825 -1.37085 4.80893
1.01797 -1.76667 5.55869
1.76757 -0.913569 3.90313
1.02843 -1.78097 5.55668
1.70688 -0.751959 3.57784
1.29856 -0.635653 3.41177
1.31424 -0.980459 3.99544
1.44797 -1.24877 4.54358
1.12514 -1.10775 4.24244
0.658588 -1.00506 4.15373
0.921323 -1.59915 5.16577
1.6821 -0.656065 3.40205
1.70848 -0.70269 3.48391
0.6486 -1.04672 4.20948
0.611331 -0.453479 3.36495
1.64148 -0.788962 3.65666
1.83549 -0.321399 3.34826
2.11124 -0.890962 3.97455
0.808924 -1.2821 4.55116
2.1446 0.257167 4.73471
1.68528 0.507402 3.75127
1.6256 0.53213 3.72434
0.525681 -1.1497 7.94357
2.1201 -0.839829 3.87071
1.84473 0.711781 3.96306
1.8061 0.65372 3.9064
2.35695 -0.158746 3.92117
2.07498 -0.280529 4.50714
1.00963 0.607518 3.36461
2.14629 -0.666751 4.08202
0.787737 -1.16105 7.87605
0.166052 -1.29183 8.25253
2.23399 0.256054 4.53483
1.89407 -0.55079 4.74061
0.286239 -1.18914 8.05985
0.234613 -1.11521 7.94546
0.163042 -1.17458 8.04576
0.832729 0.273233 3.03706
1.9667 -0.920102 3.98755
1.22581 -1.00351 4.10218
1.19947 -0.998838 4.04639
-0.581561 -1.19211 4.79413
2.20767 0.749113 4.22699
1.92779 -0.34784 4.80987
2.14739 -0.363242 4.26701
-2.29436 0.162534 6.2048
0.69403 -0.283003 3.09759
-2.7075 -0.162588 6.91349
0.718915 -1.26659 4.583
-0.148238 -1.33922 4.79698
0.707897 -1.4433 4.83117
0.978058 -1.54142 5.08074
0.919331 -1.93585 5.97929
-2.1188 0.0403241 6.51892
-2.0347 0.00798757 6.59202
-2.45474 0.021628 6.60477
-2.64219 -0.171751 6.96854
-2.75721 -0.248579 7.16574
-3.06789 -0.380339 7.39273
1.1021 -1.72278 5.50758
0.407964 -1.70751 5.30876
0.827671 -0.374534 3.15686
1.24448 -0.536952 3.27511
0.664475 -0.485739 3.35679
2.08384 -0.754955 3.73921
1.89972 -0.809306 3.77458
1.38858 -0.886858 3.8154
0.748901 -0.837482 3.85789
-2.21511 -0.0234767 6.65911
-2.32848 -0.025775 6.68495
1.08366 -1.1418 4.30432
0.677363 -1.13497 4.31403
-0.542852 -1.05767 4.5912
0.796417 -1.35395 4.68366
0.195474 -1.54729 5.05391
0.730875 -0.165622 2.94428
0.79026 -0.203848 2.97545
0.83001 -0.238341 3.00026
1.09726 -0.390571 3.08791
1.2678 -0.535665 3.26904
1.13744 -0.57559 3.3403
1.03714 -0.559217 3.36538
0.583618 -0.798871 3.82773
0.779969 -0.834614 3.82247
1.15556 -0.945205 3.94569
-1.58049 -0.141099 6.89614
-3.28806 -0.273078 7.16303
-3.35819 -0.697739 8.11903
1.21511 -1.42153 4.86199
0.994217 -1.60397 5.18676
0.610611 -0.113085 2.95852
0.952553 -0.242697 2.96276
0.813115 -0.299484 3.07396
1.07401 -0.437959 3.15681
0.512149 -0.337049 3.25749
1.42104 -0.50629 3.19683
0.899338 -0.468741 3.26205
0.888374 -0.492961 3.28985
0.674401 -0.480278 3.36126
-1.20976 0.483764 5.31919
1.34842 -0.69133 3.50611
1.76421 -0.806303 3.75344
2.09685 -0.852454 3.97609
1.09167 -0.920986 3.93565
1.12614 -0.93793 3.94725
0.842548 -0.942934 4.01053
1.312 -0.987204 4.0047
1.14663 -0.98778 4.04162
1.16982 -0.996023 4.05474
0.895368 -1.02765 4.10388
0.885983 -1.03978 4.12468
1.62656 -1.12915 4.39823
0.976127 -1.12641 4.28908
1.21955 -1.14453 4.31702
1.27947 -1.15241 4.35062
0.742681 -1.27897 4.55445
1.3259 -1.31133 4.6778
1.16668 -1.40249 4.82461
1.17217 -1.4197 4.87818
0.197776 -1.50894 5.02359
0.849001 -1.76801 5.48378
0.776733 -0.0898317 2.83902
0.837987 -0.108985 2.82495
0.77971 -0.137556 2.89263
0.581508 -0.214724 3.06013
0.586241 -0.243571 3.11952
1.03931 -0.400958 3.12995
1.17711 -0.436093 3.13012
1.44883 -0.474183 3.14658
1.39638 -0.494852 3.18631
1.30407 -0.491886 3.20062
0.994216 -0.470178 3.24514
1.31978 -0.529333 3.25273
0.944737 -0.484851 3.27142
1.50737 -0.576296 3.29158
1.8912 -0.701479 3.55054
1.91295 -0.752046 3.66287
2.12166 -0.798197 3.83918
1.16671 -0.773782 3.66218
0.638164 -0.738623 3.72371
1.11876 -0.837295 3.79366
1.47853 -0.897209 3.85945
0.830894 -0.931181 3.96916
-3.61785 -0.0830225 6.74395
0.862568 -1.0676 4.19221
0.779104 -1.06994 4.21249
-0.431392 -0.956618 4.4133
1.20813 -1.1134 4.25065
1.38494 -1.20706 4.48201
1.27967 -1.23073 4.48324
1.3442 -1.24533 4.53936
0.632017 -1.21984 4.443
0.495191 -1.30246 4.63859
0.649137 -1.44157 4.86069
0.150361 -1.42993 4.87186
0.661916 -1.66035 5.26865
0.893307 -0.141278 2.83788
0.789666 -0.118518 2.85418
0.855664 -0.249104 2.98614
1.20398 -0.312312 2.95585
0.926341 -0.269873 2.98671
0.583456 -0.204982 3.05292
0.871393 -0.268541 3.00394
0.944046 -0.301518 3.01675
1.40188 -0.399697 3.03617
0.74988 -0.325941 3.13538
0.612864 -0.294572 3.17336
1.38214 -0.470106 3.15226
0.919321 -0.438008 3.21624
1.7816 -0.534859 3.23594
1.13568 -0.487156 3.22473
1.47904 -0.526038 3.22612
0.879858 -0.452433 3.24471
1.18957 -0.569427 3.33931
1.29608 -0.589603 3.36948
1.13151 -0.602247 3.39251
1.52463 -0.7558 3.58882
1.19922 -0.726815 3.57645
0.434815 -0.642643 3.67341
0.488803 -0.735089 3.75693
0.848018 -0.797476 3.75167
1.15161 -0.845151 3.78703
0.913356 -0.826847 3.79099
1.5204 -0.880862 3.84667
0.817209 -0.832272 3.8152
0.676362 -0.83196 3.84009
1.99035 -0.91982 4.0582
0.72018 -0.897921 3.94033
0.679867 -0.903186 3.93297
0.788286 -0.912447 3.93216
0.958568 -0.969255 4.0111
1.07459 -0.982167 4.02543
0.943231 -1.07331 4.19226
0.80385 -1.08005 4.21367
1.0111 -1.12007 4.27599
0.700743 -1.16589 4.37086
1.36553 -1.22567 4.49043
1.37711 -1.23257 4.52596
0.963155 -1.22973 4.45195
0.448342 -1.29762 4.6156
0.444314 -1.30939 4.62766
-0.2956 -1.25355 4.70439
0.965935 -1.36308 4.70281
0.748921 -1.35749 4.70444
0.154323 -1.33366 4.71357
-0.194357 -1.35496 4.8349
1.15838 -1.43474 4.88761
0.283566 -1.39106 4.78477
0.668558 -1.42457 4.82624
2.99108 -1.50189 9.14098
0.492754 -1.56422 5.07857
0.247548 -1.60581 5.13685
0.373809 -1.67654 5.25127
0.85878 -0.111294 2.82432
0.695762 -0.154767 2.95151
0.674652 -0.205289 3.01425
0.604875 -0.292561 3.14448
1.56564 -0.461886 3.11777
0.812467 -0.384984 3.17597
0.923086 -0.412252 3.18223
1.48159 -0.496818 3.17797
0.869336 -0.438224 3.21971
1.25446 -0.527316 3.25351
0.862413 -0.472984 3.28195
0.759705 -0.526487 3.38084
1.87733 -0.647664 3.4413
1.67815 -0.661297 3.45029
1.5386 -0.659871 3.45005
1.27491 -0.658362 3.46647
1.99281 -0.703075 3.57365
1.50597 -0.693093 3.50091
1.73595 -0.708462 3.54674
1.05082 -0.665506 3.50272
1.72075 -0.725155 3.58505
0.413419 -0.617104 3.63275
1.663 -0.757298 3.61761
0.447679 -0.640403 3.66615
2.1391 -0.78135 3.81415
2.15758 -0.802541 3.88299
0.520105 -0.715536 3.72681
0.402962 -0.71151 3.76
1.09905 -0.800024 3.71295
0.573756 -0.760708 3.77259
1.36729 -0.845767 3.77352
1.53502 -0.879596 3.83275
0.960007 -0.845552 3.81109
0.950418 -0.872693 3.86208
0.711233 -0.85652 3.86777
0.763675 -0.861656 3.87095
1.2497 -0.920724 3.90394
1.61487 -0.938874 3.97422
0.615934 -0.925673 3.99852
1.3708 -0.992549 4.02841
1.20832 -0.990516 4.02793
1.33525 -1.0131 4.0764
0.901945 -0.99536 4.06168
1.49452 -1.03506 4.13108
0.664189 -1.00143 4.10281
1.04676 -1.03621 4.12426
0.711166 -1.0228 4.12402
1.62011 -1.11136 4.31013
1.23679 -1.10431 4.23598
1.3028 -1.13395 4.32316
0.879233 -1.16382 4.34636
1.04747 -1.19415 4.40208
0.617651 -1.22103 4.47828
1.06846 -1.335 4.67403
0.671847 -1.36265 4.72196
0.980496 -1.40629 4.81655
0.454186 -1.3909 4.80772
1.35445 -1.44258 4.96252
-0.0197678 -1.36644 4.82717
0.323578 -1.40434 4.7877
0.588195 -1.4443 4.85972
0.666482 -1.50567 4.9643
0.703908 -1.53841 5.02721
-0.132668 -1.54415 5.06002
0.402559 -1.57853 5.10976
0.113156 -1.57314 5.10355
0.779679 -1.63918 5.23299
0.888469 -1.71201 5.39961
0.278283 -1.68838 5.27902
0.32759 -1.69127 5.26969
0.672098 -1.7731 5.4709
0.276174 -1.82548 5.54119
1.07049 -0.238523 2.89974
0.897561 -0.211118 2.91974
0.880776 -0.242583 2.96568
1.17909 -0.298029 2.94497
0.634508 -0.2066 3.03491
0.870089 -0.298381 3.04825
0.53081 -0.251965 3.14459
0.825589 -0.357044 3.14225
1.31383 -0.434923 3.10864
1.16357 -0.42558 3.12105
0.443239 -0.293641 3.24605
0.411075 -0.28902 3.25026
0.445073 -0.325904 3.27415
0.693557 -0.390011 3.2282
1.50086 -0.503587 3.19306
1.03342 -0.45775 3.21057
0.773781 -0.42824 3.24143
0.49504 -0.373141 3.29726
1.62339 -0.455044 3.41663
0.889469 -0.457192 3.25366
1.58477 -0.533627 3.25636
1.00524 -0.479935 3.24523
1.22682 -0.52476 3.26981
1.70775 -0.576883 3.30634
1.71434 -0.580686 3.3075
1.62878 -0.578486 3.30077
1.61999 -0.582708 3.30988
1.20006 -0.544758 3.30484
1.11487 -0.547424 3.30901
1.20053 -0.570632 3.33427
1.00091 -0.551413 3.34398
1.86772 -0.625899 3.39454
1.05727 -0.568977 3.3565
0.815977 -0.554399 3.40233
1.21239 -0.63628 3.42756
1.01214 -0.614617 3.43353
1.40107 -0.657298 3.45178
0.236946 -0.528807 3.59983
1.73313 -0.701702 3.52936
1.53765 -0.697223 3.50779
0.437394 -0.62649 3.65302
1.86781 -0.78504 3.72035
1.12843 -0.764807 3.65046
0.549161 -0.752445 3.76117
1.75736 -0.860426 3.83572
1.06535 -0.838409 3.78184
0.984837 -0.833926 3.78562
1.18186 -0.856103 3.79734
0.859988 -0.835811 3.80699
0.964279 -0.87947 3.87898
0.891808 -0.879744 3.86789
0.976765 -0.887342 3.87838
0.465875 -0.853914 3.93332
1.25535 -0.923754 3.92918
1.24557 -0.923051 3.92722
1.34234 -0.936957 3.93233
0.848821 -0.918821 3.94121
0.896182 -0.931502 3.96367
1.22578 -0.985124 4.02421
0.918145 -0.964913 4.01335
0.863434 -0.959571 4.01261
0.80834 -0.961526 4.02072
0.554637 -0.952531 4.07669
1.42865 -1.02015 4.11174
0.918299 -0.999701 4.07103
1.52958 -1.04059 4.13752
0.929758 -1.00282 4.07876
0.800565 -0.994453 4.08463
0.666082 -0.991947 4.09958
0.984214 -1.00651 4.16299
1.05773 -1.04632 4.14075
1.16865 -1.06347 4.17891
0.972672 -1.05314 4.15593
1.63983 -1.16258 4.43806
1.16628 -1.17011 4.37575
0.673524 -1.14319 4.34662
0.606121 -1.1414 4.35013
0.685596 -1.15947 4.35577
1.37053 -1.21384 4.48294
0.743701 -1.19056 4.39905
0.597435 -1.20918 4.46795
0.983655 -1.25768 4.52324
0.563642 -1.28602 4.58793
0.63994 -1.29764 4.61151
0.462502 -1.29308 4.62163
0.593134 -1.3524 4.70873
0.816006 -0.892638 3.91151
-1.95981 0.818029 5.02909
1.26744 -0.92489 3.93287
1.82697 -1.00503 4.57718
-1.64289 1.13157 4.27784
2.39108 -0.224317 3.8744
1.82121 -1.03021 4.57033
-1.94702 0.847741 4.96029
-2.32513 1.11547 4.40017
2.41019 0.224335 4.08168
-1.88822 1.01652 4.58056
2.06299 0.16836 4.78462
-1.54622 1.19544 4.12805
2.14107 0.280303 4.71583
-1.48816 1.24584 4.02911
1.54859 -0.504998 3.18574
1.03635 -1.80008 5.71253
0.526517 -1.49736 4.91209
0.571164 -0.773387 3.81106
0.47908 -1.6406 5.15404
0.392664 -0.645981 3.69284
1.24973 -0.333943 2.97056
0.522723 -1.32385 4.6551
1.00665 -0.882717 3.89509
0.838923 -0.238619 2.99152
0.657788 -1.19132 4.41238
0.865797 -1.30616 4.56963
0.847856 -1.35711 4.65752
1.02259 -1.1478 4.2835
0.65817 -1.76971 5.3589
-1.92338 0.962181 4.70802
1.41695 -1.02443 4.16834
-1.24459 1.02773 4.48597
-1.6472 1.15149 4.24758
1.60314 -0.935619 4.02161
-1.08052 1.1904 4.12196
1.24673 -0.905338 3.90708
0.566411 -0.772508 3.7776
0.57505 -0.270643 3.15174
1.02777 -0.630258 3.45791
1.94928 -0.264695 4.77734
0.665821 -0.070126 2.89324
1.61044 -1.02793 4.12982
1.44841 -1.2883 4.58531
1.74967 -0.78935 3.73011
2.3191 0.0213847 4.17204
1.97765 -0.0562669 3.61373
1.38566 -0.85698 3.77439
-2.92747 0.858017 4.98081
1.42752 -0.996657 4.05553
0.749857 -1.08198 4.22383
0.856971 -1.18454 4.39237
-0.0148853 -1.39381 4.8281
1.33407 -1.61281 5.18666
1.69059 -1.17495 4.43704
2.39426 0.0382697 3.94793
1.27988 -0.523031 3.2271
0.69668 -1.0161 4.12126
1.1849 -0.702618 3.5212
1.54698 -1.41893 4.90956
-1.63293 1.33031 3.81903
0.69997 -0.385144 3.21449
1.94995 -0.926876 4.00918
2.69914 0.543268 4.58064
1.3366 -1.03852 4.12345
0.711472 -1.7068 5.36301
1.75758 -1.1959 4.54881
0.77954 -0.325875 3.1175
1.74736 -1.17326 4.53904
0.68285 -1.45429 4.88782
1.07275 -1.63234 5.80246
1.27329 -0.998917 4.05072
-0.545999 -1.1479 4.65476
1.54262 -1.25392 5.03737
2.31542 -0.191178 4.02023
1.10055 -0.900247 3.87778
0.728648 -0.942487 3.98749
1.83408 -0.69659 4.75921
1.11155 -0.757203 3.62836
2.17814 -0.708092 3.9846
-1.30086 1.01351 4.5228
1.01949 -1.37229 6.10433
1.28224 0.295958 3.30439
1.38117 -1.43648 5.04511
0.655396 -0.797724 3.8021
1.04103 -1.31976 6.08964
0.98212 0.591553 3.27865
1.82471 -1.08131 4.95606
1.07031 0.572672 3.32881
1.40603 -1.05969 4.20946
-0.224682 -1.3866 4.89914
0.536135 -1.46064 4.88466
1.09697 -1.19698 6.09485
1.18062 -0.507732 3.25905
1.8354 -0.669137 4.81755
1.75136 -0.0197268 3.47276
1.5614 -0.798882 5.33228
2.17065 -0.0447232 3.74566
2.28312 -0.178098 3.70357
1.38834 -0.996089 4.05547
1.53843 -0.71509 5.39156
2.21473 0.0654335 3.82422
2.31847 -0.236845 3.93037
2.21094 -0.226137 4.20117
0.985853 0.456254 3.19409
0.913877 0.583135 3.21896
1.75902 -1.06815 4.73598
1.8795 -0.0152193 3.55557
0.497934 0.0755838 3.47724
1.09978 -1.24126 5.95382
1.3554 -0.557597 6.00441
2.12852 0.141937 3.82776
0.770498 1.80407 3.02236
0.562414 -0.261551 3.15021
1.42021 0.391223 3.4627
0.888683 -0.29198 3.03474
1.01328 0.63479 3.31317
1.96778 0.684884 4.0165
0.974075 0.757917 3.34723
0.656175 -0.836417 3.84956
1.20701 -0.982031 5.97496
0.0222271 -1.51854 4.99291
0.901809 -0.794441 3.74577
0.161477 -1.4327 4.94456
0.858483 -1.21312 4.44037
0.87103 -1.00712 4.0665
2.02688 -0.430592 3.38626
1.93154 -1.01547 4.33341
1.80241 -0.837698 4.90576
-0.408866 -1.39219 4.98333
1.04407 -1.45782 4.92026
2.01437 0.599253 4.00025
2.04876 0.047318 3.7134
0.708808 -0.738033 3.71211
1.80481 0.186474 3.63444
2.35029 0.357201 4.09268
1.1464 -0.319114 2.9769
0.917532 0.0505527 2.94534
1.19826 0.321288 3.267
1.65048 -0.545762 3.25208
2.1199 0.0184871 3.72773
0.629073 -0.941473 4.08229
1.63764 -1.21476 4.53726
0.579593 -1.17884 4.39444
2.16857 -0.624856 3.42796
0.48627 -0.369411 3.30853
0.362597 -0.0264917 3.68602
1.78993 -1.1547 4.48622
0.615936 -1.17599 4.43774
1.43284 -0.815135 3.74519
2.40391 0.664234 4.2996
0.675025 -0.0184076 2.86213
0.245441 -0.511693 3.58502
1.38953 -1.36423 5.28383
1.47882 -0.612874 3.38023
0.177884 -1.34652 4.71839
0.0399524 -0.602246 3.78899
1.25032 0.103552 3.19857
-0.120976 -0.668024 3.98951
-0.821845 -1.27042 4.95703
1.32878 -1.00731 4.08866
-1.94003 1.23033 4.16841
2.30523 -0.116612 4.07569
0.130549 -1.69165 5.29461
0.0222493 -0.584708 3.79207
-0.449385 -1.41682 4.96581
1.95577 -0.372165 3.40831
1.602 0.290942 3.54812
1.2662 -1.38511 5.57621
-2.83694 0.901238 4.92314
-0.00140346 -1.45163 4.92689
0.793096 -0.129642 2.86243
1.81273 -0.955996 4.59605
-2.73653 0.971749 4.76429
0.241197 -0.402303 3.47762
2.07243 -0.0459852 4.62401
1.60458 0.442918 3.63156
1.24494 -1.32377 5.68854
-2.69318 1.00334 4.70349
-0.572872 -1.32212 4.90496
0.43402 0.0106493 3.57851
1.82778 -0.978946 4.56832
1.06615 -1.62687 5.2825
-0.529142 -1.43309 5.00622
-0.196222 -1.35799 4.81668
0.721705 -1.02897 4.16866
1.41328 -1.37999 5.2178
-0.523528 -1.07089 4.56577
1.27602 -1.14168 5.7087
-2.98371 0.805464 5.12125
1.53984 -0.945505 5.27131
-1.57802 1.43833 3.72717
1.38301 0.222141 3.35766
-0.523632 -1.03255 4.56236
2.09345 -0.520846 4.30061
0.893193 0.596148 3.21287
1.28447 -1.04371 4.1326
0.434697 -0.668498 3.69991
2.07203 -0.514685 4.32076
-1.94754 1.32007 3.99467
1.90752 -0.497473 4.7125
0.807353 -1.01789 4.11169
0.897939 -0.377213 3.1427
2.21152 -0.273532 4.18701
0.226445 -0.414652 3.49832
0.342398 -0.35268 3.37269
2.10327 -0.291339 4.39337
1.43243 0.0531402 3.28214
0.936539 -1.48034 4.93278
1.48355 0.342534 3.48634
1.27422 0.0903247 3.19789
0.0478989 -0.534367 3.7443
-1.23937 0.478338 5.30598
1.50651 -1.07239 4.20676
1.33425 -0.806482 3.69296
0.568529 -0.227357 3.13448
0.942363 -0.427668 3.22431
0.537991 -0.681482 3.67942
2.37749 0.238656 4.13559
1.36809 0.108832 3.2804
0.394378 -0.634947 3.71532
1.38772 0.423005 3.45729
1.33387 -0.814865 5.85123
1.6337 0.481494 3.66556
1.04819 0.479336 3.25792
1.57594 -1.28501 4.97991
1.27573 -0.954306 3.97188
0.757853 -0.12896 2.89971
0.746133 -0.999662 4.12703
0.942837 0.735441 3.30955
0.431277 -0.645146 3.66762
0.516459 -1.06101 4.08579
1.48823 0.36838 3.47612
0.972162 -0.860814 3.85735
1.03992 -0.755597 6.49195
0.418439 -1.4101 4.81209
0.562752 -0.198476 3.08583
0.535556 0.104837 3.42022
1.25533 -0.509659 3.24212
1.14332 -0.817841 3.75286
0.608795 -1.15633 4.36988
0.535259 -0.928826 4.02528
2.29123 0.696519 4.24288
2.12369 -0.13981 4.51362
0.483212 -1.33628 4.67721
1.13429 -0.551876 3.31617
0.761238 -0.95427 4.00995
1.08161 -0.5356 3.30863
1.47781 -0.802896 3.73987
0.725871 -0.926647 4.00528
2.01036 -0.093787 4.76425
1.58157 -1.15152 4.40947
1.9739 -0.0300992 4.84604
1.54083 -1.12093 4.33775
0.793803 -1.53068 5.02245
1.11737 -1.12369 4.29895
0.724875 -0.139462 2.93972
-0.386823 -1.15756 4.6462
2.15108 -0.251788 4.32499
1.76811 -0.0226069 3.46946
1.07093 -1.04366 4.14172
-0.099746 -1.38113 4.80416
0.738273 -1.01821 4.12275
2.0721 0.154556 4.76112
0.660944 -0.930732 3.99364
2.08829 0.168895 4.73711
0.55807 -0.924092 4.02375
1.24603 -0.887784 3.88065
0.414479 -0.834803 3.93273
1.30615 -1.0598 5.70985
1.38823 -0.644062 3.46326
0.804564 -0.806573 3.77522
1.01981 0.953517 3.58349
1.538 -0.586264 5.49213
2.18075 0.150369 3.87485
0.987612 -0.47689 3.27368
0.639852 -0.762048 3.74375
1.05432 -1.25727 6.16086
1.21961 -1.12512 4.30345
-0.112566 -1.47487 4.98316
0.422853 -1.43176 4.83992
2.19991 0.419024 4.71423
0.00467727 -1.4463 4.92207
0.14647 -1.61581 5.13348
0.957315 -1.23148 4.42266
1.59778 -1.11079 4.27277
0.327621 -0.588367 3.67025
0.903393 -1.14148 4.31406
2.09455 -0.323759 4.39303
1.52026 -1.08903 4.26836
1.2078 -0.943295 3.96428
0.927943 -0.832582 3.80309
1.20843 -0.594632 3.36574
1.03086 -0.819175 3.75474
0.738178 -0.810737 3.78398
2.16396 -0.737073 3.95723
0.678741 -0.806384 3.80804
0.937455 -1.28737 4.62697
0.612853 -1.47031 4.88915
0.453562 -1.37729 4.74187
2.13246 0.438965 4.85653
-0.50659 -1.38479 5.06737
0.517607 -0.261007 3.16626
0.802745 -1.25636 4.49248
0.577103 -0.266222 3.13907
1.51212 -1.20651 4.50989
-0.19635 -1.27933 4.74333
-0.266033 -1.27637 4.72352
1.21104 -0.0958949 3.02513
0.800367 -1.08385 4.20775
-0.00280633 -1.38519 4.85239
1.72567 -1.22319 4.56763
1.36134 -0.813749 3.73171
1.7698 -1.17197 4.48634
1.38308 -0.794307 3.69347
1.27195 0.471115 3.41234
-1.76912 1.3336 3.95292
1.86401 -0.908257 4.56467
1.24619 -0.648046 3.45517
1.30518 -0.598918 3.39873
0.665856 -0.110832 2.89978
1.30727 -1.15662 4.39341
1.45577 -0.94659 3.96031
0.274245 -0.37606 3.43881
0.700226 -1.67772 5.32763
0.544759 2.01178 3.01844
1.14715 -1.16585 4.36836
0.92433 -0.894075 3.88992
0.420184 -1.41773 4.92448
2.19428 -0.558317 4.05114
1.30258 -1.1525 4.35377
-2.57516 -0.0716176 6.79625
0.579385 -1.09989 4.35654
0.616056 -1.19364 4.41656
1.23862 -0.984572 4.03056
1.06244 -0.403377 3.11239
0.640651 -0.736393 3.72998
1.50231 -0.885962 5.40176
0.880228 -0.454584 3.24145
1.3608 -0.817512 3.71921
1.39681 -1.42235 4.8861
0.912023 -0.343444 3.09277
1.24372 -1.19216 4.43189
1.60715 -1.19389 4.44783
0.511128 -0.189768 3.13763
1.31198 -1.02057 5.74892
1.09226 -0.827504 6.38178
1.27517 -0.999588 4.04237
1.82632 -0.526212 4.89219
0.649663 -0.178177 2.98593
0.980534 -0.60568 3.43316
1.05018 -0.533158 3.27526
0.613024 -0.069079 2.94951
1.51062 -1.00421 5.31664
0.753659 -1.26874 4.50328
1.38434 -0.871602 3.84051
0.668763 -1.17615 4.39322
0.336819 -1.63874 5.18493
1.46366 -0.966598 5.42877
0.990116 -0.982248 4.14761
1.90359 -0.32886 4.82521
1.69293 -1.12999 4.41961
1.71145 -0.660084 3.44032
1.55737 -1.40118 4.89258
1.34273 -0.922032 3.94158
1.41658 -0.82023 3.75177
0.606239 -0.700059 3.69999
1.22939 -1.36695 5.66478
0.609712 -0.687518 3.66137
1.55359 -1.04292 4.13454
1.32366 -0.854564 3.79016
1.30614 -0.649705 3.43329
1.22563 -1.37732 5.71317
1.71861 -0.0552278 3.42355
1.48613 -0.370406 5.74312
1.08123 -0.428107 3.16585
0.694252 -0.11414 2.92065
1.39622 -1.28116 4.58431
1.54495 -1.13038 4.30916
0.399112 -0.274394 3.26511
-0.211106 -1.42641 8.55694
0.225915 -1.52923 4.9853
-0.0429926 -1.61028 5.32824
0.562462 -0.132891 3.02825
2.1641 0.398042 4.76635
1.38816 -1.3967 4.90876
2.03786 0.134684 4.84847
2.03357 -0.946031 4.06379
1.3453 -0.756865 3.63369
0.795649 -1.31753 4.61833
0.516709 -0.78653 3.88095
-0.238116 -1.34597 4.85266
0.435854 -1.63493 5.13275
1.54931 -1.19367 4.55869
2.02846 -0.684212 3.48647
0.942161 -1.11608 4.25408
0.240726 -1.49211 5.14901
0.982752 -1.10886 4.2441
0.493069 -0.905925 3.99664
1.26365 -1.32199 4.60113
0.844731 -0.34732 3.11207
1.27744 -0.327459 2.98262
1.27591 -1.36325 4.70603
0.588341 -1.06665 4.20953
1.68364 0.187954 3.54519
0.936404 0.257019 3.07177
0.520903 -0.884615 4.00842
0.315954 -1.5397 5.05498
1.03983 -1.56007 5.09729
1.51918 -1.16163 4.45827
1.75714 -0.118237 5.32339
0.994464 -1.52395 4.9459
1.79486 -1.0755 4.34056
1.67988 -1.09775 4.25805
0.683103 -0.0657514 2.91276
0.227951 -1.04668 7.87383
0.748536 0.0279271 2.77962
0.402126 -0.308525 3.28049
0.587557 -0.689646 3.69516
1.30763 -0.562143 3.30747
1.18481 -1.07296 4.1887
-0.255441 -1.25849 4.75496
1.25132 -1.56196 5.5299
2.02714 -0.868183 4.02244
1.77047 -0.500891 3.25585
1.01952 -1.38364 4.76867
1.92268 -0.317588 4.82079
2.08184 -0.86552 3.98781
-0.869963 0.082406 6.04455
1.26566 -0.788103 3.72402
1.7574 -0.894122 3.85213
1.71731 -1.11262 4.33626
0.962242 -0.710832 3.67093
-0.0265128 -1.61952 5.18008
-0.350576 -1.17961 4.64345
2.22547 -0.644537 3.92601
1.16342 -1.05395 4.13284
1.48757 -1.36215 4.80014
1.37853 -0.67583 3.48734
1.07256 -0.845625 3.83865
0.546682 -0.666827 3.64826
1.4717 -0.623701 3.38545
1.31375 -0.53827 3.24807
1.14659 -0.883547 3.86265
0.473465 -0.716643 3.74017
1.761 -0.561264 5.10283
1.12582 -0.732916 3.62842
1.18039 -1.1899 4.39852
0.55375 -0.189635 3.07147
2.06725 -0.685477 3.47973
0.898946 -1.00167 4.10571
0.989683 -1.59479 5.08093
0.0414189 -1.62714 5.34585
0.714126 -0.166903 2.95389
0.679692 -1.769 5.38648
1.29064 -0.356027 2.99276
1.67274 -1.19345 4.4737
1.79742 0.0777388 3.56464
2.26903 0.284781 4.475
1.10119 -1.47284 4.96486
1.42492 -0.622107 5.73258
1.20233 -0.603225 3.37235
0.867864 -0.828928 3.78381
0.937654 -1.78062 5.41902
1.44762 -0.538166 3.22525
1.0737 -1.20572 4.40564
2.04971 -0.652558 4.26546
0.452198 -1.29418 4.5786
1.22269 -0.705415 3.53459
0.945813 -1.21314 4.52816
1.05537 -0.432295 3.19206
0.400161 -0.608285 3.61922
1.76436 -0.708244 3.48186
1.3753 0.57021 3.52728
2.1646 -0.00337616 4.45175
1.46211 -0.115636 3.19527
1.18643 -0.928789 3.92215
-2.5264 -0.281259 7.34637
-3.38218 0.626649 5.49071
0.691026 -1.66109 5.19642
1.7457 -1.06651 4.24261
1.62931 -0.870119 5.21196
1.81095 -1.06183 4.22317
1.77887 -0.624342 4.99674
1.86436 -1.08766 4.29871
1.29363 -0.771891 5.98484
1.75627 0.0352578 3.48961
1.08181 -1.00353 4.11063
0.943776 -0.275122 2.98886
-0.068615 -1.43261 4.84698
1.62855 -1.21312 4.51004
2.20411 -0.0667145 3.79258
-0.810894 -1.30446 4.95973
0.599541 -1.18944 4.41719
2.10474 0.370458 4.86884
0.774662 -1.30765 4.56946
-2.42036 1.07967 4.46135
1.29143 0.199852 3.27483
1.23433 -1.30277 4.65592
1.5712 -1.28781 4.60099
0.600837 -0.887568 3.9473
2.30692 -0.353026 3.92834
0.633876 0.170401 3.3647
1.08712 -0.862566 3.83414
1.12066 -1.61085 5.29736
0.00745898 -0.603405 3.80762
1.92209 0.697092 4.02355
1.77951 -1.07124 4.25243
-0.55811 0.815937 4.64313
0.55529 -1.13125 4.33265
1.22539 0.139948 3.22976
1.89838 -0.333903 3.36051
1.5942 -1.23881 4.88806
0.841627 -0.948219 4.01508
-0.310812 -0.870229 4.2642
1.24603 -1.11797 5.81778
1.80197 -1.20853 4.78395
-0.297058 -0.85519 4.23468
0.534282 -0.769299 3.7841
1.74093 0.399749 3.6985
1.60781 0.213038 3.49748
1.14635 -0.549544 3.34132
0.556445 -0.406677 3.31224
2.35669 -0.58691 3.65832
0.535126 -0.161863 3.06094
2.08497 -0.687574 3.48045
1.08449 -1.35193 5.95994
-0.589641 -1.27837 4.82828
0.704707 -0.841328 3.87214
1.33722 -1.60258 5.25552
1.37731 -1.05294 5.52968
0.286554 -0.365408 3.40763
0.8556 -0.185062 2.9067
1.01171 0.90535 3.54393
1.22871 -0.0518746 3.10784
0.810056 -0.0818564 2.81524
1.17035 -0.291125 2.95773
1.72677 -0.583623 3.44325
1.21124 0.204545 3.21513
1.13917 -0.0936295 2.99954
1.52624 -0.787173 5.40529
0.516547 -1.48773 4.93224
1.22732 -0.964109 4.00762
1.28466 0.0866941 3.20297
0.848752 -1.26843 4.60896
1.42085 0.416429 3.51403
2.20717 -0.19021 4.23935
1.30929 0.087097 3.21976
1.45649 -0.758989 5.59102
1.8104 -0.0161717 3.50965
1.39628 -0.548898 5.84658
1.77312 0.0940824 3.55265
0.656753 -1.27215 4.51239
1.19111 0.156842 3.17345
0.820612 -0.999435 4.14153
1.67247 -0.743486 3.58025
1.01997 -1.39862 6.11304
1.20045 0.267698 3.24673
1.13805 -1.0279 6.10659
1.51146 0.189413 3.42541
1.09654 0.200006 3.13528
1.37639 -0.939491 5.6536
1.85606 -0.0528735 3.52883
-0.671332 -1.17474 4.76506
1.32091 0.259088 3.31263
-1.293 0.934948 4.61165
1.76056 -0.448865 5.10148
1.77843 -0.785452 3.70057
0.864355 -1.69445 5.20963
1.62801 -0.394654 5.42544
0.915384 0.336551 3.07553
0.557316 -0.956548 4.0604
1.29071 0.570928 3.47184
0.923003 -1.09763 4.23659
0.186946 -1.77927 5.42764
1.48417 -0.931365 5.40095
1.44053 0.0838533 3.30677
0.191411 -1.4572 4.90993
0.85122 -1.02037 4.10409
-1.52071 -0.125512 6.45836
1.67852 -1.12816 4.34203
0.957003 0.299546 3.08511
-0.736376 0.0186827 5.84674
1.79048 -1.14151 4.73709
-0.164729 -0.750686 4.06237
0.981095 0.290042 3.0733
0.464382 -1.57264 5.08416
1.3382 -1.05176 4.18041
0.900407 0.551952 3.19719
0.570982 0.1234 3.38942
1.56446 -0.965696 4.0007
0.971427 0.56224 3.24253
0.625647 -0.951184 4.03814
1.30968 -1.42657 4.79258
-0.118174 -0.724817 4.01745
1.32365 -0.686531 3.48588
1.47842 -1.22857 4.46508
1.13275 0.590543 3.37458
1.54968 -1.18413 4.44671
-0.822512 -0.991243 5.13377
1.88904 -0.636841 3.40953
1.27767 0.594614 3.49507
1.12078 -0.674583 3.51403
-0.460139 -0.681809 4.84359
1.50777 -1.2642 4.55801
0.9232 0.808105 3.38536
0.784295 -1.18133 4.3927
1.47972 -1.05503 4.18933
0.490988 -0.176318 3.14576
1.43433 -1.41245 4.87765
1.32436 -0.874705 3.84444
1.26003 0.105482 3.18907
2.41202 0.209766 4.06935
1.13269 -1.07251 4.17383
-0.60676 -1.0848 4.66859
1.05246 0.243217 3.11027
0.847932 0.50099 3.11929
1.78963 -0.52319 3.20834
2.21395 -0.0996526 3.72685
1.322 0.306736 3.35157
1.6242 -0.599957 5.27428
0.965741 0.511634 3.21199
2.01605 -0.626209 4.363
1.58745 0.193078 3.45878
1.53219 -1.04913 4.15394
1.71158 -1.23563 4.57234
0.276048 -1.50945 4.92787
1.65064 -1.15445 4.38949
-0.151041 -0.695025 4.03199
1.42953 -0.93932 5.56793
1.6639 0.343228 3.59863
1.77099 -0.74787 5.02311
1.55847 0.464297 3.6265
1.54988 0.480281 3.63615
1.11174 -1.02295 4.15273
1.11489 1.06096 3.76957
0.984737 0.956065 3.52288
0.853919 -0.57527 3.44858
1.27764 0.0976988 3.19772
1.91226 -0.318571 4.86334
1.18901 0.40651 3.29836
1.34346 0.325645 3.35755
1.53985 0.244562 3.47863
1.13301 -0.574897 3.35471
1.86258 -1.05555 4.84046
1.86268 0.0873304 3.60836
1.61669 -0.905383 3.8867
1.88124 -1.02888 4.19747
2.04174 0.0551701 3.74128
0.389027 -0.263397 3.26305
1.40139 -0.646453 3.38353
0.563287 -1.66599 5.21325
2.31801 -0.368529 3.60435
2.51898 0.370995 5.17996
0.43537 0.0465863 3.58921
1.09645 0.0379852 2.98435
1.03916 0.472995 3.23656
0.679139 -0.152703 2.95192
1.7635 -0.712462 3.51247
1.97922 -0.914476 4.28634
-0.0339254 -0.322847 4.25601
1.61541 -0.559354 3.21664
1.03094 -0.428602 3.15287
1.19708 0.451334 3.33499
1.78989 -0.82602 3.74346
0.52776 0.120432 3.44255
1.86076 -0.790956 3.70216
2.34754 -0.65355 3.66945
1.45273 0.381015 3.50117
2.03748 -0.447379 3.40027
-0.301063 -0.603475 4.58036
1.95858 -0.835379 3.7737
1.95725 -0.934146 4.27357
2.17426 0.160317 3.93464
1.80481 -1.15893 4.90578
-2.27926 1.19402 4.28125
0.809337 -1.123 7.83535
-0.316122 -0.498359 4.51318
2.78872 0.395936 5.09178
0.848033 -0.946392 3.97479
1.94527 -0.914347 3.96748
0.631519 0.278725 3.2872
0.637312 -0.704466 3.68631
1.93783 -0.755449 3.61442
2.43126 0.581223 4.37274
1.83929 -0.97887 4.10381
1.36623 -0.027393 3.14707
0.653217 -0.779978 3.81142
1.84062 -1.00908 4.49187
-0.138453 -1.2682 4.72878
1.09217 0.443991 3.2656
-0.523964 -1.06469 4.63944
1.3017 0.391905 3.37114
1.80654 -0.0113395 3.50563
0.972275 -1.43411 4.82471
1.01183 0.985275 3.57362
1.11641 -1.4931 4.96668
2.57613 0.368591 5.21117
1.09094 -0.929299 3.93282
2.20096 -0.185433 3.66135
2.80268 0.614068 4.71811
1.24427 -0.966028 3.97197
2.14066 -0.128968 3.65192
1.78449 -1.04925 4.21785
2.93851 0.547452 4.84719
1.1564 -0.788628 3.69089
0.894989 -1.3037 4.59933
1.36368 -0.051088 3.12593
-0.335512 -0.598866 4.65909
-1.99268 -1.22937 12.1611
1.52062 -1.27467 4.62334
0.599106 -1.07232 4.24054
2.17944 0.12668 3.89525
2.06451 -0.746796 4.22586
2.17268 1.31922 3.54103
2.49819 0.380541 5.13348
2.62475 0.340427 5.13238
0.666121 -1.09263 4.25727
2.79887 0.633979 4.70231
0.811898 -1.15162 4.33842
1.86269 -0.305878 3.36815
2.22569 -0.638129 3.92047
1.19182 -1.06569 4.1546
1.28692 -1.35062 4.69583
1.45709 -0.0600426 3.19323
1.3656 -0.859451 3.79027
1.66128 0.110066 3.51891
1.16247 -0.744679 3.6687
1.58341 0.238374 3.4953
2.21535 0.0189684 3.85183
2.12952 0.148911 3.88248
2.28755 0.0762303 3.94698
1.14804 -1.73481 5.49317
2.11073 -0.192707 3.59627
0.757932 -1.01399 4.11844
1.83277 0.414532 3.83363
1.32337 -0.416512 3.08131
0.644336 -1.35369 4.79589
1.83925 -0.747947 3.64196
0.890051 0.582124 3.27905
-1.16826 0.54694 5.12818
0.791756 -1.00405 4.10317
1.96653 0.365712 3.89063
1.52434 -0.647106 3.41684
0.552208 -1.13792 4.43232
1.32952 -1.22321 4.46141
2.54093 0.383215 5.17673
2.33437 -0.0866505 3.78971
-1.2523 0.474323 5.22432
1.03579 -1.09469 4.2128
2.84188 0.59283 4.71901
2.25085 0.0345938 3.81313
1.78683 -0.0734475 3.46285
0.926157 0.80127 3.4129
2.27343 0.0340024 3.82198
0.143372 -0.516234 3.66114
1.02915 0.450812 3.20198
0.914807 0.389698 3.17412
1.92761 0.159535 3.68851
2.5875 0.30627 4.98853
0.92757 -1.5202 5.06901
0.825425 -0.956645 4.03599
1.82465 0.259772 3.67794
2.37141 -0.0854032 3.97532
1.91946 0.606749 3.97285
0.371955 -1.37715 4.71364
2.23063 0.450094 4.13565
2.3124 0.0356321 3.94539
1.86419 0.450366 3.85318
1.36882 -1.12447 4.26986
2.35495 0.378842 4.21234
1.79866 -0.206647 3.38209
1.98581 -0.0752134 3.60624
1.90019 -0.81997 3.73688
0.963889 -1.01879 4.16605
1.95333 0.285924 3.77252
0.924158 -1.70725 5.28529
0.287877 -1.47377 4.91792
2.29393 0.67858 4.3006
-0.500622 -1.25687 4.80278
0.45327 -1.70523 5.32404
1.46668 -1.25124 4.57087
0.500791 -0.729801 3.75784
0.595755 -1.19062 4.41341
1.8209 -0.00560719 3.51147
-2.13715 -1.51818 13.0014
0.494952 -0.211826 3.11789
2.33169 -0.543454 3.7526
1.74075 0.0866772 3.52716
-2.20155 -1.19875 12.2402
1.81294 -1.14002 4.41845
1.99961 0.0225946 3.65615
-1.43207 0.46028 5.26536
1.98742 -0.556197 3.2716
1.19997 0.0167599 3.10257
1.22946 -0.972085 4.00022
1.40598 -0.824323 3.7518
-3.07891 -0.645875 8.17488
-2.99946 -0.664189 8.16916
1.27606 -0.0131021 3.14541
1.20644 -0.969308 4.03431
1.29009 -0.990695 4.00858
-3.11525 -0.448665 7.76018
-2.87896 -0.47319 7.76466
-2.62779 -0.274721 7.21668
2.21334 0.0160979 3.78788
1.30216 -0.982605 3.99082
2.13236 -0.737941 3.6483
1.26413 -0.98911 4.06913
0.915566 -0.803082 3.75892
2.28831 0.267566 3.97031
1.57039 -1.06967 4.17792
-4.64438 -1.66036 10.8176
1.65595 1.43977 3.33088
1.09656 -1.33822 4.6676
0.256854 -0.136508 3.89699
0.911965 -0.325429 3.09407
1.51095 -1.0397 4.1146
-4.36917 -1.47319 10.379
-2.92821 -0.5226 7.96054
2.30319 0.617593 4.19799
2.21917 1.29629 3.56649
-2.51366 -0.335889 7.42403
1.39067 -0.974478 3.96673
-2.46627 -0.113305 6.91785
1.76173 -1.0823 4.30442
0.801354 0.402751 3.09339
1.51991 -1.03695 4.15084
1.09031 -0.877229 3.83995
2.23531 -0.450593 4.03028
-2.66199 0.275292 6.09852
1.16287 -0.971565 4.02961
1.74358 -1.13409 4.65723
-0.748406 0.122515 5.8712
1.18007 -1.29949 4.62285
1.11775 -1.77099 5.53592
1.41406 -0.902274 3.84905
1.05711 -1.63063 5.23333
1.65582 -0.990142 4.03742
0.994894 -1.43626 4.88843
1.59419 -0.951303 3.9409
1.01845 -1.44351 4.89686
1.20705 -1.21751 4.48328
1.4053 -1.32952 4.68459
0.630414 -0.269409 3.11553
