-901.038 21.4593 76.8935
-901.039 21.4589 76.8934
-901.039 21.4579 76.8935
-901.039 21.4575 76.8939
-901.039 21.4573 76.8938
-901.039 21.4572 76.8936
-901.039 21.4569 76.8936
-901.038 21.4568 76.8937
-901.039 21.4573 76.8937
87.3356 37.8477 971.507
-901.039 21.4573 76.8937
-18.3041 -154.748 946.765
-901.038 21.4591 76.8936
-901.04 21.4607 76.8928
-901.038 21.4586 76.8936
-901.039 21.4571 76.8936
-901.039 21.4572 76.8936
-901.039 21.4577 76.8936
-901.039 21.4581 76.8936
-901.04 21.4583 76.8934
-901.04 21.4586 76.8934
-901.039 21.4591 76.8933
-901.039 21.4569 76.8936
-901.038 21.457 76.8937
-901.039 21.4572 76.8938
101.831 19.2587 969.309
41.1252 281.19 1006.93
21.803 273.16 1000.32
10.225 295.123 982.783
-40.9605 -147.314 944.461
7.87003 298.785 978.921
-8.27577 303.387 966.795
-26.4708 -323.841 920.198
-103.031 -261.679 964.425
108.768 39.1421 968.516
-197.454 31.9269 978.306
27.8021 271.595 1001.71
26.3266 279.093 998.436
-24.2415 294.046 975.835
23.5288 303.283 984.522
4.97098 307.275 973.084
-46.7661 305.986 950.586
-66.9559 -205.843 947.022
1.70359 -254.718 967.838
-160.91 -76.7458 984.996
-155.462 -49.0083 982.152
77.798 127.602 984.668
-117.756 417.445 1098.32
-25.5668 -323.621 919.624
-221.551 -5.61065 986.058
-203.027 30.1025 981.962
-91.9577 -10.8635 980.802
-163.237 -107.34 1011.06
-101.386 246.624 1076.59
24.3782 265.465 987.044
77.4229 281.321 1024.54
46.5663 297.284 989.114
-95.7353 328.196 1021.54
21.7853 -186.879 962.031
-38.8854 -203.352 954.45
59.3375 91.2403 952.238
-44.9675 -161.325 939.373
-15.7997 -121.655 953.366
-185.917 -5.72271 987.681
-20.7517 -328.313 911.173
31.4952 288.421 988.884
-31.7606 292.252 967.312
-12.6327 243.748 985.632
4.47981 305.718 969.439
-89.7365 300.964 1018.67
-31.5279 307.381 963.325
-50.0242 -350.426 908.023
-93.2211 283.635 1038.55
-181.777 37.0262 1000.05
99.5096 6.32361 954.476
93.2719 -50.4235 949.054
-16.5802 -176.981 952.098
-172.751 -51.039 1002.09
-71.0276 -331.873 911.83
-59.0701 -119.365 950.907
-126.024 -7.46337 967.946
22.3362 280.419 995.227
-102.4 -256.055 967.229
94.3201 134.945 983.055
-96.6059 274.476 1039.55
-22.0054 318.118 967.311
-901.04 21.4585 76.8934
84.9672 126.919 977.15
17.652 278.254 994.567
-43.4834 -226.835 951.297
-61.8796 -127.228 948.142
-901.038 21.4589 76.8935
-78.5602 -152.843 952.957
-901.039 21.4583 76.8934
-38.5831 -156.04 942.812
-65.8766 -306.583 924.744
-44.528 -251.505 965.322
-36.3871 -78.5513 941.835
128.424 44.8574 961.058
137.475 6.2099 960.549
128.329 32.7021 957.9
-20.8437 -242.152 963.459
-74.119 -124.46 964.568
96.3668 -28.044 951.943
-164.748 -32.3263 976.621
79.6156 126.69 985.453
-61.9541 -342.103 906.342
135.57 30.9179 957.654
-2.42764 277.006 987.956
-175.087 141.456 1016.55
-35.0696 327.096 970.661
-27.905 275.129 979.896
-46.0241 288.297 984.748
-97.3597 311.78 1012.79
-24.9418 -226.549 953.483
-62.7611 -335.817 908.745
-16.6181 -150.699 948.641
-20.4169 -146.3 948.381
-55.5862 -139.352 949.072
-65.3321 -105.779 957.905
-124.174 -3.51967 972.574
-30.908 -116.95 947.844
-47.2761 -111.768 951.524
-99.8237 -37.2348 965.475
-70.6513 174.567 988.922
105.349 15.5994 959.956
-57.1653 274.523 987.04
-42.8288 285.309 980.576
-111.289 -248.339 978.232
-194.223 16.6996 979.581
-50.6112 286.501 982.489
-123.298 -7.37576 965.58
-170.038 -1.99087 984.072
-146.209 -3.2544 984.868
-43.5887 312.788 961.151
90.1352 65.1684 977.286
-62.9349 -331.569 910.742
-55.2599 -281.587 930.528
130.126 52.9961 962.115
-158.858 -43.8481 978.361
118.393 95.5139 967.703
-213.01 26.8473 985.859
-68.6358 -129.144 953.847
3021.74 -866.357 2159.46
2984.42 -773.164 2180.38
3118.67 1130.7 2171.21
83.1148 171.279 1002.08
4345.13 1445.51 1509.03
3296.46 1652.63 1488.21
3177.75 -941.835 1995.5
3042.45 -825.243 2268.44
2925.83 -359.832 2102.7
2955.72 960.105 2340.53
3051.75 1127.22 2405.06
-25.4858 359.26 970.388
3178.21 1169.94 1996.81
-38.0738 361.756 975.52
3136.4 1169.03 2087.25
-39.3172 -345.409 912.04
3033.95 1211.12 2159.91
3727.1 1583.89 1371.78
3259.6 1661.34 1500.17
3120.71 -996.182 2034.65
3036.23 -937.655 2081.86
2980.18 -775.039 2188.39
-30.3343 -221.918 952.639
3238.16 1075.52 2020.54
2.84526 -207.981 952.159
3040.87 1101.46 2365.35
-108.38 -173.335 956.908
3074.84 1106.76 2185.41
-54.2014 -134.815 948.558
3109.13 1135.49 2153.78
-156.285 -78.5432 981.052
3111.64 1169.89 2128.69
0.845412 -22.1262 950.911
3193.09 1185.55 2041.85
3100.28 1203.5 2115.54
3027.93 1202.77 2181.56
125.428 -4.5148 958.693
2993.82 -799.958 2165.53
-38.3433 209.415 968.357
2899.39 -237.599 2116.03
2851.61 -162.862 2089.15
-39.4223 441.15 997.693
3122.14 -152.986 2036.29
3238.73 1063.72 2031.49
3198.33 1186.97 2008.42
2993.05 1208.83 2175.87
1.71973 256.953 997.397
3033.57 1271.17 2199.64
-106.484 302.849 1022.4
2843.01 -90.2446 2069.78
-4.52574 298.754 970.581
56.8868 -94.9801 966.681
3056 1102.88 2234.83
3583.66 1590.08 1542.2
2854.61 -391.689 2174.36
-32.4869 -317.126 919.097
3264.76 1650.4 1993.46
-86.4746 -261.783 964.348
3060.03 1196.14 2153.72
-105.683 -190.267 954.768
3329.05 1383.83 2031.29
25.814 -182.082 961.477
3176.82 1318.77 2156.57
-372.974 -22.3022 580.906
-30.3943 286.734 986.827
-30.6231 -246.517 962.23
-378.939 -35.7503 581.033
-239.396 29.1298 562.946
-60.5677 -18.9512 945.886
-47.0552 -227.695 951.454
8.10349 -98.753 948.366
-53.284 48.8564 952.564
109.926 110.096 969.193
5.10477 282.185 995.037
38.2357 -149.025 969.095
-34.4682 134.014 959.155
-79.6139 -125.498 966.849
-41.2264 -109.521 949.833
-901.039 21.4578 76.8936
-51.4997 -309.019 912.332
-60.5206 -309.422 917.714
-48.4729 -299.504 914.928
83.3104 213.633 1040.58
35.2861 -123.925 969.742
-196.415 26.9783 983.813
-103.274 -242.203 980.07
102.836 145.043 983.981
109.357 -1.8822 955.659
-64.8763 -146.681 948.687
84.3566 121.27 975.725
47.4818 296.567 993.902
-22.8142 264.405 992.296
-97.8775 325.555 1008.69
99.9124 -92.8863 959.126
-2.63904 -248.851 969.146
-31.8657 -353.395 922.801
-104.038 311.461 1018.85
-30.2351 -323.955 912.308
-23.2192 -288.453 937.227
-176.07 -45.9504 983.681
-33.9218 -223.986 950.04
68.0435 260.087 1065.09
-65.0567 -298.328 927.324
22.0249 -16.2513 959.292
17.3525 275.412 1003.16
-57.021 242.592 970.462
-49.5953 -270.433 934.785
-41.9335 319.116 963.94
-49.2137 316.806 959.945
-50.3155 -281.067 928.255
28.6394 -11.5156 961.751
-217.966 18.1023 988.305
-59.4584 -4.5622 947.177
14.0983 -118.85 955.349
-188.149 46.6983 997.69
-354.094 -51.7769 153.596
-82.6863 -241.138 967.358
85.3833 -130.572 992.749
-74.6127 -148.163 945.634
-901.04 21.4592 76.8931
115.484 -39.6671 955.201
-14.6223 -109.763 961.432
-206.016 5.73654 987.137
-92.028 335.834 1011.08
-176.611 -47.6375 986.736
62.8182 270.646 1011.54
-67.6467 -223.527 954.441
-901.04 21.4607 76.8929
-23.285 -244.71 968.896
-39.6768 -305.066 914.525
-42.847 280.396 978.991
36.0459 288.958 988.444
-51.4678 269.103 985.701
-67.4242 -98.628 959.019
-15.6711 -125.095 953.192
-47.7607 -244.644 962.7
-60.3377 -318.538 907.517
18.6385 -21.45 955.765
20.3886 -161.411 949.436
-103.466 -259.058 966.832
41.0895 -174.082 966.803
-105.184 -263.07 967.435
131.206 -14.9595 947.579
52.9315 -141.345 966.68
-95.4163 -159.468 946.321
-354.093 -51.7771 153.596
94.1438 43.6665 969.848
-42.0746 -176.098 941.075
-52.5519 -234.739 952.521
-63.2818 -80.1392 948.78
128.38 -22.1486 950.604
-40.0185 -270.473 931.858
-35.033 -299.252 921.428
-35.1953 -325.364 907.694
-59.1849 -285.55 941.647
-74.2776 -248.016 965.884
-156.498 -60.0867 979.382
-354.093 -51.7841 153.596
-27.8898 315.178 963.26
-7.06741 257.921 997.713
4.68291 -35.7469 953.551
79.4204 -114.126 974.527
-84.4462 -175.787 947.685
-43.5054 307.014 963.807
-59.2906 292.128 981.589
-73.41 -310.962 924.134
28.1326 275.14 1002.67
61.5519 266.282 1002.96
-34.0776 -282.929 929.484
-25.1384 -307.403 925.069
-49.7683 313.756 971.897
-18.6322 297.485 967.023
-9.91962 294.076 972.082
24.8383 289.851 984.241
50.5631 286.4 996.351
33.6835 278.769 1002.21
-36.4482 -297.204 925.027
-79.0226 221.711 1018.75
-83.7857 191.441 1010.8
101.046 143.377 978.283
82.2101 126.194 980.176
132.503 34.2674 957.377
139.304 22.8036 958.914
-57.4734 -73.7476 945.838
-34.9657 -273.969 934.582
60.0658 295.622 990.731
111.51 -43.1628 949.785
-29.2845 -128.065 949.014
-98.0894 -160.37 947.992
-22.2538 -225.376 954.135
-55.1411 -225.425 952.714
-30.4885 320.448 967.64
-105.061 320.909 1027.23
-65.1243 298.741 963.939
-63.2961 296.443 966.564
-83.5731 300.446 1013.11
-89.5803 283.485 1021.68
-200.44 54.8825 989.515
-901.039 21.4583 76.8934
-901.038 21.4588 76.8936
-901.04 21.4607 76.8928
-901.04 21.4605 76.8929
-901.04 21.4607 76.8929
-901.039 21.457 76.8936
-901.039 21.457 76.8936
-87.0869 284.883 1017.19
-0.336235 280.767 991.651
24.2459 289.844 976.595
-109.084 315.669 1018.72
26.8898 327.109 979.629
-38.3391 354.741 972.905
-46.5989 -328.606 910.243
-62.8838 -227.69 955.858
-35.5368 -225.355 953.631
-82.8042 -154.279 954.811
-13.1383 -150.772 950.214
-151.142 -54.8506 981.873
108.587 -38.9374 947.136
-106.193 -21.7796 964.999
-186.439 8.04496 981.113
92.6033 17.1965 971.429
-207.065 34.7784 979.446
-87.5521 141.461 1004.55
-53.8957 225.455 969.44
66.4987 285.804 1024.58
-34.6278 291.973 966.689
66.522 296.431 1006.38
-76.5659 306.152 996.716
-11.0402 301.767 969.805
-88.646 324.238 1008.16
10.1689 316.04 977.957
26.6273 318.639 982.068
-91.4487 358.198 998.585
22.8355 379.117 981.702
-30.5641 -307.343 920.726
-76.4368 -224.096 954.16
-40.6431 -221.129 953.616
69.7137 -9.30625 954.979
-181.31 7.00169 982.112
-201.375 20.6308 976.158
138.339 7.30219 962.619
-206.889 22.1554 975.672
114.232 13.6017 960.94
-197.145 26.6237 972.805
139.169 37.0769 962.05
109.755 83.4322 966.545
40.0519 275.079 1003.99
34.5335 279.038 1006.04
-33.6407 289.93 977.27
35.7551 289.836 987.677
-7.70279 289.646 978.409
42.5687 327.856 987.919
-38.5589 340.935 973.537
-42.7722 346.164 975.15
-8.16897 -255.465 965.058
-92.8432 -240.439 965.423
-67.0988 -222.136 953.766
-159.531 -64.8021 974.655
-186.339 20.9593 980.94
-178.601 30.0595 993.447
37.0835 317.3 987.774
-149.406 -80.3637 981.317
-82.8924 308.87 1000.34
50.0367 378.695 978.639
-26.8926 -295.658 936.337
-13.9879 -125.657 956.314
-149.851 -115.277 986.971
-153.475 -100.821 993.098
-152.827 -68.7309 983.909
80.4435 161.725 996.093
-84.3652 265.342 1030.1
58.0476 286.334 1015.16
15.1017 298.681 978.717
-37.8483 319.025 964.659
-5.54289 -166.95 950.016
-25.695 -122.34 954.604
96.6158 -56.8422 955.891
63.6653 327.448 1036.67
83.6432 211.871 1030.76
-54.9666 244.38 974.756
-36.867 -287.371 923.349
-16.8931 -107.055 958.126
-34.6375 300.464 963.719
-10.5172 -53.7139 922.579
-173.629 52.3297 977.143
65.6339 92.7102 971.966
-107.072 -257.361 965.266
-56.4724 -348.097 905.943
-45.0864 -279.708 925.882
-64.0867 -174.99 944.405
-175.8 4.62195 981.193
-354.094 -51.777 153.597
-354.094 -51.7769 153.596
-354.093 -51.7828 153.596
-354.094 -51.7824 153.596
-354.094 -51.777 153.597
-354.094 -51.7769 153.596
-354.094 -51.7769 153.596
-354.094 -51.7767 153.596
-354.093 -51.7834 153.596
-354.094 -51.7767 153.596
-354.094 -51.7767 153.596
-354.094 -51.7766 153.596
-354.093 -51.7838 153.596
-354.093 -51.7832 153.596
-354.094 -51.7803 153.596
-354.095 -51.7803 153.596
-354.094 -51.7779 153.596
-354.094 -51.7764 153.596
-354.093 -51.7837 153.596
-354.095 -51.7806 153.596
-354.093 -51.7771 153.596
-354.094 -51.7775 153.596
-354.094 -51.7768 153.596
-354.094 -51.7758 153.597
48.1716 307.499 1000.23
-53.7076 61.3881 955.022
-42.0342 -134.701 950.462
-60.2485 -123.046 949.06
-13.1498 -84.0983 948.316
-64.9543 -320.936 915.979
-64.3738 -298.803 923.886
-42.3073 -223.871 951.395
-71.0421 -215.903 952.38
-38.6796 -132.674 945.835
-17.3555 -120.807 950.592
63.3233 -111.613 969.492
-109.655 -104.424 968.733
-26.5991 -249.498 972.117
-53.2447 -228.379 950.366
-70.0691 -201.828 947.638
31.5728 -205.718 964.834
-67.8467 -191.942 945.333
-14.5358 -142.097 953.795
62.1 -124.327 972.921
108.38 25.1403 958.196
86.8678 49.4241 973.945
-68.724 192.588 990.322
-79.1656 233.263 1012.54
60.5679 277.029 1009.71
-58.4492 293.929 973.816
-44.5062 -143.031 947.225
-84.141 -123.076 968.81
-7.13524 -123.105 959.806
-150.06 -90.364 985.11
-143.716 68.5219 1001.82
-78.6435 287.17 1000.08
-50.8608 308.747 968.689
26.0483 331.076 976.758
-31.4012 358.995 970.184
-93.1499 -265.343 958.148
51.3799 -176.912 975.065
42.6249 384.333 985.59
77.8322 -11.2397 966.229
-197.612 -21.6957 984.373
37.6695 11.9642 988.7
46.8715 265.622 1002.07
90.5444 64.2373 991.772
-163.138 190.073 1003.22
34.1576 329.777 987.567
54.1797 -66.2712 963.779
124.1 -12.2896 950.367
23.4493 -162.264 956.521
22.3571 328.227 984.698
-127.001 230.153 1050.53
103.352 82.6583 962.999
-176.377 76.8009 998.178
136.385 44.9165 965.97
111.016 -34.7914 955.376
-196.096 -42.6951 993.68
-174.493 -76.3243 990.624
-23.2284 -110.795 953.004
-91.6577 -129.189 966.95
-108.248 -161.279 960.613
-27.1186 -311.882 923.111
-64.8811 -313.364 925.586
-60.5171 -312.394 912.464
-20.2447 351.009 971.522
40.2203 335.654 982.584
-17.8619 321.855 976.118
-71.432 311.421 995.577
-5.43906 294.715 971.206
-30.6463 215.156 967.638
-164.839 -6.0491 982.393
-211.191 -13.9074 981.138
-208.029 -17.6016 975.854
-152.725 -63.6261 979.323
-63.5569 -101.395 952.933
-134.726 -107.308 975.196
-27.7176 -113.218 950.496
-27.0784 -119.508 949.068
-24.2486 -121.64 948.854
-16.2457 -146.994 951.129
-35.5708 -150.47 944.123
-61.9358 -185.235 945.703
-9.63204 -188.465 948.173
-70.8171 -209.698 950.529
-66.6055 -244.832 962.896
-34.7495 -253.71 971.102
-35.8689 307.635 962.767
-45.4512 287.281 972.055
49.5835 275.819 1010.87
-79.7645 235.157 1002
106.601 10.0366 962.77
110.06 8.37973 962.274
-218.926 13.2792 983.036
-71.6701 -44.5012 953.339
-61.2301 -68.1287 947.534
-62.9811 -82.2575 951.11
-40.998 -122.027 946.933
-42.1244 -134.911 950.415
-132.643 -137.133 970.56
-28.0715 -139.591 949.573
-131.18 -148.896 971.134
-84.6623 -208.421 948.216
-51.5769 -240.239 954.925
-87.4358 -253.641 968.48
-40.2212 -273.845 933.191
-46.8384 -342.707 909.028
-59.4898 -341.919 908.737
-59.4894 -343.796 905.014
-192.868 3.50075 978.302
-168.463 -25.6375 978.253
-45.5428 -76.4514 942.454
-83.1082 -298.499 937.212
-59.1076 325.681 964.818
-36.3102 -258.702 967.729
60.2323 -123.277 967.458
-64.2723 313.563 969.519
-50.4632 -295.693 919.342
-212.785 6.27487 985.931
95.7823 119.167 981.287
-901.039 21.4579 76.8935
-901.038 21.4586 76.8937
80.7754 192.932 1017.14
-901.04 21.4589 76.8932
2957.17 -700.756 2260.15
-12.7402 -118.707 955.599
27.3158 -27.519 953.484
3.44342 293.292 975.383
-36.6469 -289.173 921.091
88.488 148.42 988.735
-24.0119 307.538 964.685
-115.297 -10.3884 966
-56.7598 162.123 980.333
-901.04 21.459 76.8931
96.0269 -2.07379 952.711
-178.954 20.1768 989.781
-193.925 30.9787 982.181
-102.233 -29.0352 967.144
-43.1775 -249.488 964.488
-45.0373 -224.752 952.936
-13.1321 297.109 969.318
62.1909 278.216 1014.94
-23.1832 285.37 978.915
25.0602 322.541 980.796
-51.7718 -222.718 950.701
-15.9279 27.3032 948.899
-172.281 -31.9758 978.44
-55.0567 172.017 979.412
-3.97065 -152.935 951.884
81.9943 169.916 1001.5
107.13 -0.72179 948.949
117.346 22.6469 960.539
-31.4985 -328.27 910.737
31.6881 319.216 986.624
-46.6273 -89.6287 946.332
-113.041 -12.859 964.351
-113.213 -182.4 966.089
109.661 13.3951 961.478
-99.4838 -265.15 959.735
1.04168 268.817 1001.07
-87.7096 348.587 998.58
-102.888 -261.115 964.567
-60.4582 -346.243 904.341
-65.8346 -307.626 926.324
-61.2386 -339.711 902.148
-35.9973 -297.026 925.123
-20.1043 278.769 976.819
27.0043 301.444 988.918
-68.6099 -195.384 945.362
-38.9345 -328.711 910.581
58.3843 284.8 1015.8
71.1977 165.108 1007.98
-65.6384 -182.796 944.726
-177.641 12.7957 983.561
87.5616 65.7064 975.939
99.2907 132.959 984.286
-97.8461 304.655 1122.73
-56.7117 233.092 971.57
63.2587 -4.26079 961.418
-77.5846 -118.846 965.188
-191.215 21.6709 980.625
-354.095 -51.78 153.596
-354.094 -51.777 153.597
-354.094 -51.7768 153.596
54.2503 268.489 1009.52
-82.9864 -316.145 918.332
-207.459 -2.53834 983.134
-41.2653 -221.535 950.265
-154.742 -45.189 978.222
-140.883 -85.7262 985.244
-354.094 -51.7774 153.597
-16.2037 -93.5752 948.217
-354.094 -51.7785 153.596
-901.039 21.4578 76.8936
-55.5334 -170.457 938.119
-211.336 14.1993 982.764
41.3113 -121.157 965.866
-49.2094 262.451 985.849
-354.094 -51.777 153.596
106.726 104.057 971.277
-34.6889 -121.505 948.06
-90.4195 -137.124 968.663
21.8138 293.501 983.376
-354.094 -51.7811 153.596
-14.2405 305.387 967.617
-65.1821 -196.928 944.74
-4.3444 310.5 968.78
-26.3233 253.359 992.34
-53.3843 -311.716 909.927
-49.4736 -92.4028 945.765
-178.929 -40.7602 979.129
-180.469 172.94 1048.61
-35.2141 -354.477 926.139
-354.095 -51.7775 153.597
99.9145 -65.0699 957.157
-201.239 41.2321 983.483
-103.222 290.752 1032.28
-901.04 21.461 76.893
60.3502 265.482 1035.16
-207.53 -2.3781 982.37
-31.6261 -139.366 948.466
93.5474 157.965 977.843
16.7075 304.273 982.367
-26.7482 -273.447 938.687
-117.761 427.798 1032.59
25.1264 -22.7784 957.268
-67.7445 -108.137 958.492
34.4117 293.91 987.106
-354.094 -51.7823 153.596
-58.2033 -240.4 951.04
2.29403 297.73 969.894
-354.095 -51.7802 153.596
-34.8542 -133.117 949.278
-901.039 21.4582 76.8934
52.2166 -153.733 967.379
-354.094 -51.7822 153.596
-59.1914 -229.489 953.197
9.173 292.356 983.53
-354.093 -51.7831 153.596
-76.9175 -249.58 963.542
3058.8 1335.98 2127.45
-33.6082 -113.007 948.456
-354.093 -51.7839 153.596
1.90524 265.064 1003.86
-208.584 28.5053 988.891
32.451 -194.001 963.245
10.0036 270.767 1003.33
-354.093 -51.784 153.596
109.288 12.8047 958.942
-49.5365 -264.799 957.14
-901.039 21.4578 76.8936
-354.095 -51.7811 153.596
-354.093 -51.784 153.596
-164.934 -21.3008 987.604
-65.5373 -342.396 907.984
8.55851 -223.6 955.027
-901.04 21.4585 76.8935
-181.437 -29.2527 975.081
-199.25 3.82704 981.338
-18.3574 -312.496 925.075
112.408 32.655 961.461
-70.8388 -254.321 969.878
114.852 29.1313 956.231
-59.4056 -320.81 912.614
-102.938 -12.1971 976.147
-1.3404 285.207 993.085
-63.4517 -249.212 966.295
-354.094 -51.7767 153.596
-87.0115 299.885 1009.41
-2.36296 -124.803 958.795
-173.183 149.782 1016.51
-354.094 -51.7771 153.597
-142.299 -85.6916 980.874
-39.4778 254.223 988.371
-354.095 -51.78 153.596
-99.1556 -258.308 968.873
-26.6564 -163.446 941.742
92.4118 28.1401 972.258
-354.094 -51.7836 153.596
-354.093 -51.7761 153.596
-147.077 15.8446 993.255
-354.094 -51.777 153.596
95.1219 109.324 970.824
-10.0937 284.509 987.678
-106.456 318.73 1020.66
-54.2318 176.471 977.228
-108.2 -246.861 974.215
-64.9405 295.023 986.591
0.117604 298.711 969.504
-37.8123 -147.049 943.984
-111.822 -233.841 995.173
-63.4834 -231.509 953.397
-901.039 21.4568 76.8936
97.5639 88.6005 958.217
-10.8193 -247.802 960.89
102.561 6.37402 959.574
-48.8842 -120.465 947.693
9.89833 283.194 995.745
73.3699 293.386 1001.28
102.566 124.211 982.485
98.6022 54.0462 962.536
-90.2311 283.76 1011.27
-46.7722 -282.664 918.076
56.3287 263.309 1028.29
-901.04 21.4593 76.893
-151.706 -36.011 977.703
141.424 4.8299 955.922
-66.6035 -201.818 945.394
0.634404 -214.457 950.395
-157.077 -113.714 1002.02
-65.4378 282.775 986.855
-150.435 -18.5704 976.153
-111.583 -197.168 964.823
-18.2829 -143.619 950.433
51.3678 309.762 1001.03
108.642 31.2974 960.135
-74.1984 -255.599 971.086
-74.5918 -327.158 916.188
-66.1076 -17.4599 944.981
-9.16647 285.894 982.251
-40.4243 -329.287 910.578
-60.4468 -132.038 950.956
-81.5954 292.583 1014.34
-145.82 31.1079 999.878
-901.04 21.4591 76.8931
0.447456 -145.324 952.776
-45.7878 -270.863 931.288
-51.1539 -330.671 908.698
-63.0975 -339.563 908.513
-46.1834 282.777 992.662
-40.4252 262.236 985.611
121.801 18.9523 960.968
-901.039 21.4606 76.8929
-106.357 -250.661 972.832
-81.7669 -228.512 952.845
-181.746 -52.5416 988.427
-41.1515 -109.452 950.291
-32.0901 -212.719 947.398
6.85729 -177.339 953.058
86.5302 373.989 1010.12
-20.4753 -203.18 947.353
-66.93 305.681 970.057
-166.521 -79.4969 998.871
-69.5332 -48.3255 952.603
-151.161 -35.7504 979.324
97.2589 -12.1568 953.701
-42.7422 -116.629 949.245
-155.245 -129.52 1010.82
-47.2626 -172.049 940.791
28.7279 295.365 982.591
-57.2647 -126.947 948.254
-45.0923 -128.927 946.638
-100.355 -260.213 966.839
-8.86597 320.229 974.253
1.0406 -57.7737 951.242
0.516108 319.354 975.405
100.591 124.039 985.987
55.1268 -121.538 963.826
-49.3391 -164.356 937.855
-29.5321 -122.564 946.721
-1.68153 -217.927 950.523
-57.2157 -218.334 948.248
-108.666 -237.418 985.115
-11.063 -309.702 928.294
-86.1775 -306.932 932.061
-266.824 110.504 1093.72
-29.8921 -311.135 915.555
45.1869 381.533 1009.37
-69.2314 -315.701 918.823
-4.64181 320.614 980.507
-105.068 323.676 1022.88
48.4919 310.368 999.494
-38.6211 -201.575 955.774
-106.664 309.06 1030.1
-32.1297 404.896 965.685
24.38 297.807 982.4
-212.107 22.9402 982.812
-147.373 10.405 996.874
-154.282 -61.0528 978.7
31.3119 -10.39 973.338
-38.5434 -110.612 950.032
33.8665 394.284 972.201
-41.5745 -161.738 941.421
-67.211 399.185 967.45
-108.611 -167.084 962.177
