0.430902 1.31755 7.29083
0.678214 -0.883809 7.82891
0.124187 -2.07217 7.27765
0.238346 -2.20011 7.0158
0.303533 1.87064 7.18183
0.393102 1.299 7.28022
-0.371377 -0.220402 6.63257
0.399183 -1.12243 7.35751
0.207829 2.24905 7.17324
0.0408271 2.11176 7.15906
0.297177 1.91645 7.19842
-0.112868 1.72377 7.25105
0.396351 1.69933 7.43301
0.606864 1.67287 7.81218
1.0838 -0.10541 8.15873
0.1727 -1.78947 7.10334
0.334153 1.88929 7.18822
0.462998 1.76239 7.44907
0.23918 -0.492468 7.03084
0.816034 0.140155 8.01354
-0.643416 1.96915 7.61743
0.257137 0.976884 7.25728
0.297206 -1.2822 7.15473
0.324813 -2.67474 6.9505
0.813806 2.31942 8.16874
0.683405 1.94951 7.68324
0.664015 1.72134 7.78192
0.365172 1.68961 7.32965
0.446743 1.41955 7.49284
0.0648516 1.39965 7.20924
-0.404126 -0.0552867 6.58122
0.172167 -1.95255 7.35463
0.0309024 -2.21252 6.91919
0.151258 -2.42397 6.82277
0.381844 -1.10807 7.30925
0.534364 1.84412 7.28727
0.28278 -2.1507 7.10236
0.271512 -1.73558 7.22239
0.200226 -1.82628 7.1647
0.440161 -2.54254 7.13088
0.500915 1.74399 7.30468
-0.602113 -0.135016 6.37785
0.31213 -1.28184 7.17167
0.286829 -1.39678 7.08166
-0.250968 2.00566 7.3266
0.100235 -1.84441 7.06621
0.235352 1.89165 7.21445
0.348928 1.84769 7.12181
0.664972 2.35103 7.4965
0.401207 -2.51478 7.03717
0.33248 1.76644 7.2832
0.259173 -1.643 7.09138
-0.48009 1.4464 7.27316
-0.606037 1.96201 7.66081
-0.0758476 1.96182 7.14651
-0.351725 -0.886905 6.77592
0.37908 -2.4378 7.01211
0.157018 -1.83129 7.12257
-0.0765901 1.72075 7.27597
0.28669 -2.58699 6.8519
-0.535441 2.68237 7.3729
0.581918 1.63657 7.88907
-0.148392 -2.03072 6.90353
0.895886 0.441119 8.02535
0.168342 1.89471 7.21209
0.340057 -2.61598 6.88135
0.366578 -1.28724 7.31685
1.05972 0.0310229 8.16898
0.529841 2.02713 8.18307
-0.287628 -0.926568 6.77616
0.442593 1.52038 7.64667
0.314401 1.5896 8.37325
0.545265 1.90562 7.32905
0.476367 1.23835 8.35237
-0.407205 0.00354697 6.55423
0.170713 -1.52238 7.01552
0.200955 -1.1331 7.05922
0.185721 -1.46049 7.02473
-0.031435 -0.32044 6.85648
-0.356858 -0.419753 6.58386
0.692163 2.35142 7.70251
-0.38001 -0.398153 6.52392
0.66809 1.93389 7.76734
0.867948 -0.71641 7.967
0.455307 -1.49839 7.41345
0.970399 0.239305 8.02099
-0.108458 -0.248255 6.82297
0.0871805 2.25699 7.1491
0.555433 1.67646 7.75445
0.333805 -1.2755 7.18123
-0.24405 -0.953821 6.78442
0.282786 -1.06995 7.16762
0.686138 1.71751 7.66499
-0.123242 2.04642 7.19185
-0.326517 1.12149 6.75867
0.850474 0.785828 8.1152
0.309838 -1.34374 7.16066
1.04511 -0.0232359 8.24237
-0.442513 -0.279437 6.49389
0.0968885 2.26633 7.14955
0.0451164 2.03044 7.19754
-0.29746 -0.517346 6.68386
0.4231 1.60808 7.66483
0.575724 1.81107 7.44691
0.207882 2.2062 7.17579
0.355029 -2.51817 6.95163
0.468545 1.5985 8.17062
0.341696 1.5041 7.47959
0.253899 -2.41206 6.90986
0.890821 -0.676468 7.9415
0.0963193 -0.614474 7.01232
0.883971 -0.186309 8.03048
0.338528 1.81182 7.2087
-0.477404 -0.5511 6.58628
0.59164 1.56774 7.74228
1.01094 -0.201659 8.10358
0.810957 0.144222 8.0018
-0.280562 1.74764 7.38307
0.98672 -0.601137 7.98254
-0.273285 -0.455856 6.69664
0.492167 -1.62128 7.60354
-0.307751 -0.583481 6.7184
0.977117 -0.330036 8.05369
0.830981 2.3255 7.94985
0.394184 -1.13905 7.43098
0.450054 1.86589 7.26749
0.0909986 -1.81783 7.08289
0.409503 -1.33368 7.38731
-0.0919045 2.00666 7.14576
0.693243 1.98309 7.70684
0.844446 0.62656 8.07543
-0.43446 -0.223411 6.50636
0.424846 1.86814 7.21521
-0.496211 -0.0244569 6.39413
-0.390749 -0.276009 6.58102
-0.1397 1.45525 7.44675
-0.538089 -0.19946 6.36642
-0.326668 -0.423457 6.62668
-0.37466 -1.69025 6.93813
0.852715 -0.0139376 8.01534
0.267242 -0.377346 7.03604
0.63897 -1.04953 7.86115
-0.0873502 -1.94613 7.02559
-0.0129614 1.76126 7.23622
0.0656089 -2.29683 6.88661
0.380619 -1.31525 7.33144
1.09115 -0.44667 8.11907
0.962798 -0.111148 8.04479
0.49247 1.5771 8.11094
0.00133414 -0.492718 6.93442
0.138898 -1.66956 7.02043
0.373858 -1.31439 7.30622
-0.361281 1.73818 7.45534
0.319515 -1.23051 7.22337
0.273404 -1.45069 7.10554
1.04127 -0.0238569 8.17151
-0.0574102 2.1487 7.19785
0.955384 0.290935 7.99307
0.316607 -2.31647 7.09552
0.340345 -1.07697 7.22548
0.643004 1.82037 7.7034
0.516198 -1.13952 7.6462
0.628765 1.81194 7.74646
0.22706 -1.13268 7.07742
0.624837 1.77932 7.52406
0.736249 -0.336462 7.80562
0.481369 1.76777 7.40161
-0.507759 -0.0853176 6.38876
0.309735 -2.19497 7.04479
0.297772 -2.15283 7.13633
0.342882 -1.66861 7.25918
-0.43358 0.0311088 6.45755
0.314478 1.50953 7.37989
0.919077 -0.112322 8.0523
0.151132 -1.27085 6.97471
0.337852 -0.797562 7.11955
0.656068 2.0264 7.81825
1.07715 -0.353724 8.15193
-0.110069 -0.269009 6.81145
0.475868 1.75383 7.31251
0.140622 -2.25791 6.98691
0.324545 1.43537 7.22684
0.811584 -0.436913 7.80899
0.366091 -1.11562 7.33984
-0.187288 1.95436 7.22419
0.480768 -0.196716 7.79854
-0.544523 -0.136493 6.39769
-0.505068 -0.335747 6.48432
0.347842 -1.01104 7.34953
0.0561855 -1.42126 6.87247
0.604138 1.59189 7.99609
-0.426616 0.341435 6.66083
0.913921 -0.520009 7.94119
0.420953 2.48818 7.17671
0.789075 0.726758 8.08174
0.577421 1.83511 7.41866
0.142376 -1.80849 7.11046
0.00388948 1.80342 7.32222
0.626217 1.05978 8.17329
0.769319 2.37937 7.81976
-0.129361 1.98682 7.17087
0.502343 1.93607 7.27669
0.97302 -0.556008 7.99363
0.396697 -2.49553 7.10579
0.968233 -0.454928 7.98827
0.124178 -2.05885 7.22385
-0.401024 1.75183 7.51926
0.843434 0.550266 8.12856
0.581784 -0.371741 7.61881
0.203062 -1.72757 7.0974
0.621131 1.79362 7.6451
-0.497894 -0.975621 6.78661
-0.457197 1.43848 7.21199
-0.0864387 -1.34203 6.86252
0.303628 -1.22995 7.18679
-0.454573 -0.207332 6.49943
0.960981 0.440619 8.11012
0.2713 -0.772554 7.05223
0.124648 -1.49196 6.94539
0.342689 -0.866007 7.18402
0.0880031 -1.29992 6.98858
0.255267 -2.03607 7.44303
0.277687 -2.21768 7.00436
0.0997128 1.86376 7.21783
-0.0355805 1.80025 7.26497
0.117268 -2.07937 7.15709
-0.34153 1.75595 7.46097
-0.498231 -0.0225093 6.40942
0.493824 -0.0927634 7.31426
0.982837 -0.120996 8.0524
0.340526 -0.258295 7.08613
0.924359 -0.282672 8.00447
-0.391943 -0.26046 6.59506
0.337654 1.82788 7.17441
-0.252558 1.75212 7.38581
-0.399642 1.78115 7.69436
-0.251697 -2.01267 7.07671
0.621214 -0.74993 7.80008
0.138314 -1.14187 7.04894
0.362735 -2.45259 7.08261
-0.0637837 -1.89753 7.02436
0.478066 1.66293 7.43367
0.0265151 -1.12037 6.89516
0.608156 -0.485521 7.57965
-0.461563 0.0977307 6.45228
0.9235 -0.280736 8.00829
0.273359 -1.97626 7.38428
0.48071 1.99076 7.38049
0.535312 1.64376 7.82004
0.0550333 -1.33899 6.86163
0.249872 -1.83244 7.29135
-0.0573626 -1.99923 7.08577
0.293048 -2.19149 7.0488
0.218339 -1.93576 7.34064
0.491276 1.64668 7.75875
0.94105 -0.232884 8.06446
-0.422246 -0.134532 6.54086
-0.462002 0.856827 6.75501
0.553414 1.66768 7.79136
0.361775 -1.26437 7.30512
-0.161644 -1.99829 6.87908
-0.0938055 1.21065 7.34135
1.02468 -0.0892535 8.10866
0.436159 1.74246 7.3518
0.219559 2.21803 7.14834
0.212451 1.81376 7.16381
0.104213 1.83568 7.22342
0.56403 1.33633 7.64018
0.149258 -2.21817 7.03602
0.392734 -2.38404 7.09083
0.362272 -1.1118 7.26342
0.333225 -2.53793 6.93566
0.291625 -1.48023 7.13402
0.135186 -1.90711 7.14044
0.311123 -2.62757 6.87251
0.371962 -1.34338 7.29175
0.267266 -1.19229 7.17624
0.101838 -1.99542 7.22147
-0.0743666 2.72432 7.10736
1.0258 -0.0061979 8.19418
-0.549837 -0.102078 6.39425
0.275621 -2.53624 6.8778
0.0280893 2.10637 7.18364
0.291917 -0.900576 7.11148
1.00464 0.332712 8.13625
-0.64086 2.36303 7.88618
0.300134 -1.37698 7.10868
0.255069 -2.13875 7.0272
0.36255 -0.759583 7.12883
-0.254833 1.9806 7.23654
0.120195 -2.03597 7.27442
0.997018 -0.174245 8.07671
-0.354863 -0.515043 6.56795
0.13993 -0.930032 7.07088
0.36614 -1.13912 7.33781
0.0603339 -1.10249 7.06515
0.293994 -2.509 6.85237
0.189738 -1.16618 7.07759
0.165826 2.21468 7.14341
1.10117 -0.307882 8.21725
0.116584 -1.40086 6.96843
-0.43764 -0.230136 6.53416
0.130825 -0.995538 7.0743
0.484706 -1.11014 7.50627
-0.168659 1.9866 7.20841
-0.15286 1.94277 7.17657
-0.147002 -2.01873 6.92565
0.559869 -0.444789 7.5494
-0.374033 -0.165072 6.58561
0.262327 -1.09271 7.12866
-0.0117292 -0.384205 6.89623
0.279286 -1.15349 7.14291
0.295528 -2.30167 6.99697
0.206629 -1.10403 7.07086
0.56476 -1.28115 7.78778
0.344234 -1.39441 7.18722
0.0747305 1.87497 7.26286
-0.400464 -0.0486989 6.52364
0.023175 -0.424287 6.91553
0.619308 0.863318 8.07591
-0.525897 0.00485347 6.39309
0.229678 -2.19651 7.00916
0.973708 -0.103568 8.07056
0.295814 -0.29482 7.07126
0.300068 -0.883851 7.13406
-0.040562 -1.18072 6.99566
0.127709 0.969814 7.20734
-0.4616 -0.160533 6.4506
-0.313713 -0.505546 6.66123
-0.185651 1.82466 7.23438
0.455381 1.71242 7.42834
0.26037 1.65522 7.27603
0.823425 -0.120185 8.01452
-0.317302 -0.0928163 6.7998
0.961705 -0.240749 8.04026
0.362371 -1.40025 7.21915
0.185842 -1.80715 7.1675
-0.0313579 1.94979 7.17354
-0.486354 0.799266 6.75396
0.277515 -1.48192 7.12261
0.126926 -1.90953 7.08886
0.436458 -2.51323 7.16224
1.09428 -0.127561 8.17676
-0.321764 -0.617428 6.67979
-0.0282624 -1.96016 7.04345
-0.0383093 -1.99284 7.10099
0.374319 -2.41176 7.09271
0.285837 -2.46541 6.90724
0.374248 -2.53129 6.9961
0.21044 1.55738 7.58143
0.398766 1.89775 7.31993
-0.564828 2.71036 7.58143
0.0770865 2.24716 7.1484
0.709007 1.79101 7.86286
-0.120526 2.20042 7.29023
0.537914 1.79146 7.26672
-0.437934 -0.565407 6.57975
0.702845 1.77926 7.86253
0.539572 -1.13045 7.70415
0.0804718 -0.93681 6.91491
0.342922 -2.62634 6.95781
0.215521 -1.66221 7.20583
0.0231214 -1.9286 7.09613
0.655021 1.8586 7.92186
0.345704 -2.52578 6.96636
0.570039 1.68434 7.91385
-6.33398 -1.47539 9.58215
0.971275 -0.235096 8.07751
0.372595 -1.12452 7.40554
0.318511 0.16181 7.14086
1.02201 -0.366421 8.12301
0.56917 1.72885 8.15383
-0.395831 -0.14584 6.5564
0.691056 1.78058 8.05341
-0.410191 -0.137145 6.52351
0.139309 1.89567 7.21928
-0.424444 0.0219467 6.48162
0.183385 -2.37358 6.93945
-0.329851 0.0137955 6.82678
0.170485 -1.51218 7.01951
0.278931 -2.59256 6.87005
0.254363 -2.03044 7.41842
-0.384678 -0.106798 6.58264
1.06722 -0.492724 8.10157
0.254034 -1.98793 7.47266
0.161328 -1.61276 7.02334
0.47458 1.92034 7.19664
-0.540801 -0.969032 6.88121
0.191665 -1.26952 6.96455
0.802986 -0.0912949 8.0054
0.993107 -0.173744 8.0921
-0.0220584 2.22445 7.15152
0.172418 1.88586 7.18977
0.153159 -1.82781 7.10094
0.3033 -1.65699 7.17289
0.285994 -2.13146 7.11188
0.440582 -1.39763 7.37808
0.105743 -1.27218 6.98867
0.789355 -0.798568 7.88306
0.279532 -0.459959 7.03406
0.690583 0.901709 8.13482
0.544853 1.76833 7.49106
0.460763 1.73189 7.48211
0.915664 -0.12339 8.04094
-0.509757 -0.751713 6.80262
0.403628 -1.42997 7.37074
0.619718 1.83119 7.66277
0.35759 -2.50761 7.1359
0.120452 -1.69925 7.02103
-0.664558 1.94917 7.68847
0.497768 1.71359 7.52015
-0.169263 1.70559 7.27149
0.290695 -2.61625 6.88961
0.55942 -1.21525 8.10239
0.587247 1.76903 7.62533
0.197031 -2.30703 6.93957
0.411519 2.50334 7.13454
-0.0504868 1.7965 7.28845
-0.555342 -0.17775 6.379
0.82401 -0.200739 8.00894
-0.199278 -1.95341 6.91217
-0.0202228 1.86755 7.21251
0.137638 -1.97287 7.35478
0.247994 -2.03371 7.42413
-0.113672 2.67379 7.10689
0.249832 1.70457 7.19693
-0.331532 -0.744116 6.68036
0.324758 -1.04898 7.21913
-0.0781693 -2.04019 6.99149
0.498731 1.70198 7.69082
-0.101149 -1.97712 7.00761
0.241275 -2.49598 6.85232
-0.522754 0.0145856 6.42936
0.00656168 1.94476 7.18992
0.948227 -0.56894 8.04325
0.668941 2.05508 7.75518
-0.307355 -0.589716 6.80664
-0.308169 -0.907913 6.77902
0.591693 1.76035 7.47842
0.95289 0.34606 8.03468
0.356612 1.79553 7.16327
-0.187192 -1.89508 6.9921
0.00121618 1.81657 7.28666
0.448133 2.17184 7.31113
-0.0742168 1.9686 7.1174
0.185308 -1.80882 7.16328
0.22457 -2.26653 6.96944
0.562282 1.78012 7.43706
0.594922 1.79468 7.60063
0.330437 -2.31296 7.08885
-0.254284 -1.93322 6.92187
-0.327457 -0.130398 6.79572
0.965135 -0.342168 8.03088
0.413808 1.58025 7.67412
0.359023 -2.38888 7.10739
-0.342424 1.72286 7.47149
0.217415 -1.64927 7.20949
0.438147 -1.28038 7.39893
0.464889 -0.689916 7.37016
0.712664 1.99113 7.83408
0.630135 2.37819 7.62093
0.170046 -2.38971 6.8817
-0.0260584 -1.95057 7.06428
0.442647 2.25499 7.34981
-0.348877 -0.547762 6.65109
0.169924 -1.79065 7.11995
0.203882 -1.0799 7.08535
0.109282 2.19291 7.17368
-0.373873 1.72807 7.49305
0.252256 -1.13463 7.12144
-0.314042 -0.644692 6.70501
0.662246 2.37198 7.92768
0.249933 0.939722 7.24669
0.160775 -2.4349 6.94798
0.649407 1.82852 7.51516
-0.296292 -0.799541 6.77682
-0.239238 -0.33846 6.68287
0.677852 1.92447 7.7118
-0.137386 -2.02703 6.89328
-0.144811 -2.01501 6.91544
0.601246 1.7204 8.0454
0.246308 -2.11865 7.04738
0.26902 -2.61086 6.85552
0.594123 1.75503 7.55937
-0.0966019 1.98571 7.12434
0.817396 -0.828854 7.94088
0.507133 1.80665 7.29138
0.292362 -0.395727 7.05527
0.25968 -1.3981 7.0612
1.08393 -0.0839897 8.22403
0.271997 1.71673 7.37723
0.618016 1.65807 8.05586
0.587682 2.52134 7.30596
-0.0873008 -1.88789 6.95521
0.383558 -1.57482 7.3386
-0.506425 -0.201448 6.40969
0.620161 1.84949 7.55831
-0.564546 -0.214291 6.32305
0.287184 -2.41321 6.89895
-0.326551 -1.82161 6.96726
-0.246652 1.93789 7.34347
-0.284325 -0.799423 6.76028
0.300961 -2.15803 7.21531
0.412201 1.72483 7.26271
-0.572529 -0.0772714 6.37602
0.186373 1.92014 7.22759
0.459369 -1.5679 7.53907
0.597483 1.93751 7.54598
-1.20171 0.655851 6.51025
0.211558 -1.79083 7.18464
0.226509 -1.18892 7.10178
-0.399962 -0.892817 6.74684
0.373313 2.8225 7.44742
0.356434 -1.14124 7.35797
0.484674 1.93849 7.25497
0.310504 -2.30295 7.18531
0.386803 1.68685 7.44233
0.537249 1.66278 7.72582
-0.0871982 1.83634 7.17129
0.401022 -0.904947 7.23952
0.564679 1.94588 7.48897
0.357784 1.91219 7.155
0.470673 2.00285 7.33314
0.854848 2.65831 7.85837
0.536451 1.93367 7.39157
0.262287 -2.52794 6.83425
0.981268 -0.0441595 8.11081
0.758282 0.583357 7.99145
0.371517 -1.09407 7.36042
0.619757 1.61091 8.06689
0.400673 1.53214 7.6034
0.0859592 -1.8311 7.08275
0.290969 -0.321078 7.04265
0.914552 -0.408965 7.96133
0.234534 -2.53303 6.84018
0.227231 -0.784248 7.07376
-0.301715 -0.759287 6.71645
0.320021 1.56777 7.38055
0.371161 0.693472 7.25215
0.314484 -1.30486 7.18928
-0.565459 -0.0877712 6.36329
1.04384 -0.423215 8.09585
0.716062 0.828793 8.08014
-0.0411074 1.52594 7.32785
0.479202 1.68346 7.61205
0.299745 -1.24155 7.18989
0.343914 -1.05189 7.25232
0.861181 -0.329597 7.98695
0.585802 -0.511361 7.52741
0.790462 2.44996 7.73135
0.564237 -0.402923 7.57138
0.540612 1.61499 7.81008
0.327923 -1.63605 7.2376
0.333103 -2.28428 6.97268
0.0692229 2.07106 7.21514
0.598161 1.78787 7.48492
0.580871 -1.35228 7.72742
0.411582 -1.71176 7.415
0.197282 -0.587318 7.0369
-0.119469 1.90105 7.15865
0.993793 -0.60232 8.0119
0.506659 -1.40689 7.54008
0.216248 -1.81665 7.22483
-0.453439 -0.142279 6.47676
-0.434819 0.0180213 6.62239
0.270886 -1.25061 7.14664
0.299587 -1.18804 7.20303
-0.447013 -0.0472135 6.42748
-0.415522 -0.0429077 6.49238
0.210943 -1.78215 7.18593
-0.0532695 -1.42299 6.82883
0.340626 -1.0301 7.36745
0.250777 -1.79336 7.24448
-0.081711 1.63369 7.30514
0.312588 -2.26208 7.22721
0.294061 1.77365 7.24096
-0.220671 -1.89674 6.9244
-0.445484 0.0191839 6.40974
0.368731 -2.41929 7.12728
-0.350601 0.501766 6.93697
0.103446 -1.94111 7.19677
0.433556 -0.858356 7.32533
0.940456 -0.218187 8.02359
-0.0998657 -0.94799 6.89144
0.276972 -2.13183 7.05993
0.355771 -2.64299 7.01273
0.366095 -1.40202 7.20936
-0.150772 -2.00621 6.93944
0.544543 2.21729 7.37675
-0.350328 -0.995478 6.73286
0.197008 -2.43471 6.90565
0.75091 1.76325 7.94281
0.53725 1.73181 7.50091
-0.013607 -2.1478 6.94249
-0.473347 -0.737015 6.69395
0.423536 1.87227 7.21675
0.539746 1.21509 8.29823
0.21535 -1.21939 7.09597
0.0795518 -1.78732 7.05615
-0.0734981 2.44752 7.09597
0.9681 0.250371 8.0815
0.256301 -2.32492 6.95217
0.387532 1.72852 7.41895
-0.0767079 2.07555 7.24261
-0.407329 -0.00846907 6.43671
0.45099 1.71409 7.55979
-0.257239 -1.88734 6.93847
-0.349558 -0.378345 6.61492
0.410742 -2.62518 6.99893
1.04755 -0.288204 8.23362
0.671471 1.70838 7.91914
-0.672511 1.04555 6.86648
0.323179 -2.41299 6.9427
0.322729 -2.44282 6.94008
-0.506899 -0.147697 6.42444
0.146543 -1.87339 7.12582
0.116284 -2.00957 7.25225
-0.562801 -0.474927 6.53229
-0.267352 -1.85394 6.95802
-0.478111 -0.716326 6.63743
-0.0778788 -2.06016 6.93271
0.668912 2.02808 7.746
0.493314 1.89283 7.22858
0.343358 1.30051 7.21067
0.403211 -2.53109 7.0522
0.983643 -0.596233 8.0369
-0.439933 1.22876 7.07271
0.306551 -2.65829 6.90072
-0.31572 -0.837663 6.77784
0.950698 0.248172 8.04186
-0.478657 0.0542006 6.41002
-0.0291513 -1.12583 6.97987
-0.466698 -0.0347481 6.3955
0.914751 -0.340297 7.97337
0.21587 0.610954 7.07682
0.565757 1.70707 7.69778
0.520522 -0.438755 7.41375
0.153883 -1.07858 7.05886
0.87184 -0.773127 7.99093
0.735435 2.37919 7.5345
-0.352939 -0.825787 6.74534
0.389083 1.82712 7.15017
0.21221 -0.825216 7.06384
-0.564299 -1.09283 6.837
-0.0965398 -1.97142 6.99228
-0.201786 -1.95004 6.92342
0.349196 -1.03594 7.28964
-0.00408128 -1.08611 7.02948
-0.314958 0.273825 6.85591
1.08463 -0.102029 8.15754
0.654455 1.99391 7.69702
0.120008 -1.8323 7.09089
0.640779 1.67777 8.16842
1.04521 -0.237599 8.14626
0.350213 -1.09598 7.24944
-0.530038 -0.16658 6.41701
0.362463 -1.2828 7.28421
0.323018 -2.21666 7.11929
0.512585 2.22356 7.35227
0.352706 1.77668 7.1984
0.0542521 -1.351 6.9141
0.00406812 1.3951 7.26351
0.146652 1.09309 7.21851
0.796097 0.032673 8.00301
0.0137267 -0.401282 6.92112
1.00407 -0.130076 8.06736
0.459549 1.71963 7.63091
0.54448 1.67153 7.87402
1.09891 -0.18325 8.19765
1.07816 -0.297254 8.18413
-0.226245 -1.89363 6.97148
-0.454443 -0.178613 6.47161
-0.539885 -0.278728 6.39676
0.62196 1.83221 7.54366
0.261348 0.982019 7.21141
0.424189 1.64381 7.40642
0.318941 -2.25336 7.09563
0.416017 -0.923336 7.30713
-0.42166 -0.520175 6.5797
0.274343 -0.774948 7.06554
-0.437171 -0.0857629 6.48682
-0.14626 -1.4354 6.85045
0.29082 -1.02161 7.17827
-0.424332 -0.170863 6.53768
0.32298 -1.10629 7.20313
0.154064 -1.57516 7.0073
0.12306 -1.64098 7.00793
0.394728 -2.42558 7.183
0.240602 -1.04696 7.14874
0.568976 1.81072 7.46357
0.630059 1.90865 7.60101
-0.0798873 1.9223 7.12294
0.494479 1.65186 7.57744
0.216213 -2.31441 6.92988
0.557763 1.84469 7.3361
0.151507 -0.983879 7.07773
0.528711 2.27476 7.37784
0.36163 -1.25314 7.33899
0.189532 -2.44385 6.85259
0.360156 -2.37125 7.03849
-0.234385 -1.2423 6.7858
-0.130958 2.0269 7.18898
0.259152 -2.38678 6.92436
0.176826 -1.53258 7.0459
0.32817 1.72879 7.28466
0.659702 1.75831 7.78592
0.161401 -1.82773 7.11095
0.86527 0.701032 8.16253
0.243629 -1.18259 7.12945
0.613532 1.56602 7.91898
0.260727 -2.19764 7.02808
0.196967 -2.41165 6.9326
-0.414244 -0.00781039 6.51716
0.747196 2.03708 7.78592
0.528315 1.95755 7.43487
0.518636 1.85462 7.27285
0.332544 -2.21745 6.9997
0.116304 -1.52138 6.91637
0.570951 1.75377 7.63036
0.583548 1.64224 7.97378
0.932851 -0.267195 8.07401
-0.13776 2.08605 7.18895
-0.434702 -0.168409 6.48343
0.579129 1.66325 7.82318
-0.344571 -0.242846 6.65326
-0.416639 1.72549 7.52329
0.186334 -0.561922 7.02902
0.0315479 1.39761 7.24074
0.248317 -0.731317 7.058
-0.559407 0.468198 6.64929
0.295181 1.61084 7.29339
0.00657418 1.74941 7.18901
0.380418 -0.940959 7.26251
0.269173 -1.19431 7.1734
-0.306881 -0.785533 6.72541
-0.430553 -0.150191 6.50453
0.330009 -1.23258 7.24592
0.140432 -0.953302 7.05733
-0.146114 -1.47814 6.85481
0.110223 -1.97437 7.22904
0.939591 0.385889 8.09359
0.0547244 -1.67939 6.93064
0.0845432 -1.73392 7.02249
0.509356 -0.969339 7.44784
0.628682 1.75567 7.69562
0.0253344 -1.10645 7.04399
0.106207 -1.99866 7.30572
0.670509 1.87056 7.93792
0.0199384 -1.9594 7.11839
-0.304413 -0.651577 6.63768
-0.31142 -0.625971 6.69044
-0.0359944 -0.301818 6.83558
0.760866 0.578302 8.00242
0.199544 -2.4965 6.83964
0.310823 -1.18289 7.17128
0.210563 2.20416 7.17245
0.205405 -1.80091 7.17425
-0.561162 -0.0541694 6.37068
0.242288 -2.46818 6.89188
0.0983631 -1.69295 7.01706
0.308587 -2.45757 6.88516
0.198589 1.55168 7.50618
0.90882 0.0537594 8.03368
-0.337758 1.92962 7.2794
-0.174558 -2.04045 6.90448
-0.42412 1.52184 7.47864
0.561843 1.69678 7.69016
0.642201 1.71915 7.75795
-0.441948 -0.752923 6.69541
0.736904 1.75866 8.10048
0.505531 1.71881 7.53125
-0.514877 -0.00931051 6.39534
0.453501 1.61756 7.71984
-0.338863 -0.454288 6.62212
-0.086204 -0.269443 6.82267
0.861543 0.553193 8.15083
0.213623 -2.35007 6.88852
-0.227999 1.87978 7.24777
0.198419 -1.51831 7.01707
0.26318 1.82466 7.21682
-0.461102 0.066239 6.60757
-0.110021 -2.06147 6.90158
0.142766 -1.78277 7.0912
0.316468 -2.40276 6.96872
0.148978 -1.64297 7.01897
-0.294831 1.93832 7.31607
-0.298245 -1.85237 6.95779
-0.462424 1.78958 7.63385
-0.158375 -2.01102 6.90758
-0.573689 -0.0812363 6.40686
0.297261 -2.60918 6.86366
0.22085 -2.47577 6.88983
0.486947 1.69239 7.65504
-0.167629 1.94962 7.24346
-0.480902 -0.201914 6.44994
0.303374 -0.883871 7.102
-0.214507 -1.92558 6.91761
-0.187462 -1.93639 6.917
0.0233133 1.99211 7.16559
0.295746 1.72447 7.25689
-0.322975 2.5177 7.41298
0.50702 1.70686 7.58368
-0.271069 1.64698 7.42752
0.287469 0.808986 7.2406
-0.590963 -0.928499 6.81688
0.496548 -1.09379 7.49114
-0.0985515 1.95502 7.17145
-0.0348938 -0.306408 7.04726
-0.0616659 -0.313549 6.97471
0.512042 -0.531966 7.44695
0.0594235 -1.46109 6.95889
0.711359 0.886152 8.09152
-0.458644 0.0214742 6.4213
-0.366563 -0.211526 6.62686
-0.278545 -0.227496 6.76752
0.0458812 -1.06203 7.04931
0.27662 -1.87731 7.34522
0.267381 -2.13024 7.07098
0.241568 1.79985 7.2363
0.596044 1.70935 8.05006
-0.0642585 1.32736 7.32563
-0.423959 -0.0764009 6.46998
-0.0101937 -0.434486 6.92589
-0.319803 -0.540497 6.68925
-0.385283 -0.72756 6.68214
0.185734 -0.954994 7.07003
0.366021 -1.18772 7.3114
0.196521 -1.95236 7.25852
0.602245 2.74231 7.55385
0.391343 1.91727 7.26838
0.360936 1.72317 7.33197
0.560152 1.6665 7.85483
0.293378 1.56785 7.31437
0.674705 1.56638 7.99752
-0.0556793 1.11138 7.25748
0.25289 -1.03327 7.15496
0.147838 -1.59427 7.00482
0.0168819 -1.81938 6.98188
0.377766 -2.38464 7.13437
0.654662 1.77079 7.7472
0.623423 1.73604 7.73627
0.396017 1.18605 7.30447
0.905078 0.67899 8.08703
0.802976 0.56972 7.99149
1.06289 -0.110639 8.13589
0.642204 -0.952116 7.75251
0.285448 -1.0204 7.18579
0.638281 -1.14613 7.76484
0.305236 -1.18581 7.2098
0.0190669 -1.34672 6.87453
-0.323831 -1.83719 6.95152
0.315252 -2.60154 6.86561
0.283837 -2.65716 6.90402
0.628697 2.36968 7.53084
0.49873 1.95517 7.35979
-0.148163 2.02998 7.20915
0.00321733 1.87184 7.27295
0.533821 1.79329 7.42779
0.187562 -1.47283 7.01566
0.604124 1.79548 7.53644
0.692459 2.3827 7.47097
0.330276 1.74477 7.32726
0.845018 0.515457 8.08138
-0.462664 0.191492 6.45849
-0.0986181 -1.67006 6.89748
-0.483264 -0.0259208 6.3541
-0.434717 -0.177828 6.50631
-0.28337 -0.453203 6.70795
1.00262 -0.626367 7.96907
0.0134231 2.04093 7.1413
0.347249 -1.11669 7.23038
0.67446 1.77975 7.89396
0.333026 -1.15334 7.24015
-0.11237 -1.38331 6.88423
0.322865 -1.11352 7.28281
0.275493 -1.82013 7.29127
0.313834 -2.01402 7.42989
0.349672 -2.33082 7.08202
0.390431 -2.41961 7.09362
0.833625 2.32974 7.8288
0.539477 1.95673 7.55616
0.112224 1.91207 7.18592
0.364142 1.81039 7.14297
0.654442 1.87957 7.93425
0.637906 1.78961 7.72394
-0.0607128 1.77435 7.33907
0.443295 -1.55128 7.61147
-0.0828972 1.76301 7.27901
-0.0447446 -1.54117 6.83626
0.518152 1.63087 7.77665
0.67518 1.92374 7.81105
-0.545032 1.41253 7.28547
0.49179 -0.683281 7.42156
0.292061 -1.03056 7.20655
0.637884 -1.13353 7.72078
0.305158 -1.38069 7.13329
0.413042 -1.75223 7.37783
0.396921 -1.77611 7.37127
0.157255 -1.76083 7.08821
0.252569 -1.80568 7.20598
0.412184 -2.40904 7.23292
0.0561213 -2.36393 6.87467
0.404799 -2.50433 7.0676
0.666464 1.7263 7.78731
0.337275 -2.69197 7.07944
0.052187 1.80734 7.20984
0.940177 0.400036 8.08988
0.200461 -2.36535 6.92543
0.51166 2.417 7.19502
0.278399 -2.47816 6.87513
0.585989 -0.450119 7.57627
0.45066 1.21758 7.32356
0.848518 0.612898 8.12141
0.283429 -2.56419 6.87088
-0.32719 -0.672017 6.71137
-0.101852 -1.98991 6.95627
-0.533922 2.42987 7.55272
0.437045 2.13692 7.3022
0.436936 2.62168 7.16278
-0.0467155 0.759289 7.17924
0.375589 1.5739 7.48392
0.823766 0.533337 7.99988
0.0595364 -1.30753 6.97277
0.173658 -1.26532 7.04306
0.350709 -2.26171 7.07422
0.374553 -2.53225 7.01156
-0.386736 -0.476637 6.53931
0.916692 -0.254073 8.05711
1.02214 0.142228 8.09834
0.299965 -1.10881 7.16606
-0.548889 -0.0899683 6.38909
0.25455 -1.43714 7.05039
0.51061 1.84649 7.18406
-0.436475 -0.0071782 6.45888
0.325348 -2.39185 6.9518
0.426152 0.653442 7.26539
0.829097 0.572731 7.99649
1.09069 -0.0790478 8.21048
-0.132717 -1.9861 6.89995
1.03787 -0.155218 8.09905
0.224828 -1.68918 7.09046
0.600364 1.81994 7.45245
0.327688 -2.33026 6.98348
0.182157 -1.82926 7.14807
0.329685 0.0704594 7.12745
0.224744 0.876127 7.2504
-0.492313 -0.537928 6.66207
0.333016 -1.49664 7.33014
-0.499028 -1.07059 6.79207
-0.533607 -0.187502 6.42053
0.114276 1.75831 7.20819
0.411023 1.98936 7.17425
0.326391 1.42798 7.21828
0.982397 -0.337551 8.02214
-0.164537 2.781 7.16975
0.460721 2.09752 7.31757
0.619134 1.86336 7.46361
0.930191 -0.0536492 8.06688
0.393961 -1.82565 7.47263
0.219523 -0.808335 7.05826
0.167859 1.83135 7.17867
-0.363967 -0.345207 6.65113
0.21145 -1.89292 7.33106
1.09491 -0.285688 8.20613
0.0170347 1.85936 7.23553
-0.152154 1.75709 7.26516
0.563822 2.15664 7.40075
-0.484996 -0.102179 6.44624
0.632924 -0.439555 7.58306
0.36359 -1.3726 7.20128
-0.42577 -0.000363995 6.49047
0.129785 -1.37413 6.96285
-0.40545 -0.0530447 6.5846
1.00014 -0.359845 8.10567
-0.257975 -1.87561 6.96178
0.730654 -0.824381 7.87254
0.341117 -1.34833 7.16439
0.0739644 -1.53032 6.89632
0.268617 -1.60899 7.10936
0.239239 -2.1262 7.01642
0.201495 -2.29923 6.89578
0.80441 -0.0495954 7.99316
0.309988 1.87729 7.18621
-0.120239 1.95179 7.18266
0.343576 1.85712 7.1668
0.253472 1.9375 7.26134
-0.529912 1.83896 7.66891
-0.328764 1.80093 7.44263
-0.457503 -1.10271 6.81098
0.274168 2.70063 7.10598
0.588153 1.86547 7.46631
-0.419187 1.8793 7.49388
0.700709 1.77792 7.82984
-0.506862 1.87281 7.68378
0.518211 1.34303 7.53914
0.803505 0.62793 8.08785
0.714965 -0.378 7.68488
0.275215 -0.959731 7.11004
0.282286 -2.52811 6.85861
0.472634 2.09404 7.31318
-0.440876 -0.362753 6.49245
-0.304876 -0.797949 6.777
0.396587 2.72191 7.16947
0.594656 1.44617 7.70075
0.363449 0.0353039 7.14411
1.10648 -0.404127 8.1306
-0.450445 -0.304944 6.46226
-0.333082 -0.70205 6.6863
-0.241125 -0.864527 6.84565
-0.112448 -1.84132 6.91443
0.0273059 -2.20106 7.01631
0.396852 -2.60569 6.9657
0.496111 2.41845 7.20247
0.0148293 1.77054 7.22203
-0.454663 1.82736 7.66516
0.660417 1.67487 7.87888
-0.40758 -0.145703 6.56723
0.99236 -0.260122 8.08802
-0.498276 -0.217871 6.39642
0.88134 -0.731264 7.93286
-0.309126 -0.825307 6.76987
-0.479378 0.863506 6.79832
0.374975 0.393603 7.19851
1.03608 -0.140118 8.099
0.226283 -0.77879 7.05714
-0.295949 -0.842065 6.77448
0.232557 -2.32224 6.96768
0.0658011 -1.98178 7.16145
0.28768 -1.183 7.14885
-0.370407 1.76099 7.48762
-0.183173 1.9251 7.20929
0.450518 2.37869 7.324
0.349946 -2.48125 6.94777
0.171177 -1.78628 7.08947
0.222828 -1.68572 7.08624
0.292328 -1.5862 7.13092
0.14916 -1.52932 7.00019
0.0840269 -1.40107 6.878
0.0862605 -1.27555 6.98024
-0.232186 -1.01892 6.78889
0.369255 1.92582 7.16839
0.531474 2.1043 7.37263
0.582389 2.1356 7.36999
0.630496 2.38728 7.37515
0.0337068 -2.29274 6.86053
0.288784 -1.43895 7.08227
0.507289 -1.41786 7.47145
0.192754 -1.20782 7.0855
-0.317478 -0.844825 6.77774
0.747653 -0.868387 7.88121
-0.346638 -0.659935 6.64943
0.980035 -0.631209 7.96991
-0.402552 -0.377673 6.51902
0.883876 0.574241 8.13341
0.295405 0.644245 7.15494
0.646653 1.7308 7.76437
-0.386755 1.82313 7.58224
0.0266138 2.09717 7.1599
0.884113 2.35635 7.74175
0.162329 2.19294 7.16796
0.706753 2.34092 7.56822
0.391124 -2.57419 6.97294
0.176405 -2.50698 6.8131
-0.120296 -1.34895 6.88002
0.211184 -1.10626 7.0666
0.00900777 -0.987835 6.876
0.330882 -1.04173 7.22397
-0.350227 -0.832262 6.7206
0.853114 -0.757388 7.92891
0.879792 -0.72259 7.9418
-0.312915 -0.565544 6.67133
-0.214529 -0.348485 6.71266
0.73018 -0.41581 7.76653
0.577708 1.66427 7.8383
-0.165634 1.90536 7.20623
-0.245792 -0.791249 6.86462
-0.534466 1.80646 7.61181
0.458509 1.9106 7.15766
0.336109 -2.53838 6.88305
-0.0478577 -0.298523 6.84083
-0.429672 0.0239235 6.50407
0.627711 1.71768 7.74484
0.294652 -2.33554 6.95349
0.473536 2.19288 7.31702
-0.232488 -1.06508 6.78144
0.0477483 -1.78749 6.99993
0.0899087 -0.200517 7.02031
-0.476902 -0.163038 6.47089
0.34162 1.9085 7.19174
-0.138356 1.96884 7.17768
0.250878 -2.20606 6.9814
-0.0999934 2.00991 7.18342
0.28337 -1.15194 7.12993
0.618348 -0.320182 7.56697
