-2972.83 -611.114 22075.7
-3347.51 -2007.6 22583.3
-4609.94 1167.42 23266.3
-2269.52 2814.17 25489.7
-1828.69 -2888.42 24470.7
1329.61 151.894 24268.2
-5598.75 -4681.15 24972
127.59 414.56 24259.2
-962.129 -4342.97 27096.7
-3835.69 1124.66 22855.6
-7097.76 2275.49 23600.6
-4703.35 728.234 22862.5
-6388.35 -2584.71 21161.8
-5056.76 709.814 22725.5
-2458.27 -2231.44 23270.4
-2324.19 -1507.5 22673.8
-999.919 -2269.53 24050.6
-1434.96 1232.2 24339.4
-636.017 -4091.43 27313.6
-3895.8 -1534.46 21937.4
-5734.18 -1493.69 20928
-8288.47 -4373.45 22624
-7013.98 282.553 21907
-9376.88 2882.7 23500.5
-1080 -2149.92 24011.5
-2800.99 -561.323 22423.5
-10357.1 -2948.32 25422
-5431.92 -4877.7 25445.1
-9443.01 1246.55 21963.4
-3803.43 977.33 22800.6
-3464.07 -3078.55 23795.8
-2180.83 761.95 23675.1
528.352 1577.43 25163.6
-7733.26 -3739.84 22081
356.405 743.152 24297.9
-8372.14 -4727.4 23148.4
411.415 745.783 24573.3
-2297.85 -3428.03 24828.4
-3476.3 -634.866 21958.7
-7561.7 -4482.62 23341.5
-7314.53 408.696 21984.9
-2653.15 -1634 22704.7
-7532.33 -846.497 20757.8
-4650.71 507.876 22511.5
-5058.66 678.191 22705
580.629 1368.82 25082.8
-6212.79 -3914.35 23316.5
-95.6989 -3523.52 26165.3
-7619.6 -3212.1 21524.8
-16.4391 -2406.65 24926.4
-6109.11 -3375.85 22605.9
-2587.53 -3558.61 24892.8
-10210.1 -3204.5 25106.7
-7543.88 -4018.33 22869.5
-7693.2 -3535.82 21865.7
-5732.82 -4514.8 24565.4
268.905 702.124 24633.8
107.268 -811.299 23294.2
282.799 -2983.61 25722
-6371.2 -3961.87 23221.2
-8642.4 -389.57 20846.2
-6146.31 -747.75 21264
-4473.66 -1524.59 21561.2
642.013 -927.666 26574.7
-7308.08 -3983.03 22793.3
-4012.64 -4472.81 25110.1
-4045.2 -1919.07 21980.6
-4118.61 -626.037 21865.1
-1180.47 -1783.06 23563.3
-7250.19 456.611 22000.1
-4298.96 -719.303 21795
-4037.41 -3709.34 24140.7
155.641 -3102.95 25948.5
-191.399 3254.72 26477.7
-6716.1 -3325.77 22163.4
-9724.5 -2333.1 23412.1
-5256.58 -4390.17 24503.7
193.884 647.859 26870.5
-6000.83 -3230.98 22378
-3137.81 -1709.93 22479.1
-8361.71 190.038 21363.6
-6863.76 595.045 22220.2
-3167.06 -585.944 22099.8
-13.295 695.98 24297.9
-7855.28 -4006.75 22389.3
-3145.93 322.944 21969.2
-8635.94 -5689.59 24765.6
-1017.55 -2165.2 24057.6
195.438 -2210.46 24647.2
-9178.53 1270.75 22151.6
-699.788 -4225.96 27319.2
-8987.69 938.558 21841.8
-1341.2 1868.76 25010
-8572.63 -1276.23 20107.9
-3433 1154.89 22991.1
-4926.97 -2105.06 21752.2
-7521.41 -1319.41 20417.1
-536.797 -2538.42 24636.9
-2453.55 392.544 23396.6
-5339.01 889.553 22835.3
-4862.88 1226.64 23284.7
-2787.98 -3057.16 23979.2
-4438.82 1012.2 23033.2
915.404 -1041.24 23997.5
-7629.26 33.7312 21425.1
-380.639 -878.397 23145.7
569.145 -1785.64 24568.4
-4629.31 -1430.11 21487.8
-4378.91 -4098.74 24648.8
-4085.61 1238.4 23556.3
-5006.87 -4007.34 24106.1
-3893.76 -257.579 22008.8
-7462.13 131.615 21925.6
-3050.93 2548.47 24894.6
-1400.49 -4632.8 27477.2
-7591.73 -3336.25 21738.6
-590.481 1364.67 24681
-7192.3 -1889.74 20560
-6949.62 -4636.39 23577.6
-1565.15 -3219.5 25262.2
-4709.23 -3843.93 24012.1
-193.861 -2786.81 25237.4
-3819.12 -1453.77 21810.4
522.33 1475.82 25256.7
-7866.84 -2305.01 20497.2
-2656.97 1793.88 24350.7
-7521.61 -4617.98 23701.6
-4225.49 541.178 22656.7
-10081.8 2839.98 23330.9
-1275.21 1521.68 24589.1
-4167.4 -548.671 21881.9
-4038.85 882.569 23015.6
-7633.63 -3305.7 21758.7
-4161.75 -3756.24 24289.6
327.868 -739.227 23405.9
-3.75606 2904.64 26370.5
-6509.83 -4243.06 23706.9
-6324.83 -2761.87 21786.9
-6092.74 483.193 22365.3
-4863.83 -1464.57 21396.3
-270.214 956.132 24351.8
-5043.2 -1613.45 21371.7
-3950.89 -543.502 21855.7
-1934.19 1213.36 24200.3
-208.581 1271.94 24794.5
-8891.35 -4763.57 23002.7
-1322.67 -2653.72 24342.8
-1210.42 1338.56 24441.1
-2876.14 -3220.45 24218.5
-4090.49 -4492.52 24178.8
-5581.2 -4716.36 24878.7
-8124.37 491.839 21721.2
-8152.88 1211.68 22387.2
1144.14 3.59052 24230.1
-5747.56 -3215.82 22316.9
-3401.25 -1775.75 22317.2
-5822.71 1088.98 22998.8
-3587.93 -1567.21 22073.4
-4061.49 -386.164 21939.4
-5942.4 1675.95 23176.1
-319.806 3471.6 26569.2
-5210.54 -2037.91 21497
-110.949 -3861.79 26980.4
-10701.8 3111.39 23745.5
-5128.65 -1796.01 21524.9
-5886.13 -2974.5 22016.7
-3550.63 -344.667 21775.8
-8912.83 2012.4 24525.9
-6122.91 -1406.45 20538.5
-3882.04 -1836.52 22136.1
-2521.34 -2097.86 23111.1
-2171.38 1826.12 24606.5
210.514 -2521.78 25193.5
-7091.1 -3119.64 21831.4
-4675.62 -3759.98 23979.1
335.685 1673.25 25249.4
-8584.24 -5254.4 23998.3
-5682.01 -5260.29 25935.2
-2321.12 -1479.66 22580.4
-4276.33 1388.67 23008.1
-7105.05 -3386.7 22113.9
-8366.75 -588.735 20523.2
-898.494 1924.37 25131.9
-2564.47 -1659.87 22679.5
1435.09 -1362.92 24439.2
414.79 -618.21 23591.5
-4939.65 -2231.78 21934
-9087.13 150.846 21253
-6295.68 2389.83 23937.3
-8226.31 -1368.05 20206.5
-416.045 -683.286 22991
684.477 700.14 24321.7
-6002.76 -1413.05 20868.1
-8031.35 -5663.52 25592.9
-7510.9 1135.83 22450.3
-1492.77 1630.09 24942.5
-8444.74 495.268 21897.4
0.46872 -2608.16 25004.1
-6071.52 579.309 22404.7
-7299.88 181.278 21835.7
-5496.83 -4654.35 24986.4
-3985.83 -473.123 21766.8
-515.287 -713.56 22946.4
-9081.63 1752.97 22563
-2774.99 -1448.35 22403.7
100.509 -1914.35 28223
-3502.88 -1827.78 22298.1
-4958.22 -4090.14 24080.5
97.1864 760.258 24469.4
-6253.64 599.136 22339
-6475.59 -4059.41 23255.1
-4165.98 1500.89 23526.7
-1984.89 -3516.52 25092
-4744.65 -4394.49 24896.4
-6853.99 1183.17 22770.7
-407.095 -3547.93 26229.6
-4156.08 -4345.95 24980.6
-4872.52 -4182.11 24406.7
-4636.8 1152.02 23200.5
-5014.89 -1620.73 21459.8
-7701.99 -3454.74 21802
-3773.48 -1519.12 21978.3
-2236.51 -215.975 22813.4
-5789.94 -3308.9 22667.6
-6118.42 -2582.52 21653.1
-584.76 3225.41 26364.3
-3129.77 918.125 23340.5
-3919.11 -1152.86 21574.3
-2767.1 1505.15 24194.2
-9.18033 -839.993 23253.3
-41.754 -2522.92 24913.9
-2218.3 491.992 23446.4
-1420.75 -2576.38 24190.6
-3348.53 -3010.68 23787.2
-2873.11 623.494 23387.8
63.5088 1521.17 25031.8
-2550.61 2760.21 25344.3
-8023.47 -1739.77 20100
-7645.99 -3971.19 22395.2
-481.85 -2541.33 24822
-7954.37 -5385.19 24883.4
-8216.83 378.748 21479.2
-2406.32 -2799.54 23757.2
-4595.2 -1417.16 21469.2
-7158.67 -3260.89 21647.3
-2868.67 1686.35 24275.7
-5040.56 -2246.54 21956.8
-550.835 -2848.46 24938
494.644 1773.77 25496
-7598.84 -2498.38 21067.7
-6421.32 2386.76 24131.5
-4357.39 -167.655 22200.3
-5491.64 -3435.07 22946.9
950.248 -806.251 23861.6
-375.645 783.762 24223.9
-8077.08 299.478 21458.9
191.205 1352.22 24959.4
-5159.18 -2395.57 21897.9
-3975.48 -1694.52 21978.5
-4177.75 -4219.45 24882.5
-5092.04 902.961 22938.9
-5832.72 -2758.45 22076.5
-3690.31 -1917.74 22279.4
-3639.4 -566.828 21918.3
-8739.43 -800.074 20414.8
-4338.98 -3767.62 24019.7
-3025.31 -2007.72 22723.8
-9163.9 930.176 21913.5
-4740.45 1288.29 23363.3
-9735.7 2745.11 23361.7
-994.527 -3987.98 26439.5
-3157.52 -647.596 22118.2
-2663.7 -1913.16 22818.7
-185.322 1964.67 25234.4
-2756.15 1225.84 23881.1
-8185.5 -3084.19 21116.3
-5606.41 -4279.49 24017.1
-2452.36 -3440.18 24633.8
-1831.31 1908.21 24890.9
-1132.41 251.976 23469.7
-2897.01 -2009.36 22774.5
-2781.6 1595.02 24206
-10612.5 -1901.79 25765.8
-7938.74 -2100.78 20249.8
-2676.58 -1064.92 22177.9
434.57 -1533.71 24220.6
-3373.35 1584.73 23974.9
-3547.58 -3780.72 24657.2
-4939.3 -2136.16 21693.1
-5342.72 -3383.41 22989
-6187.57 -2836.25 22013.9
-1047.79 906.069 24092.3
141.392 -2705.92 25239.1
-1939.29 1016.3 24177.3
-8995.96 -241.798 20959.6
-1528.62 -4404.84 26469.8
-5087.21 1107.43 23107.7
-4032.46 -2772.31 23098.5
-125.222 1555.89 25051.6
-1255.72 -1813.31 23508.2
-2724.7 -1784.71 22762.5
-9858.6 -1663.68 23592.9
-5851.77 767.623 22568.7
-891.38 -1522.33 23446.2
-9185.73 2068.78 23016.5
-2434.18 -1206.79 22402.8
-38.4004 2889.38 26226.6
-1011.41 1985.84 25254.7
-301.673 -1427.31 23679.9
-7229.23 -1323.88 20436.9
-3909.89 1106.93 23005.9
-1397.56 1408.94 24478.2
-3771.88 1414.28 23671.2
855.759 745.495 24933.6
-645.179 -4751.27 28325.6
-6722.24 762.482 22346.5
-2158.27 -4474.49 26358.7
-5713.19 -3335.19 22761.8
543.093 2040.15 25566.6
-1719.92 -2263.45 23703.4
563.508 -1780.31 24545.6
-9552.99 1986.51 22609.6
-577.71 -558.578 22998.6
-7114.67 2257.26 23620.5
-2743.75 940.724 23768.3
469.56 -830.819 23544.1
-2081.44 -2049.34 23364.2
-2062.44 -1313.62 22694.2
389.804 402.258 24275
-5562.94 -723.76 21378.8
-341.058 3607.4 26805.5
-3926.11 -3436.61 23860.4
378.971 -1627.47 24184.1
-7693.7 -1802.5 20218.7
-6292.17 833.501 22522.5
176.413 -1409.95 23884.1
-5140.65 594.394 22645.6
-6764.53 443.691 22080.3
-4963.34 -4721.41 25019.8
-6475.93 -1257.85 20744.7
-3576.79 -4030.32 25224.7
-9438.38 -2243.1 22628.6
-2557.74 -3377.8 24610.5
-156.388 766.806 24379.9
-7840.18 -5254.14 24830.8
-1498.49 -2679.92 24235.6
-3019 1016.31 23468.3
-8136.23 -2268.42 20590.4
-272.195 2053.37 25407.3
-8581.66 -5268.14 24086
-1851.46 1047.85 24015.4
-3424.52 -3089.27 23758.5
-2937.6 -1453.07 22278.9
-3212.22 -1846.46 22463.3
-1989.72 741.35 23745.3
-7109.64 347.808 21995.2
-4184.25 -1298.48 21564.2
-748.973 -3735.82 26190.1
-10020.5 -3323.74 24756.3
-7151.06 -1484.75 20329.9
-6029.15 -2201.6 21359.8
-3923.9 -99.9313 22017.5
-5554.7 -2604.87 21668.9
-4523.33 2387.07 24453.5
-4144.62 -1270.76 21847.8
-8701.62 89.7044 21253.7
-3396.75 1759.63 24127.7
-5793.05 1515.46 23368.5
-3374.59 690.978 23281.7
-7160.31 307.585 21891.6
-1512.17 -1236.54 22853
-3274.17 -1237.75 22052.1
-5844.8 1397.25 23188.9
-4264.98 -2103.28 22303.3
285.171 -169.424 22794.4
-8480.87 -730.38 20564.3
-1494.75 -3485.11 25562.8
-8044.44 466.063 21687
-3525.81 327.636 21912
252.624 -1685.1 24272.3
937.156 337.604 24315.4
-769.328 3965.6 27023.8
-5216.9 2530.4 24270.6
-2606.73 -1278.47 22309.7
-6320.54 -3578.97 22780.5
-2137.46 -1560.81 22844.7
-2002.26 -1270.75 22591.4
-4252.63 -3311 23590.3
378.552 -1913.37 24490.8
-5552.02 -1763.87 21377.4
-3022.05 539.921 23108.7
-9616.05 -1296.71 22809.8
-7501.16 -4349.21 23195.3
966.188 445.663 24470.6
-4967.03 -1995.82 21687.9
-4698.88 -2923.78 22646
-9511.02 -712.711 22436.2
-750.653 -3488.84 25861.6
-9406.02 -264.046 21877
-2450.79 -2866.68 24148.6
-2519.85 -3468.22 24780.6
-9922.91 -3843.21 24582.3
-7531.42 -1886.55 20337.7
-2708.46 -3207.75 24389.1
-2122.78 -1933.03 23201.4
170.302 -1972.32 24397
-9831.6 2766.14 23282.2
-5160.75 2529.28 24406.8
-7215.61 -2478.39 20964.7
-3540.37 -2907.96 23302.2
-5552.66 462.018 22585.2
253.43 -3430.94 26442.8
1356.96 -1622.78 24690
-6640.1 -3251.41 21920.6
-4861.69 413.151 22518.8
193.463 -3550.29 26405.7
-4375.56 -3321.94 23515.9
-10221.4 -4757.66 25618.2
-1050.6 -2125.68 23934.5
-5584.71 322.584 22458.2
-3274.12 511.852 22390.2
-2213.27 -83.8469 22866.5
168.376 -2739.33 25307.7
-4774.89 -4245.26 24653.2
-6966.53 -4994.03 24488.7
-2866.34 -1875.98 22751.8
251.824 1895.58 25485
-4656.06 -4577.64 25258.6
-10099.5 -686.7 23950.7
-4905.68 1314.92 23374.2
-3005.96 40.5502 22479.5
-8774.61 -5733.96 25025.8
-3630.22 995.51 23631.1
-4327.36 -3028.84 23294.9
-7525.04 435.683 21895.6
-3756.86 -3168.17 23610.8
-2973.36 1591.49 24012.6
-8335.15 -3889.34 21975.9
-1864.53 666.848 23676.9
-1741.13 -842.667 22479.6
11.6788 -3263.77 25875.7
-8494.27 -1685.66 20034.9
-8081.45 350.957 21638.9
-2999.1 896.292 23503.1
-5705 -2677.28 21862.8
1090.34 1167.96 25163.8
-3569.66 -2598.29 23143.8
-5719.98 -1494.45 20913.5
-2494.51 1442.55 24149.9
-3142.72 41.581 22085.5
983.048 -490.807 23673
309.238 -2762.29 25362.2
-1502.24 -1876.37 23416.6
-8087.33 -1462.84 20147.5
9.30147 -2937.6 28902.1
327.484 1733.51 25298.2
-5097.47 920.559 22978.9
1477.37 -114.67 24140.4
-926.348 1549.28 24767.8
-6764.74 -297.041 21458
-7080.99 -3382.64 22066.4
-5325.82 528.754 22633.9
-3569.66 -473.836 21915.5
110.529 298.546 23974.6
-2687.05 -1905.9 22613.6
-5110.5 -2075.33 21695.6
-1186.37 -2156.48 23845.4
-1174.13 -53.6131 23267.6
-3921.95 -505.291 21998.6
790.22 -772.14 23774.3
-2654.7 1062.93 23736.6
-3369.88 -1000.31 21836.7
-3633.55 -2706.4 23029.6
-6061.58 -5240.27 24104.6
-11153.9 3774.36 24321.2
-7563.68 2259.34 23473.2
-1223.27 -4705.45 27801
613.824 1577.84 25255.9
-5489 1539.28 23442.4
87.6523 -1755.22 24278.8
-2608.57 -990.564 22205.5
-7480.93 -1652.08 20479.2
-7875.79 280.944 21710.4
-7624.31 -198.465 21296
-3961.33 -1470.73 21791.7
-5084.74 -2453.93 22059.1
-3248.3 -492.758 22287.5
-687.869 -1653.78 29859.1
-1983.99 -1789.38 23148.9
-1064.08 -4060.82 26701.6
-5139.62 1268.34 23149.3
-4986.12 -3226.26 23023.3
388.74 -1295.96 23888.8
-5207.77 -2016.07 21673.9
-3816.72 1034.11 22948
-957.796 -1847.66 23674
-1036 -3921.92 26162.4
-8479.67 -5692.77 25237.7
-2271.35 -2675.81 23819.9
-14.7711 -3236.83 25859.3
-5980.3 1392.56 23021.8
-2052.23 -2771.78 24048.6
-6154.09 -3270.33 22315.8
-4867.24 -3782.93 23696.5
-3546.47 -2459.17 22956.3
-7468.11 -4030.28 22433.5
-2307.18 -2025.64 23061
-334.952 3777 26980.3
-2991.83 -2392.63 23269.4
-8762.1 -640.759 20622.2
178.697 -3350.05 26164.8
-166.731 -1844.26 24068.9
-5694.39 -3192.01 22586.7
-746.401 1345.63 24558.2
-1925.39 1830.19 24526.2
-4083.47 -1470.28 21729.7
-2800.58 -327.359 22480.5
-7725.7 -4314.6 22739.1
-2502.79 -295.353 22527.8
-4624.87 -2925.38 22816.7
-7121.92 -1011.3 20720.6
-9422.39 -139.444 21916.5
-7512.48 -3241.63 21441
-3503.41 -1114.02 21830.2
-5602.62 -4479.4 24323.4
-6657.02 -3944.42 23038.8
-1254.22 1489.03 24528.8
-6931.81 -2631.63 21308.7
373.048 -2496.8 25168.5
1036.9 -1264.69 24186.5
-2121.7 1863.16 24715.9
-6331.55 -3485.72 22677.9
-2228.13 -197.515 22799.5
-10201.9 -2438.51 24790.1
-4434.67 -4545.95 25277
-1403.86 -2216.14 23748.7
7.58405 1213.73 24814.7
-4226.76 -4274.43 24944.1
-3886.26 -2820.52 23173
-10347.6 -2493.82 25142.5
-4080.93 -3883.5 24443.7
-3019.41 1544.03 24007.7
-5247.13 1540.48 23405.8
-6916.9 770.49 22273.4
-5467.26 -4549.23 24955.2
-8682.51 -4958.78 23372.7
-4261.38 -1739.25 21877.5
-2310.33 -882.851 22220.1
-2257.98 -3216.29 24284.3
-534.454 1477.27 24788.3
546.541 1582.56 25175.1
-2975.77 1449.14 24014.8
-3395.72 -3173.9 23842.3
-3859.38 876.324 23164.5
-6009.25 1501.96 23330.9
-2132.66 -3656.09 25361.4
77.9955 1119.73 24899.9
-3211.16 580.908 23182.8
-6240.14 746.895 22475.1
-5530.64 1385.88 23271.6
-3750.56 -623.035 21908.6
-3984.84 130.88 22066.2
-9430.14 1979.64 22850.8
186.285 634.832 24278
-1342.81 -2454.61 24094.7
-2848.05 -963.122 22018.9
-5647.47 -4434.89 24592.5
-2173.41 -1473.92 22733.6
-1695.16 -2696.85 24251.8
-4840.36 -1292.99 21254.8
-2605.07 -1401.9 22506.1
-4852.47 400.425 22507.5
-8268 135.195 21641.9
-1128.6 -2025.03 23775.8
-3263.96 -2292.41 22944.7
-3785.53 942.883 23176.4
-4546.41 -469.814 21820.2
-4663.51 -2146.36 22000.9
-3907.93 1674.87 23924.3
-3052.02 -3142.45 23800.5
-1197.63 -2182.61 23931.5
-7876.14 -3732.05 21922.2
949.924 -266.63 23693.5
-2210.99 1171.77 24047
-2163.72 -2682.57 23889.7
-3683.82 -2751.01 23094.2
-7242.23 -2655.22 21162.7
-4217.47 -4149.42 24761
-3677.76 -1121.67 21723.2
-6848.31 -3141.46 21625.5
-3884.34 -1897.77 22163.3
-1283.06 -2725.17 24391.7
-8505.71 478.691 21594.6
-3353.4 298.425 22225.9
-4702.56 -375.623 21877.5
-3113.18 1193.56 23780.8
-3502.19 -2285.57 22841.1
-2583.18 -1842.68 22792.4
-2982.74 1296.76 23743.8
-2945.74 -1927.82 22736.4
-3570.13 1113.57 23596.2
-2032.17 1070.21 24241.7
-4689.52 -2019.98 21947.4
-3539.4 968.109 23412
1003.5 -384.908 23683.6
-2929.48 626.71 23542.9
664.438 827.295 24275.8
763.995 505.218 24455.2
-3474.02 -221.696 21690.9
-2455.17 -350.522 22618.9
-6755.37 -1805.05 20591.9
345.873 -1589.38 24114
-2771.14 -1753.32 22722.9
-6869.07 -2025.77 20877.1
-2111.07 -1929.22 23244.6
-2847.41 -1939.68 22782.7
-3922.77 -2135.1 22334.5
-3822.16 -2523.87 22973
323.154 1310.25 25022.3
121.199 761.612 24394.9
-3200.3 386.038 22188.5
-9527.09 2861.8 23621.1
-9083.32 -232.274 20976.6
-3519.67 80.2518 21769.3
-3870.85 -554.132 21960.7
-1129.99 -849.382 22803.2
-3329.38 1267.9 23686.6
-6815.6 -2904.68 22829.7
-1011.3 1567.66 24803.6
-5935.56 -3331.63 22422.4
-7919.68 -4105.33 22490.6
1089.82 97.1802 24840.1
146.11 1130.62 26919.4
919.95 -610.021 23696.1
-9006.31 -385.372 20842.1
-3068.17 -445.452 22257.7
-4320.97 -2966.27 23035.9
-4100.56 1400.53 23504.9
-3695.64 -242.14 21764.4
-1238.49 -2716.37 24399.1
-2872.57 -1834.57 22653.2
-941.111 -780.888 22736.9
1454.2 -829.939 24271.4
-8213.85 -2320.85 20435.6
-3013.33 76.8137 22642
-5588.32 1517.64 23485.1
-3275.37 304.702 22269.3
-346.875 697.322 24373.9
-2613.06 -1371 22372.8
-3159.6 -1361.16 22137.4
745.982 -716.639 23714.1
1481.65 -548.222 24051.1
-3022.34 -529.475 22354
-452.857 -643.464 23018.3
-2227.28 -1283.89 22524.8
-681.316 673.053 24153.2
-3154.68 1445.73 24176.8
-1657.53 -3580.12 25396.7
-4673.13 -2120.62 21939.7
-8329.15 -5402.18 24662.1
-2970.64 -1777.85 22561.2
-7968.71 -5255.43 24486.5
-4645.57 -1793.81 21631.3
-8407.85 -5303.6 24030.8
-4357.42 -1610.71 21664.1
-8123.39 -5185.87 24066.3
-3959.11 -1487.67 21747.9
-2488.47 -3305.01 24495.1
-3128.13 -466.66 22082.8
-8307.52 534.138 21764.6
-5942.79 715.76 22511.3
-1754.07 1533.16 24511.3
1153.58 349.584 24328.3
158.823 402.075 24199.1
-1926.24 1666.79 24655.5
-2925.66 -502.276 22318.1
-4182.35 1678.74 23409.3
-2846.95 618.818 23255.6
-5743.19 -4558.29 24706.4
-3233.79 1648.52 24120
-4676.06 -3514.51 23468.9
-6147.26 663.983 22474.7
-6183.37 -3068.03 22273.5
-6684.93 460.813 22209.2
-7170.14 -3004.65 21609.9
-6967.57 371.946 21982.3
-2304.27 -2036.13 23314.1
-4841.29 1321.49 23394.9
-2876.15 -602.519 22177.1
-9517.59 560.477 21669.3
-3492.26 957.366 23408.1
-4676.7 -4039.9 24445.8
-398.688 -3552.39 25979.1
-4401.89 -3972.51 24467
-5349.89 -4651.7 24996.9
-3206.15 -3309.46 24209.2
-4065.32 -3252.59 23750
-136.085 -3111.53 25794.1
-2583.62 -2984.1 24272
-6987.38 -2997.8 21565.5
-2749.7 -2499.02 23518.8
-1786.57 -2559.26 24034.1
-6065.93 -2638.82 21909.3
-4485.82 -2370.9 22343.8
236.705 -2249.74 24948.4
-4362.47 -1873.81 21852.1
-3586.82 -1564.95 22082.4
-2571.33 -1782.17 22913.2
-7903.35 -1773.61 20202
-4703.22 -1273.33 21364.5
-9123.5 -455.863 20759.8
-3768.15 1018.97 23128.6
-3387.63 916.927 23898.5
-2877.56 1077.1 23920
-598.124 1986.88 25688.5
-194.78 -2761.28 25165.7
-798.541 -3340.87 25783.8
-7117.74 -3395.73 22119.5
-2510.21 -3088.8 24349.4
-2666.98 -3003.78 24205.9
-49.5958 -2852.85 25428.5
-4963.93 -2110.37 21771.6
-959.464 -1581.64 23504.3
101.894 -820.051 23356.3
-2431.45 1142.16 24076.3
-8500.14 1349.04 22259.6
-6751.9 1563.63 22994.2
-10261.6 2486.94 23194.9
-8728.03 -5353.42 23976.7
173.684 -2271.08 24760.3
-8542.56 -2351.14 20184.5
-4248.27 1318.14 23551.8
-7557.01 2450.11 24421.9
-9516.09 1010.9 21999.5
-8660.78 -397.183 20604.5
-3057.26 1319.17 23917.3
-3363.43 -2351.51 23022.2
-245.188 -1583.24 23906.5
-3034.4 139.415 22418
-2544.05 -3224.98 24531.6
-3993.86 -4475.15 24636.8
593.612 -1039.83 23808.1
-1369.98 -3072.15 24803.4
1013.32 -622.882 23761.1
-3565.09 -408.926 22138.3
-3765.07 344.616 21640.2
-2908.01 -493.773 22319.3
-714.755 -281.038 22690.4
-2426.09 -445.796 22542
-3545.47 -698.608 21963.5
-6785.09 -2390.67 21123.1
-366.008 707.966 24195.8
-20.2314 749.112 24369.8
-1456.79 -841.884 22655.7
-1292.79 -826.415 22764.9
-93.3976 740.457 24319.3
-3563.98 972.657 23325.1
-8754.17 143.036 21112.3
-4714.47 -1244.76 21361.5
493.177 1738.81 25713.1
789.609 1045.27 25128.1
-2290.11 1592.72 24540.1
-2131.32 -2157.39 23288.7
-6854.69 -4306.85 23666.5
-6944.89 -2151.59 21041.7
-2633.8 -1333.28 22291.9
-7089.59 -1731.51 20562.3
-975.171 -832.524 22826.6
-8006.72 314.208 21840.9
-3333.73 882.264 23101.4
95.56 -1967.64 24557
-6284.8 -1569.18 20883.7
-1220.39 -2847.73 24795.6
-2889.54 -136.354 22351.3
-1247.56 -2554.32 24423.1
-2114.62 -2300.48 23608.6
357.956 -2146.32 24895.6
-4660.07 -1665.29 21579.4
-3734.95 -2221.18 22568.6
-4463.42 471.127 22648
579.166 796.808 24512.7
-756.878 -1366.89 23389.4
858.779 911.367 25144.3
-3133.56 524.098 22539.1
499.776 1535.19 25486.3
-7852.68 -4497.36 23294.5
-7164.54 -2964.7 21593.1
33.4101 -4033.25 27208.1
-1884.85 -1265.55 22719.7
-2308.63 408.22 23281.8
-971.461 -1752.83 23697.8
-3642.07 -2451.95 22928.5
-7206.49 2312.65 23527.5
-38.011 -2856.35 25337.6
-1426.34 -161.308 23108.8
-9514.5 -892.179 22446.7
374.75 1423.64 25047.5
-6422.09 581.213 22283.5
-3630.18 2578.95 24718.2
-6909.58 899.385 22482.7
-1537.84 -2190.44 23747.3
-4806.48 -3700.13 23778.8
-5517.21 -3198.85 22699.1
-9422.22 -5429.44 24068.1
-2157.53 -2142.57 23333.5
624.46 -1492.28 24230.8
1075.34 -519.355 23732.5
-8179.89 -4578.55 23313.4
7.02223 1386.39 24848.8
-7301.75 -377.186 21152.6
-3536.97 1546.5 23862.3
-5650.08 1515.03 23309.7
-5255.22 -3435.4 23154.9
-3821.14 -2016.59 22313.6
-4164.42 -1930.35 22065.5
-7589.14 133.77 21517.3
-7323.22 -2444.05 20979.9
-7694.96 -3114.59 21295.1
-4439.89 1015.75 23107.7
-7528.76 -1322.89 20313.3
-8181.88 -741.348 20666.5
-4065.92 1162.41 23240.7
-8049.95 -352.913 20971.2
-9119.21 -1014.01 21387.7
1111.09 195.186 24289.4
-7038.95 1206.75 22681.7
-8312.53 -45.8729 21306.8
-9207.73 233.549 21253.6
-6206.99 176.386 21947
-7187.94 -4082.83 22988.7
-6023.39 -3457.34 22825.2
-313.882 -2699.34 25120.4
-4437.65 -2730.47 22722.5
-2549.32 -2239.01 23225.4
-4585.51 -4436.7 25310.1
-3283.26 -225.332 21574.4
-11562.3 2512.46 23823.4
-9356.09 1444.11 22113.4
-2791.16 -423.805 22459.1
-2636.46 364.7 23204.4
-8803.09 441.822 21454.9
-6529.45 -3355.29 22376.6
-6500.76 -3191.05 22211.9
-5434.66 -3224.05 22794.4
431.449 -967.981 23594.6
-5230.38 -2586.14 22142.3
-7356.44 -2417.99 20927.2
-4694.63 -2048.3 21626.1
-2373.54 -2068.25 23195.6
-1998.9 -893.439 22281.4
555.782 -1592.25 24242.7
-10359.3 2658.29 23262.9
-4047.21 -4247.2 25019.4
-7918.87 -3416.45 21639.1
-3068.14 -1348.16 22090.1
1571.02 -206.874 24032.6
-8860.34 532.651 21520.7
-4426.08 1228.49 23407.2
-3998.03 -311.718 21803.9
-6525.32 -2312.08 21202
-8428.59 720.025 21565.9
-1052.8 2964.73 25943.6
-341.08 -4423.06 27639.7
-841.246 -4319.25 27347.4
-5880.44 -5217.48 25818.2
-5004.84 -3544.34 23497
-5666.02 -2710.19 22059.8
-2246.18 -1316.86 22586.9
-6699.18 -1452.85 20561.9
-8011.85 -1781.52 19982.1
-913.103 579.425 23792.9
-3041.22 -3266.45 24302
-8118.87 -4583.44 23289
-8545.75 -4678 22995.8
-3900.03 -3356.74 23805.4
-5274.84 -3388.25 23097.8
-5222.15 -3200.38 22887.8
-3604.93 -2724.76 23248.5
403.86 -1578.83 24129.2
-5166.22 -2978.36 22713.9
-2707.71 -1889.43 22801.7
-7141.65 -2711.68 21179.1
352.833 -444.586 23437.3
-6148.53 -1512.67 20707.5
-3850.81 -638.981 21890.5
603.386 823.299 24592.1
173.043 707.333 24243.4
-6915.77 585.972 22235.3
-8219.99 92.9532 21354.1
-5884.12 1224.62 23024.3
-8541.79 611.331 21704.9
-4009.22 -3940.57 24654.8
-7440.6 -4163.83 22899.7
-172.567 -2059.05 24566.6
-2862 -2266.47 23118.5
-5148.04 -2731.63 22382.2
-47.1893 -956.236 23469.1
-4430.65 -2216.11 22269.9
-5001.13 -1908.89 21659.6
-1551.52 -768.097 22579.3
-1801.08 -801.29 22393.6
-4177.14 -616.822 21798.5
113.292 1104.62 24753.5
-8450.66 -1725.49 19821.7
451.875 1569.69 25195.1
172.186 1509.18 25027.9
-1669.05 954.51 23935.9
-3001.13 1224.81 23748.9
-2796.81 1493.87 24179.8
-8423.13 149.7 21371.6
-4607.81 -4670.8 25518.4
-8609.76 -5631.93 24894
-8588.66 -5375.04 24099.5
-4648.66 -4216.88 24757.3
-4293.71 -3639.97 24074.4
-817.39 -1319.87 23296
-4462.79 -460.775 22063.3
-3915.17 -121.476 22013.6
-3986.48 324.857 22411.5
-7455.25 403.691 21884.6
-4840.75 1397.01 23459.5
-5226.4 1548.34 23364
-5352.42 1544.49 23376.4
-5519.76 -3972.52 23781.3
-1578.69 -2684.72 24224.9
-8851.66 -4130.5 21959.8
-3789.06 -2479.46 22789.8
-2905.63 -1472.44 22404.4
551.448 663.918 24415
-6084.39 442.669 22435
-5358.59 780.937 22735.5
-4974.93 989.801 23024.9
-7163.82 528.723 22009.8
-6880.04 1273.58 22739.4
-6181.11 -3284.33 22400.7
-5985.06 -3158.57 22590
-3455.24 -2106.88 22702.1
922.662 -506.895 23659.2
-4198.7 -1505.96 21866.5
-6043.32 2407 24045.2
-2179.17 -1227.97 22532.9
-7869.19 -1724.83 19982.3
-6528.62 -253.974 21178
-3097.77 1172.89 23719.5
-1386.38 2455.87 25414.9
-7065.3 -5398.38 24995.4
-7797.15 -5164.62 24725
-8318.5 -4917.75 23441.4
-5303.53 -2072.25 21692.8
-4703.46 -3473.34 23737.3
-5626.24 -3315.74 22783.4
-3337.93 -2061.31 22638.2
-2669.03 -1916.22 22863
-4222.51 -1229.66 21518
-165.56 -889.681 23291.8
-3036.74 -489.527 22328.1
-3576.01 -230.822 21872.1
795.637 792.765 24674.2
-8042.45 -4685.53 23416.6
-4250.34 -3307.34 23558.8
-3705.12 -2374.2 22746.5
-2474.43 441.975 23350.2
-8556.96 470.262 21521.3
-8601.74 520.777 21641.8
-5606.37 566.74 22657.3
-9205.87 299.519 21228.4
-5194.71 554.414 22551.6
-274.794 663.148 24156.1
-5962.75 840.529 22661.7
-3881.75 1005.24 22856.2
-8175.17 -2500.01 20531.9
-7069.68 -2354.05 21020.6
-1289.02 -2247.54 23877.9
-3123.76 -3025.85 23850
-5757.65 -2739.92 22016
-4752.32 -3293.28 23272.2
-1909.05 -2242.7 23597.5
-327.047 -1847.91 23991.6
-4104.33 -1644.59 21828.2
-1658.81 -971.956 22606
1063.62 -743.509 23812.3
945.629 -599.584 23681
-3444.27 -259.964 21716.1
-2699.9 -1135.03 22252.9
-897.998 -449.837 23062.3
-7171.86 -2974.62 21619.5
714.722 771.027 24547.9
-3615.5 -472.752 21958.5
-3553.57 -309.618 21694.8
-10312.9 -2848.3 25283.3
-10051.2 -2338.87 24433.2
-8372.01 -1704.74 19900.5
-7363.18 -1284.68 20423.2
-8639.22 -1193.54 20130.3
-5027.98 542.832 22557.7
-8010.79 -270.285 21163.8
-7322.63 317.353 21857.9
-7703.49 -4976.48 24240.7
-9518.39 -5720.62 24596.3
-4151.16 -3192.79 23531.6
-1868.86 -2121.76 23423.8
-5271.19 -3502.94 23310.9
-4811.67 -3259.71 23255.2
-5270.15 -3235.23 23013.4
-3497.67 -2411.17 22769.7
-2003.26 -1802.69 23001.3
-693.363 -1076.72 23319.3
-3561.48 -2237.14 22793
-5178.4 -2901.22 22662.4
-3142.09 -2039.77 22894.4
-6977.2 -2780.61 21606.3
-1479.88 -167.012 23027.2
-4375.27 -1151.04 21449.7
-3179.06 -689.005 22258.4
-7178.26 -1801.23 20454.7
-1413.18 758.33 24081.6
-7750.99 -1485.09 20227.3
-5803.74 -570.017 21448.8
-1376.25 1452.17 24445.8
-9519.04 -2152.07 22911.4
-7206.23 -1049.86 20691.6
-7674.06 -1086.53 20590.1
-5780.22 -210.458 21868.5
-7601.81 -981.899 20655.9
-5357.59 355.553 22753.2
-5557.89 383.034 22433.2
-2259.01 2025.06 24741
-6327.74 114.076 21848.8
-8005.23 -646.078 20892.6
-9095.21 -1121.35 21286
-3198.9 1914.92 21502.8
-5674.08 1053.48 22996
-9309.47 -647.409 21841.1
-6000.95 932.383 22652.1
-8576.17 -116.607 21126.3
-5677.36 1496.87 23269.7
-8153.66 297.708 21645.8
-7115.21 1239.1 22578
-8535.26 694.14 21845.6
-5568.97 2296.61 23808.8
-7906.73 1213.54 22354.2
-9695.88 427.831 22437.2
-9214.59 1023.15 21801.9
-739.292 -3929.1 26599.6
-835.637 -3705.09 26116
-83.2635 -2606.74 25166.6
-5492.95 -4580.08 24794.2
-4869.46 -4015.83 24268.4
-4910.24 -3829.97 23905.8
-3045.95 -2983.5 23900.5
-7554.9 -4932.14 24197.8
-3151.87 -2923.88 23763.3
-3773.33 -3149.29 23570.2
-6415.41 -4126.47 23264.6
-1881.7 -2249.28 23633.3
-4403.92 -3183.17 23249.6
-4942.09 -3385.07 23484.8
334.473 -1104.2 23824.1
-7728.22 -4060.01 22789.6
-6162.91 -3306.53 22669.6
-7016.53 -3537.69 22405.8
-2414.22 -1592.16 22673.4
-3751.37 -2134.14 22482.3
-5220.55 -2628.87 22296.1
-5345.52 -2646.17 22178.5
-7158.59 -3206.4 21989.2
-5432.11 -2364.46 21843.5
-2698.23 -1071.17 22055.2
-3767.27 -1445.55 21774
-6777.61 -2656.36 21482.2
1246.99 549.495 24654.1
986.369 486.395 24768.5
-4326.84 -1042.58 21477.2
-864.658 416.21 23774.6
-5169.32 -1254.8 21039.6
-4373.21 -548.237 21849.1
-3849.18 -299.387 21982.6
-8764.7 -2312.88 20942.4
-6647.49 -1219.06 20954.2
-8770.96 -2143.09 20812
-6661.65 -1015.37 21009.9
-4799.55 -211.452 22267.4
-3813.68 1027.68 22786.8
-6225.03 68.7272 21966.7
-3998.53 1133.6 23115.9
-6171.76 240.233 22202.2
-7960.51 -516.027 20830.8
-3435.3 1685.53 24126.5
-6462.65 582.638 22543
-1585.75 3017.25 25661.6
-6642.3 636.693 22385.6
-2827.01 2772.56 25523.4
-9565.35 -94.7999 22303.2
-8561.82 571.661 21640.5
-8757.89 592.279 21637.8
213.649 -1218.07 23868.2
-6553.4 -3720.85 22945.6
-6184.38 -2813.97 22003.1
-3179.97 -990.629 21916.3
-10031.1 949.648 23150.5
-10232.4 1970.9 23358.6
-2344.89 2066.38 24558.7
-9403.32 77.3692 21920.7
-2425.82 -962.374 22484.1
-8642.1 527.416 21656
-9393.43 1442.8 22148.3
-4024.09 -129.559 21668.1
-480.714 -3311.04 25821.3
-5669.14 -4707.35 24885.6
-3285.66 1425.15 23932.7
-8834.56 -421.463 20718.6
-9065.48 80.8685 21170.6
-7519.81 2342.07 23678
-180.463 -3879.42 26837.5
-524.779 -3903.84 26465.2
-425.513 -3282.07 25781.3
14.114 -2974.04 25516
-3969.85 -4015.15 24747.4
-5560.47 -3824.98 23618.2
-5370.22 -3687.55 23451.3
-3775.08 -2929.66 23375.4
-2622.57 -2498.66 23334.7
-6087.75 -2497.9 21684.2
-8562.82 -149.851 21183.6
-4973.65 1347.84 23419.6
-7121.51 606.998 22202.3
-1180.41 3136.59 26166.4
-9162.14 39.5735 21148.3
-4350.77 -4382.71 25102
-8675.87 -5007.82 23434.3
343.06 -1623.58 24171.4
-1619.17 -829.509 22509.4
315.357 841.048 24362
-6147.67 706.312 22527.2
-5514.45 686.487 22714.8
-5728.26 613.173 22596.5
-564.988 1732.48 24838.9
-698.279 1627.69 24894.6
-2085.45 438.916 23447.3
242.902 800.792 24604.6
155.406 499.956 24257.8
-5337.2 -1329.88 21067.8
-3072.28 -644.332 22073.3
1022.29 593.238 24640.6
1194.8 409.58 24405.8
-8755.46 -393.368 20736.6
-7142.78 -1227.98 20522.4
-5415.24 -970.492 21273.4
-7891.57 289.214 21654.1
-4207.95 -2327.82 22465.3
-8591.72 1068.87 22376.1
-9572.41 -1086.84 22523.2
-4843.05 -983.139 21727.7
-3281.46 -1287.41 21976.7
-8744.9 1183.05 22158
-9688.16 149.197 22486.2
-8149.23 674.501 21891.9
-9294.26 -13.3193 21444.8
-8734.84 -800.454 20410.6
-3381.94 -200.334 21702.3
-7665.66 -2960.95 21290.8
-7807.76 2012.15 23347.1
-9393.12 832.309 21654.2
-8772.69 821.444 21739.9
-9301.03 142.106 21444.4
-8980.21 -450.542 20828.9
-7874.63 60.1796 21486.3
-7116.36 -333.97 21231.7
-8949.73 -1276.4 21069.2
-8189.47 -1216.22 20246.9
-3034.54 -172.072 21871.7
-7678.69 -3109.81 21524.4
-3724.55 -1542.86 21929.5
-9534.2 -4224.79 23485
-3873.39 -2034.94 22047.1
-5588.42 -2849.58 22438.7
-8111.78 -4756.22 23446.6
-4645.73 -3554.91 23702.9
-5377.7 -3849.73 23587.2
47.4009 -2637.09 25276.6
-8478.37 65.1082 21368.8
-8300.26 118.758 21450.4
-7593.97 415.151 21950.2
-6387.56 917.224 22551.6
-7469.71 183.86 21716.9
-7344.08 218.151 21705.2
-5865.23 780.329 22586.1
-7066.9 -39.9641 21610.5
-8471.63 -736.183 20528.6
-4671.96 -188.078 22090.3
-7571.24 -1468.28 20345.9
-6957.97 -1387.16 20483.4
-4511.86 -443.89 21968.9
-4502.15 -758.454 21573.2
-2936.41 -884.388 22019.4
-2351.21 -2699.69 23940.9
-2315.6 -2691.15 23791.7
-8029.51 -5480.98 25051.3
-4281.64 -3782.18 24255.8
-1066.06 -2478.44 24225.4
-4591.24 -4023.91 24314.9
-5476.32 -4947.45 25421.6
-307.188 -3248.85 25830.7
-9167.4 495.745 21586.6
-7863.81 760.71 22035.5
-8068.36 288.619 21559.2
-8222.94 103.915 21491.7
-6063.2 868.055 22633
-6908.06 400.759 22026.3
-8709.5 -555.447 20654.8
-7461.11 47.814 21763.4
-6618.32 413.722 22292.8
-8692.16 -653.472 20591.4
-7279.4 18.5712 21687
-5083.69 1049.72 22776.6
-8638.2 -691.31 20631.1
-5752.36 492.014 22415
-2769.94 1880.27 24435.8
-3926.22 1289.88 23368.2
-5553.73 526.042 22599.7
-5481.15 213.089 22133.5
-5173.32 312.434 22363.4
-5087.83 253.802 22590
-4697.27 332.641 22606.2
-4705.65 256.208 22337.7
-1730.47 1558.01 24463.2
-7022.53 -855.938 20890.7
358.549 2117.45 25660
-946.635 1397.92 24488.3
193.927 1729.14 25330.9
-1411.79 894.788 23850.2
-6832.89 -1556.83 20489.6
-8635.24 -2438.87 20477.2
-7078.62 -1793.99 20456.9
-239.472 967.599 24467.9
-6004.8 -1534.45 20825.3
601.441 955.476 24729.6
-3552.06 -697.365 21841.4
-3216.23 -653.576 22050.9
-4378.87 -1201.28 21522.2
-4026.35 -1157.36 21626
-8219.81 -3010.24 21075.3
-4960.35 -1730.52 21531.9
752.511 469.305 24574
463.449 357.17 24204.1
-4817.86 -1822.32 21579.1
-6889.96 -2832.82 21653.6
-1700.4 -732.927 22539.1
-1872.68 -816.43 22465
-1626.32 -731.225 22498.3
-532.038 -545.43 23143
-942.59 -678.597 22832.9
-2631.08 -2033.76 22957
-8867.85 -4759.31 23029.4
-7794.01 -4326.03 23094.1
63.7068 -1033.85 23489.9
-4429.56 -2909.04 23088.6
-8091.89 -4604.24 23443.9
-3981.96 -2817.69 23090.3
-4585.45 -3192.82 23164.3
-3843.33 -2889.23 23257.7
-4577.53 -3334.79 23540.7
-392.225 -1656.18 23803.8
-7688.29 -4797.21 24026.1
-8004.7 -4972.94 23985
-5155.34 -4015.24 24100.3
-3854.89 -3464.32 23963.8
-202.516 -2001.14 24437.9
-131.441 -2007.44 24403.6
-4945.49 -4226.61 24546.6
-127.02 -2213.91 24613.4
-273.656 -2999.62 25371.8
-686.014 -4499.54 27763.9
-8921.08 1311.9 22450.6
-8658.41 1379.88 22454.7
-8639.87 950.178 22035.1
-8669.71 897.266 21952.8
-8992.73 507.362 21458.8
-7633.61 655.378 22008.4
-6863.87 860.682 22467.2
-8237.12 141.737 21422.4
-8824.32 -182.076 21154.4
-5929.26 1226.05 23035.2
-4876.93 1280.88 23363.1
-9525.54 -1044.64 22390.4
-8391.16 -605.713 20782.9
-6106.89 478.701 22274.2
-8011.46 -585.662 20972.4
-8121.38 -648.845 20831.1
-2411.04 1939.85 24694
-9516.65 -1345.3 22584.4
-5708.61 304.039 22121.4
-5254.85 355.392 22381.6
-7690.38 -1147.57 20472
-3978.6 365.868 22237.5
-4832.9 -110.755 22138.5
507.363 1910.83 25654.2
470.615 865.709 24433.9
-2670.12 -809.632 22196.9
-3508.16 -1309.3 21777.2
-2184.15 -909.3 22302.7
-2107.4 -896.589 22342
-4196.66 -1755.65 21872.5
-3046.52 -1867.67 22507.4
-6112.67 -3303.94 22538.1
-3572 -2310.92 22845
-4791.52 -2903.01 22774
-2675.87 -2306.52 23289.4
-5419.29 -3749.7 23568.8
885.074 -1328 24323.6
-1134.71 -4435.7 27057.5
-4458.61 -1677.6 21984.2
-9652.58 -1491.29 23186.9
-6378.9 -1098.83 20864.8
-4055.07 911.599 22859.6
-7119.95 -1222.53 20645.6
-7104.65 -2056.89 20705.9
-3842.63 -1340.8 21727.6
1191.05 61.0547 24178.4
-3375.94 -1665.7 22216
-4684.78 1092.86 23052.1
-9813.59 -1090.59 23399.9
-1816.78 1678.44 24559.6
-4804.22 767.38 22903.4
-8635.33 -1026.83 20285.3
-9715.69 -1680.75 23222.6
-6747.48 -1649.39 20600.7
-8959.52 -2537.81 21506
-7913.89 -2784.95 20991.1
-8729.45 -5347.25 24050
-7098.06 2290.96 23642.6
-6205.6 -779.758 21187.5
540.764 1975.33 25479
-6890.01 -1278.21 20650.2
-7373.76 -1606.19 20095.4
-2548.52 -2133.91 23045
-9788.39 233.03 22756.1
-9807.1 -162.258 22847.7
-8990.37 -605.709 20851
-9437.06 -863.823 22213.4
-4986.12 995.161 22982.9
-9211.07 -903.847 21518.7
-7526.99 -740.472 20832.8
-4550.15 439.596 22666.2
-6980.46 -702.306 20957.3
-733.688 1304.14 24568.3
-6513.25 -1574.39 20648.3
-4892.09 -1379.7 21423.2
-5185.17 -1907.57 21548.9
-2932.07 -1477.22 22227.2
-3475.47 -1697.2 22211.1
-4400.94 -3506.7 23659.4
-8728.42 -5234.96 23918.8
-7433.75 2121.87 23293.8
-6321.47 1040.9 22672.1
-6328.8 722.399 22449.1
-4108.87 1037.97 22916.8
-9458.19 -1405.3 22476.2
-1449.2 1909.88 24712.4
-1445.48 1825.91 24755.6
-7929.13 -1035.36 20501.1
-9540.15 -1860.72 22796.7
-974.321 1148.5 24313.5
-6826.4 -1617.03 20569.4
3.62101 1074.23 24705.3
-3972.79 -522.247 22114.1
-4208.63 -1142.19 21437.1
-6979.21 -2863.16 21601.5
-5077.04 -2324.48 21993.5
-8146.72 -3852.11 22193.9
1576.07 -435.647 23875.4
1041.89 -683.46 23801.4
-10740.4 -2257.89 26269.3
-6646.52 -1405.92 20576.4
-3779.13 -364.696 22109.4
-8465.64 -2460.22 20412.8
-6786.71 -2045.57 20855.2
-4488.03 -1179.2 21346.1
-3112.23 -1226.12 22009.1
-4434.92 -2217.53 22206.9
-4573.08 -2352.94 22265.8
-5134.12 -2654.45 22320.1
84.9792 -690.169 23341.7
-3919.2 931.846 22868.2
-9739.22 -1378.63 23229.4
-7438.27 -868.011 20767.2
-3811.1 486.611 22178.4
-8537.95 -1740.83 20025.7
-4653.22 -603.128 21733.4
-6661.38 -1482.28 20582.8
-3527.19 -411.489 21803
-3847.32 -567.922 21995
-6971.53 -1987.42 20688.1
-219.202 653.68 24122.5
-8177.11 -2656.98 20750.1
-3780.67 -991.445 21694.5
-4417.09 -1454.34 21492.6
-4461.6 -1855.41 21849
-4166.01 -1853.07 21981
-10150.9 -4513.04 25484.6
-2235.29 -1332.97 22556.4
-4680.33 -2362.99 22286.7
-7858.44 -4815.69 23697.4
-8904.82 -5658.57 24710.1
-7380.35 346.195 21914.9
611.103 1222.02 24978.2
-3414.02 1690.43 24245.2
-4361.82 -4361.46 25321.1
-3956.22 -3780.88 24475.4
-2997.52 -3703.15 24898.1
-3834.2 -3512.1 24125.3
-4889.92 -3524.32 23552.5
-4726.99 -3512.54 23774.2
-4141.92 -3389.94 23775.9
-2325.55 -157.016 22775.3
-5683.12 -3286.83 22717.8
864.215 1069.44 24953.6
-4945.2 -3201.53 22996.2
-2572.06 -3071.39 24199
-7874.22 -3234.79 21616.2
-7038.11 -2655.85 20956.4
-5158.29 -2635.54 22255.5
-7186.08 -2706.29 21304.3
-4935.48 -2358.26 22024
-3917.81 -2177.9 22546.8
-6863.15 -1927.9 20624
-7678.57 316.654 21695.4
-6705.36 -1909.62 20788.6
-8297.39 115.2 21334.6
-7233.83 -1961.63 20714.6
-8520.23 253.099 21379.5
-848.456 -1352.31 23364.6
-8328.41 322.466 21402.4
-2226.06 -1337.1 22715.4
-2792.5 2668.88 25083.3
-3706.81 -1148.09 21729.5
-7820.36 736.091 22013.7
-705.861 -940.239 23016.9
-7264.86 2236.46 23530.3
1124.02 -495.691 23708
-1787.23 -3467.05 25119.5
-8846.9 40.1665 21121.8
722.719 430.493 24565.5
-9328.02 128.968 21346.3
-9374.51 459.42 21513
-3495.15 1575.96 24327.5
-7840.98 2677.34 24584
-1860.41 -1862.96 23386.8
-8257.25 -5052.31 23942.6
-667.745 -1452.84 23406.4
-4402.7 -4253.76 25012.3
-3899.95 -2297.27 22703.2
-4157.76 -3765.36 24343.3
1546.33 -707.875 24069.4
-4548.03 -3643.22 23969.9
-5272.19 -3284.94 22981.5
-7144.77 -3177.98 21835.3
-4026.23 -2953.15 23321.7
-3665.79 -1408.26 21820.6
-1476.68 1595.44 24546.1
-1053.3 -779.651 22765.9
-5226.21 450.946 22545.6
1582.23 -348.964 23822.7
-2490.57 1427.55 24133.6
1618.21 -360.814 23902.8
-4119.52 -593.671 21793.3
-3001.68 -1245.55 22169.9
-4698.55 -382.596 21856.6
-3300.19 448.52 22272.9
-6639.31 756.931 22404.9
-7166.74 196.599 21671.1
-6847.03 785.347 22426.8
-3444.81 548.74 22319.6
-835.588 556.225 24302.9
-3239.59 803.665 23571.3
-88.0331 948.845 24503.9
-3029.72 886.097 23528.9
-9575.54 880.87 21842.7
-9617.16 975.824 21864
-9513.32 997.151 21909.7
-8045.81 -5495.21 24918.8
-3990.15 1418.8 23570.1
-2659.84 -3415.01 24551.7
530.264 1695.88 25394.9
-8271.86 -4664.45 23231.1
-7410.51 -4209.42 22960.5
-5390.36 -4199.22 24250.5
-3610.32 -3066.89 23587.7
-6182.77 -3204.22 22442.9
-4802.37 -3079.17 22949.2
-3241.34 -3092.67 23992.2
-2284.84 -2879.5 24209.4
-3915.28 -2897.94 23339.5
-3750.36 -2135.47 22553.8
-2196.97 -2839.33 24269.3
-6218.67 -2593.51 21681.7
-3658.35 -2464.47 22987.2
-7367.19 -2419.91 20929.9
-3456.41 -2216.89 22796
-8168.19 -1666.85 19777.7
-6609.22 -1504.86 20718.3
-810.338 -859.266 23052.4
-7469.41 -938.316 20556.2
-4321.19 1576.01 23743.8
1605.89 -430.708 23878
-9104.69 -726.538 20742.8
-3153.02 -119.365 22007.1
-3130.12 314.901 22991.7
-5364.23 809.047 22771.8
-673.052 -3361.48 25707.4
-2240.94 1090.6 24089.5
-8216.27 -5502.56 24817.6
-2803.77 1404.44 24220.4
25.6444 1640.03 25213.8
-5470.02 -4815.13 25259.1
-5791.45 -4484.8 24396.1
-7779.78 -4687.73 23734.4
-1953.83 -3644.23 25469.3
-3979.1 -3681.52 24431.9
-2846.66 -3273.41 24311.8
-3426.78 -3307.05 23777.5
-8016.9 -4591.83 23207
-2112.92 -1387.43 22693.7
-3981 1417.24 23386.8
-6589.5 547.956 22230.3
-6297.89 -4028.55 23301.2
-2793.01 2593.15 25090
-1311.58 -1781.44 23383
-3897.67 -1446.02 21863.8
-2575.82 1036.16 23786
-6236.2 1353.27 22994.4
-1320.4 1280.32 24376.9
-4384.84 -4537.4 25201.8
-6055.85 -2014.81 21154.2
-4406.4 -1894.67 21943.6
-3721.91 -1535.65 21992.4
-7082.19 -320.482 21302.5
-6764.25 -1946.72 20760.1
-7714.71 -2907.9 21302.3
-7244.71 -1662.31 20537.9
-3398.96 -1921.11 22298.3
-4458.03 -1458.37 21489.5
-4396.81 2515.54 24566.4
-977.783 -811.998 22894.2
-3088.09 -25.5885 22315.6
-4637.45 742.027 22779.5
-716.796 -839.935 22888.1
-527.628 -3556.6 25922
-4553.53 -4129.11 24450.3
272.112 -824.662 23482.1
-266.498 -3467.03 26189
-1463.59 -3496.49 25388.3
-3766.55 -3573.07 24135.1
505.847 -616.11 23497.6
297.416 -2957.67 25502.5
629.123 -514.569 23509
-5101.32 -3617.54 23350.2
-3549.37 -3241.17 23734.1
-1428.15 -2888.99 24550.4
-4262.37 -2112.73 22225.2
-1903.37 -2831.39 24149.2
-3853.1 -2128.08 22239.3
-7943.61 -2215.45 20470.9
-6606.86 -1434.67 20277.7
840.025 1410.52 25214.2
250.886 -1566.57 27777.3
-3943.81 -220.528 22027.9
-3024.1 -4.65365 22254.5
-192.191 -3467.6 26052.9
-6858.29 -3822.22 22362.7
-6651.94 -3685.81 22207.6
-671.47 -3112.98 25379.8
-8572.24 -1476.11 20063.8
-6809.8 -3570.93 22199.4
-7737.93 -1034.83 20575.9
-562.289 -2746.04 24865.2
-2347.12 -2864.08 24084.9
-6154.4 867.451 22613.2
-3701.06 -2682.2 23007.7
-6602.15 838.865 22419.6
-2093.61 -2485.21 23667
-5444.38 -2561.64 21820.4
-7867.55 -4088.81 22592.4
-6751.55 -2666.99 21288.1
15.9189 -1095.5 23447.8
-6641.75 -2521.52 21205.8
-6030.14 -3179.35 22464.1
-5541.38 -2305.22 21450.5
-3039.36 -1927.1 22637.9
-4614.55 -2192.72 21970.3
-4416.9 -2160.24 22024.1
-1975.53 -1271.79 22666
-3911.57 -2117.37 22282.4
-1997.26 -1268.32 22619.2
88.936 -2492.21 28405.5
58.5387 -915.507 23470.9
-972.044 -838.728 22830.7
30.5663 -608.718 23303.7
-4301.44 1170.19 23200.8
-3035.23 -93.0124 22221.2
-5103.47 909.018 22954.8
-547.58 -1623.47 29536.3
-3873.64 -3579.55 24167.1
846.883 -211.349 25737.7
-3609.48 -1277.85 21895.4
158.372 826.407 26946.9
-9313.44 -3490.26 22698.8
167.075 896.062 26873.2
-5188.91 -1490.44 21275.7
74.8641 -3894.77 26921.1
-3813.59 -4149.07 24884.8
-6830.24 -4414.51 23389.8
-476.332 -3440.73 25814
-6949.89 -4238.47 23040.6
-95.4519 -4181.01 29462.7
-8321.73 517.677 21754.6
-6814.38 -3275.17 21909.4
-8834.35 306.533 21292.2
-3527.56 -2873.59 23338.6
-1797.79 -2661.19 24041.1
591.122 -2270.87 25049.6
-4556.17 -2684.27 22522
-4981.07 -2634.93 22090.8
-3265 -2461.74 22977.9
-5066.42 -2314.47 21978.9
-3294.52 -2356.9 22820.4
626.587 -1932.92 24609.7
45.9393 -1759.33 24116.6
-2466.84 -1936.76 22889
-2349.17 -1940.93 22993.5
-313.93 -1732.1 23940.9
-9201.41 904.707 21986.4
-235.358 -1732.84 23988.9
-3112.71 -1814.11 22428.2
-751.586 -1329.79 23292.1
-179.979 -2939.29 28921
174.619 1312.74 25026.1
-5765.45 -1469.32 20825.1
93.1946 -2544.92 28467.7
-513.532 -2800.43 29998.6
69.9814 1378.28 24790.3
-696.825 -742.06 23098.8
-66.5647 2076.4 25675.2
156.401 -680.054 23398.9
-7796.55 2715.1 24101.1
718.714 -594.324 23661.6
-461.773 -3332.3 25682.1
-2759.77 -279.5 22505.8
-1425.19 -3604.46 25622.6
329.136 -739.282 27152.2
-2818.63 -3204.29 24203
-3241.54 1158.89 23318.4
-3973.14 -3659 24210.2
393.254 1256.26 26157.2
-5582.65 -4329.44 24356.4
-2684.55 -3579.23 24734.5
-4083.96 -3557.36 24087
294.292 -2988.03 25618.1
-6778.66 -3488.91 22065.1
-2095.56 -2864.99 24047.5
-934.26 -2676.09 24464.9
-4914.66 -3031.79 22609
-4360.22 -2898.82 22775.4
523.505 -2436.52 25164.8
-5208.04 -2837.23 22129.2
-2921.72 -2568.28 23285
-1261.05 -778.752 22768.2
703.788 -2254.11 25070.4
-2041.69 -2117.42 23311.1
-1424.1 -2103.21 23711.3
157.893 -1961.22 24493.1
-9250.72 3.66897 21184.6
828.791 569.49 24520.4
502.971 -1614.28 24116.5
-2665.61 -524.02 22215.2
-1245.07 -1847.77 23621.2
-3445.21 -722.855 21936.3
-843.462 -1663.32 23533.8
-2335.32 -1528.63 22594.7
-3657.12 -439.231 21876.4
-6588.27 -1776.52 20478.1
-5950.61 -1377.88 20793.6
-2291.74 -1528.57 22750.8
-3406.42 -273.164 21705.6
-2328.68 -1322.38 22451.3
-5508.05 -1147.83 21013
-2797.34 -1282.51 22165.5
-7933.52 -1973.32 20243.9
128.632 -1027.49 23384.1
-7358.79 -1667.88 20347.6
98.8648 -2463.64 28317.6
135.391 -1955.81 27860.3
-437.127 -2036.22 29449.5
-183.914 -1558.69 28818.1
-209.851 -1436.77 28659.2
-2990.12 -11.6925 22302.4
-4831.58 446.445 22437.4
406.239 -658.545 26965.6
240.323 -754.923 27284.7
124.941 -342.858 27414
-5753.16 209.661 22181.8
757.389 203.458 25766
-6118.25 115.5 22084.6
813.4 506.813 24567.2
-1706.64 326.119 31053.1
-2358.14 -3240.01 24423.4
-2152.87 -2797.06 23709.4
-5949.72 -3055.81 22220.7
-6521.1 -2644.44 21285
-5711.21 -2302.96 21388
-7549.5 18.1231 21679.8
-715.95 -1809.98 23791.8
-7364.04 316.97 22022.5
-6469.22 -2031.05 20796.4
-706.322 -1456.06 23342.7
-3551.3 -1457.14 21886.6
-8596.94 370.395 21461.8
-2618.89 -1272.31 22262.4
-8614.14 427.201 21548
730.831 -962.993 23923.1
-8882.26 304.41 21369.3
299.277 -2115.14 27860.9
-4659.59 -1546.1 21430
682.259 -587.945 23599
636.058 -974.217 26543.5
-2946.01 -139.634 21787.1
1072.06 -43.1445 25124
1028.84 -138.958 25507.2
-71.8127 -890.361 28122.2
1018.22 -20.2675 25377.9
-986.038 -1629.73 30807.3
380.069 -400.113 26796.9
114.433 -362.183 27531.4
-7136.06 -4501.15 23485.6
47.4551 -3226.5 25823.1
-3719.31 -3665.15 24205.5
-5330.19 -4347.75 24413.1
-2373.43 -3407.67 24676.6
-3095.4 -1173.02 22055.4
-4580.1 -2856.62 22623.6
-6561.84 -3073.28 21822.6
-3378.01 -2539.09 22968.5
-7530.67 -536.076 21070.4
-3782.95 -3296.3 23867.7
-6776.15 -2331.34 20909
-4345.36 -3417.05 23574.9
-4285.42 -1967.68 21778.8
-4001.45 -3234.9 23628.3
-3698.74 -1915.52 22077.3
-75.3894 -1352.3 23727.2
-8418.09 -1254.56 20185.1
-6303.07 -1377.88 20510.9
531.947 -1302.86 26786.3
703.151 -1196.66 26741.1
-473.626 -1852.82 29537.4
1212.63 -259.065 24917
10.0181 -957.445 28096.4
1040.23 -29.1721 25235.8
-70.9874 -546.955 28108.8
-3162.9 699.291 23053.2
395.249 -586.905 23503.3
512.206 458.7 26092.7
-3541.82 -2146.74 22586.8
154.75 194.255 27216.6
-4614.1 -2338.45 22310
-1351.11 -651.157 31465.7
148.62 511.462 27169.2
-3663.65 1121.69 22976.9
744.759 1230.09 25409.8
613.747 1242.94 25702.9
-532.906 -3427.83 25751.8
-3592.96 -3059.96 23473.4
-5.49184 -2292.93 24691
-3316.46 -2147.71 22595.2
-262.154 -1978.98 24287.5
-2344.27 -2010.23 23020.3
769.004 598.589 24812.9
-28.0766 -2934.2 29101.6
-2954.14 -661.218 22259.2
338.97 -827.39 23651.4
-8170.6 -2832.66 20947.8
-532.722 -2563.63 29987.9
-7439.03 -68.8187 21313.2
-2739.79 -135.937 22506.8
900.211 -356.762 25637.3
-3443.7 -680.05 21953
-247.417 -973.6 28692.4
-8591.45 -2831.11 20698.7
900.835 720.083 25218.2
813.338 854.094 24843.8
-5022.8 -1253.78 21083.2
-2477.43 1052.07 23701.4
-5403.13 -1302.37 20985.4
587.049 1308.8 25582.4
-43.8084 -3858.52 26886.2
-1482.39 -3389.52 25280.7
409.652 -2935.25 25626
-1854.21 522.298 23560.7
-180.93 -2154.81 24326.4
26.879 1609.76 25028.2
-4561.72 -1827.71 21338.8
-7161.56 -1442.4 20482.9
-3540.82 -1884.48 22213.8
-36.4396 -3269.84 29032.2
-6101.36 -1488.84 20650.2
-2845.84 -167.882 21992
-5173.06 -250.2 21930.8
-3176.89 468.673 22656.6
-1513.4 -360.364 31418.7
-4576.09 -1683.5 21438.4
-1895.6 -1284.97 22543.5
-4735.42 -1435.29 21410.1
-1081.07 2011.73 25060.7
-3083.38 -78.7164 21797.2
86.1298 -627.11 27745.2
419.016 546 26380
-5066.81 -3310.29 22780.2
392.918 -2406.05 24948.2
-110.452 -3746.18 29398.7
-3180.33 191.047 22387
-1101.1 -76.9021 31268.5
-152.825 2159.81 27300.7
-1334.29 -3075.06 24786.8
590.09 -1009.45 23782.8
-3975.76 -3651.47 24002.5
1319.6 -674.967 23945
1088.32 -376.547 25271.6
-183.515 -4325.81 28766.7
-9510.69 -106.514 22162.9
-5242.05 -3169.03 22930.7
-7511.48 896.257 22453.1
-107.448 1368.02 27368
-7705.04 846.635 22224
571.406 480.941 24315.2
-213.257 -3128.07 25655.2
-4789.5 -4121.67 24332.6
-2596.61 -3051.43 24125.4
-6088.5 1095.48 22831.3
-6117.29 -3859.6 23148.7
978.183 -640.875 23795.9
-5169.02 -1700.67 21426.3
-5004.35 -3237.18 23001
-7633.67 1163.93 22337.8
-4396.63 364.981 22429.6
-4169.5 -2871.86 22993.5
-1892.93 -2818.35 24108.1
-3711.43 -3474.82 24020.9
-6258.47 -2400.81 21397.3
-10030.3 -4910.51 25126.5
-1975.96 -2274.84 23672.2
-10306.6 -4140.93 25555.2
-782.993 -861.028 22975.8
371.614 -1850.73 24603.8
-1459.9 1587.71 24580.6
-10637.7 -2245.77 25973.7
732.438 1330.21 25352.9
232.303 1196.1 24714.5
496.581 758.219 24473.8
-3443.74 2493.46 24793.8
-4441.28 -4568.32 25291.1
-2725.46 -1363.03 22415.3
-5357.62 -4817.61 25128
-4357.17 -4254.03 24775.1
-2211.79 -2710.43 23857.9
-4301.95 -3308.74 23492.5
-5861.32 -3982.24 23595.6
436.218 1096.87 24873.9
-7133.48 2255.88 23635.7
488.872 -1244.68 23818.4
-1366.79 1184.69 24304.7
-3241.98 -1157.12 21788.2
-5281.35 973.934 22893.4
-4071.69 -4043.58 24668.6
-224.225 -1684.07 23895.6
-8447.54 -5113.7 24049.1
-2500.56 -2007.53 22894.4
-4595.1 442.716 22662.9
-100.64 -966.733 23474.6
-7369.58 408.52 21989.6
-612.589 1529.6 24790.4
-3939.85 -1543.52 21842.4
-4705.91 973.802 23189.5
-4402.33 -2330.48 22459.6
-5986.48 -4735.92 24632.4
-8058.72 -3633.49 21858.4
-3761.92 -2303.94 22611.3
-10400.6 -1554.77 24992.7
-7462.37 -2669.65 21110.7
-7440.68 172.475 21556.3
-404.216 628.201 24314.2
-2732.34 -1815.99 22712.3
174.568 -1387.09 23884.8
-9768.45 -4995.69 24691
-1110.01 -632.69 22741.5
-6056.54 -1929.03 21129
-3797.14 899.037 22880.7
-11510.8 -1297.93 28082
-3132.25 2479.73 24773.8
-5703.62 661.492 22544.5
-7835.31 2132.88 23214.7
-6802.3 616.464 22271.3
-176.743 -1252.27 23609.8
-3666.89 -2930.92 23470.1
385.253 2078.07 25630.5
-3354.37 -2864.3 23535.1
-36.7851 -781.681 23251.6
-8160.31 164.671 21510.9
-4964.77 -3467.5 23521.8
-337.506 -868.215 28893.5
-9855.6 -5088.8 24811.6
