-8174.56 -5135.87 24028.9 0.327817 -0.824162 -0.461836
-2853.8 -2280.8 23102.4 0.360301 -0.647547 -0.671466
-4875.36 1314.88 23357.5 0.0933546 0.755625 -0.648318
-6733.62 -1941.68 20774 0.368108 -0.540848 -0.756294
-610.427 1834.13 25116.7 0.24779 0.709597 -0.6596
-4769.25 -2953.17 22733.3 0.294196 -0.757269 -0.583088
-9172.05 517.883 21556.4 -0.0454507 0.633397 -0.772491
-5750.47 -4262.93 24042 0.333557 -0.802761 -0.494282
-4583.76 -477.607 21876.2 0.0311199 0.54264 -0.839389
-7351.94 -1939.55 20481.2 0.35899 -0.353896 -0.863646
-5072.65 -3955.57 24024.9 0.34356 -0.75226 -0.562202
-3814.05 -4148.11 24885.5 0.285025 -0.798354 -0.530463
-3082.5 1259.53 23814.6 0.265914 0.603386 -0.751808
-2481.49 -2887.07 24160.4 0.263073 -0.775656 -0.573717
-8699.75 120.828 21228 0.191519 0.583336 -0.789329
-7897.51 -4084.3 22551.2 0.299905 -0.791907 -0.531922
-4824.63 -543.487 21773.3 0.114374 0.598347 -0.793032
-1419.16 -161.641 23051.8 0.260645 0.551395 -0.792482
-4679.11 -1271.5 21346.3 0.3056 -0.281937 -0.909461
-8496.17 -1755.47 19941.3 0.0765891 -0.233557 -0.969322
1237.77 543.033 24617.8 0.272934 0.705816 -0.653705
-3273.5 -3178.2 23925.5 0.342373 -0.736869 -0.582928
-6067.37 -1636.74 20970.2 0.288805 -0.529868 -0.79739
-3518.81 -2243.13 22802.3 0.344424 -0.670729 -0.656883
-4717.53 -430.145 21904.4 0.0677546 0.587886 -0.806101
-4970.14 -3211.15 23007.7 0.318506 -0.771403 -0.550901
-6887.31 381.011 22027.1 0.23194 0.606276 -0.760679
-1544.12 -4373.54 26487.3 0.266562 -0.852488 -0.449676
-3369.25 1588.76 23991.5 0.24301 0.634708 -0.733547
-6646.45 -987.221 20966.9 0.269864 0.515561 -0.813246
-2980.21 1700.9 24177.4 0.238411 0.651602 -0.720121
-4656.82 -1858.83 21744.4 0.394819 -0.610843 -0.686286
-8540.13 -680.473 20547.7 0.113921 0.643896 -0.756584
-3363.64 -2007.96 22543.2 0.361834 -0.729756 -0.580115
-7398.31 115.392 21705 0.236315 0.676836 -0.697171
-2472.02 -2227.85 23273.1 0.361598 -0.654103 -0.664377
-2054.79 1104.67 24108.7 0.255548 0.635694 -0.728415
-8179.88 -5134.58 24022.6 0.327817 -0.824162 -0.461836
-2255.43 2037.3 24724.9 0.235968 0.626289 -0.743021
-4808.33 -3654.34 23766.6 0.353725 -0.764075 -0.539508
-6882.24 1211.41 22718.4 0.187286 0.626977 -0.75619
-137.789 -2953.31 28935 0.854814 -0.390238 0.342064
-3733.48 -2136.97 22488.1 0.378764 -0.749046 -0.54357
-5838.54 -3990.79 23581.2 0.323881 -0.787455 -0.524419
-7325.87 -2049 20538.9 0.339823 -0.549689 -0.763127
-1624.37 -3605.8 25422.4 0.310667 -0.772615 -0.553671
-9059.21 133.627 21189.4 -0.106667 0.573236 -0.812418
-27.0653 -1001 23426.3 0.415371 -0.510634 -0.752808
-6119.74 719.827 22501.3 0.203395 0.584393 -0.785567
-6488.02 -2389.58 21116.6 0.335421 -0.651326 -0.680637
-3082.15 -613.588 22125.1 0.488986 0.101656 -0.866348
-2581.84 -1681.34 22650.7 0.330376 -0.601064 -0.727718
121.246 744.097 24402.8 0.200211 0.644596 -0.737842
-5567.65 359.434 22445.2 0.195145 0.614596 -0.764323
-5188.52 2454.23 24385.9 0.154702 0.672516 -0.723733
-5441.86 -3221.17 22818.3 0.295635 -0.741385 -0.602451
-639.382 -3140.82 25351.8 0.325427 -0.746526 -0.580342
-4153.88 -1466.24 21706.9 0.389727 -0.491945 -0.778526
-2896.87 -523.332 22371.6 0.33994 0.497116 -0.798321
-8761.5 -5658.42 24893.7 0.0454674 -0.918529 -0.392732
-8207.8 -1371.95 20169.2 0.259408 0.345435 -0.901877
131.944 1127.1 26914.3 0.91122 0.246305 0.330168
22.8627 1112.49 24675.8 0.212048 0.64559 -0.733654
-8758.5 629.082 21653.4 0.163868 0.683378 -0.711437
-3053.37 404.853 22937.9 0.624846 0.638697 -0.449036
-6021.62 -3184.82 22437.2 0.305345 -0.756607 -0.578195
-5644.63 -5035.67 25577.4 0.272088 -0.848916 -0.453111
-6130.45 -3269.23 22501 0.376752 -0.737705 -0.560223
-7516.76 -1309.31 20405.7 0.33729 0.39012 -0.856762
-8000.49 -524.409 20924.1 0.194557 0.644382 -0.73954
-2783.84 1474.06 24147.5 0.275396 0.626371 -0.729258
-9077.27 -6.19713 21124.1 -0.048682 0.548897 -0.834471
-7843.85 731.541 22024.2 0.263343 0.552584 -0.79076
-7600.63 465.715 21889.3 0.259797 0.601376 -0.755548
960.844 444.999 24465.2 0.317778 0.68816 -0.652267
1007.5 472.211 24553.5 0.423377 0.662572 -0.61786
-4816.87 -3042.35 22914.2 0.325542 -0.783561 -0.529201
-2945.5 1456.02 23989.5 0.259494 0.60905 -0.749481
-4605.62 785.608 22880.3 -0.0205197 0.619921 -0.784396
-6216.22 660.666 22449.6 0.192839 0.577827 -0.79305
-3094.65 -3047.64 23852.4 0.366556 -0.730708 -0.575937
-7689.18 -3476.03 21842.2 0.320505 -0.712667 -0.624005
-1477.66 -3385.7 25302.2 0.309532 -0.758399 -0.573603
-5284.39 1518.23 23381.4 0.228491 0.76014 -0.608259
-5311.91 -4534.29 24800.2 0.247415 -0.835844 -0.490051
-7438.85 -1545.18 20227.5 0.409872 0.116127 -0.904721
-6974.93 -3637.11 22329.9 0.3407 -0.754619 -0.560779
-346.481 1913.16 25328.7 0.226219 0.726079 -0.649334
-3819.33 -2935.9 23365.4 0.237651 -0.769264 -0.593089
-5157.78 648.256 22672 0.0721033 0.584048 -0.808511
325.791 -1124.99 23785.5 0.431542 -0.527491 -0.731795
-4883.17 -4198.1 24458.7 0.325337 -0.787831 -0.522951
-3816.83 -3529.09 24078.7 0.27141 -0.775815 -0.569603
-3716.67 -616.164 21926.2 0.0470677 0.159744 -0.986036
-6120.9 -1580.35 20917.1 0.25323 -0.440256 -0.861422
-4169.55 -3604.92 24002.5 0.239872 -0.798926 -0.551524
401.021 -953.628 23644.6 0.458147 -0.486857 -0.743688
-3454.34 -312.743 21719.6 0.0364112 -0.258749 -0.965258
1336.35 -1588.62 24726.1 0.409706 -0.643276 -0.64679
-4372.54 -1846.72 21902.2 0.372011 -0.620725 -0.690151
-4870.58 -1634.05 21461.4 0.313503 -0.523947 -0.791956
574.371 759.09 24515.6 0.365853 0.631877 -0.683289
-7695.77 -3187.36 21525.4 0.323153 -0.700768 -0.636
-10610.9 -1901.54 25766.4 -0.931945 -0.11076 -0.345269
-307.558 -3158.21 25735.5 0.373393 -0.787172 -0.490855
-2989.46 -2724.23 23562.9 0.370381 -0.73131 -0.572716
-6488.39 -1248.99 20768.1 0.253317 0.422071 -0.870452
-759.284 -1395.45 23401 0.322295 -0.60135 -0.731098
-3028.72 -55.2672 22311 0.913599 0.287707 -0.287336
-8727.85 -5337.99 24033.4 0.234166 -0.872109 -0.429641
-498.201 -2596.28 24853.3 0.36283 -0.681324 -0.635729
670.677 759.601 24590.5 0.409903 0.659881 -0.629711
-6712.07 -3556.12 22285.5 0.365484 -0.743086 -0.560575
-5592.9 -4332.41 24322.9 0.307462 -0.818959 -0.484535
-6672.14 -1451.05 20618.8 0.294286 0.128945 -0.946979
-4306.29 -3329.6 23565.2 0.269596 -0.773341 -0.573814
17.0505 -2550.36 28488.3 0.947527 -0.216816 0.234913
496.052 -646.594 23532.8 0.422584 -0.430124 -0.797757
376.377 1425.47 25067.8 0.283378 0.575178 -0.767377
-3933.76 1258.59 23351.4 0.333953 0.827548 -0.451265
-8972.27 -5756.88 25013.6 -0.0710532 -0.935112 -0.347155
-8627.17 976.583 22080.8 0.154316 0.668676 -0.727364
-7267.49 -2678.25 21175.9 0.361278 -0.666426 -0.652192
-8315.45 541.041 21728.7 0.222137 0.631099 -0.743216
-1987.78 -2017.1 23360.1 0.372962 -0.652885 -0.659273
-1905.75 -2789.59 24168.4 0.300017 -0.792326 -0.531234
-2942.6 -3715.63 24887.8 0.324728 -0.784263 -0.528662
-335.072 -1839.19 24021 0.356706 -0.702461 -0.615881
-3295.73 -1113.45 21890.4 0.412231 -0.0489636 -0.909763
-10252.5 -4765.97 25593.9 -0.827958 -0.489591 -0.273469
1171.39 49.5283 24179.1 0.2955 0.675907 -0.675152
1405.71 21.1838 24219.7 0.507146 0.628205 -0.590052
-8659.86 1375.08 22460.2 0.161249 0.680307 -0.71497
-1518.76 -2738.44 24334.4 0.36251 -0.733754 -0.574623
-3846.98 2565.1 24791.5 0.210107 0.674909 -0.707356
-4196.9 -1331.66 21610.9 0.39503 -0.452832 -0.799309
-2433.61 -1369.47 22492.2 0.398243 -0.513822 -0.759862
114.029 307.486 23963 0.20045 0.659927 -0.724097
-200.676 1354.78 24838.8 0.275146 0.592918 -0.756798
-326.737 1908.37 25321.9 0.226219 0.726079 -0.649334
-8996.36 -418.679 20833.5 -0.0973551 0.576521 -0.811261
-8128.72 1091.93 22218 0.166813 0.659332 -0.733114
-762.218 1296.89 24540.3 0.278563 0.572463 -0.771161
563.495 492.554 24298 0.318108 0.655717 -0.684721
-4017.03 -2810.32 23080.3 0.316791 -0.740865 -0.592251
-5806.15 -4662.05 24613.7 0.286683 -0.833361 -0.472571
-1047.77 -3893.26 26177.3 0.340899 -0.79326 -0.504506
-2649.81 -2441.63 23384.8 0.338062 -0.687395 -0.642808
-9894.73 -5147.77 24800.3 -0.694822 -0.558919 -0.452583
-6522.91 -575.269 21211.8 0.21966 0.60542 -0.764994
370.677 -1611.45 24139.1 0.372344 -0.668038 -0.644271
-288.678 -3800.93 26533.1 0.294577 -0.797903 -0.525904
-3918.84 -1770.5 22023 0.365959 -0.528033 -0.766326
-3104.69 -1189.3 22019.1 0.403667 -0.281473 -0.870532
-1216.78 1341.57 24438.9 0.201615 0.626652 -0.752767
-7001.75 369.268 21987.2 0.230422 0.608749 -0.759164
-5370.89 782.072 22761.7 0.167104 0.529122 -0.831929
-3705.07 -1118.92 21748.9 0.362446 -0.117963 -0.924509
-2724.84 -359.497 22519.4 0.477359 0.301781 -0.825261
-304.494 -1559.88 23769.2 0.353389 -0.642793 -0.679657
-3546.62 -715.786 21905.6 0.22959 0.164825 -0.95923
-2532.86 -333.496 22563.8 0.429008 0.425004 -0.797072
-4705.84 221.442 22391.3 -0.021638 0.586736 -0.809489
-7103.08 360.616 21977.2 0.228093 0.607231 -0.761081
-4876.37 -3869.83 23933.3 0.355735 -0.749529 -0.558264
749.262 -1300.35 24083.9 0.413515 -0.581144 -0.700911
-5924.73 2439.74 24210.1 0.202476 0.680095 -0.70461
-7968.93 -570.832 20872.6 0.194295 0.644165 -0.739798
-410.669 -2742.48 25068.4 0.315477 -0.671419 -0.670574
-3648.62 2531.58 24771.2 0.230957 0.664305 -0.710885
-7681.54 109.756 21568.5 0.239298 0.689675 -0.683436
-674.309 -3369.29 25654 0.3682 -0.784085 -0.499639
-2339.58 1820.06 24540 0.249264 0.613999 -0.748915
-3817.79 -2695.54 23018.6 0.318218 -0.684802 -0.655579
-7762.18 -1624.74 20123 0.327766 0.0668842 -0.942388
-4395.11 -2982.58 23049 0.35491 -0.776541 -0.520598
-3464.29 -651.223 21941.9 0.34852 -0.118888 -0.929731
-5234.37 -3174.19 22904.1 0.305992 -0.758546 -0.575306
-3814.55 964.454 22926.1 0.306197 0.888803 -0.340986
716.994 -595.693 23607.6 0.39524 -0.421439 -0.816195
-8669.81 -4987.6 23389.7 0.324023 -0.805155 -0.496723
-5347.35 503.215 22651.1 0.124391 0.557553 -0.820769
223.563 -1684.82 24209.1 0.338408 -0.719319 -0.60668
-5267.02 1334.94 23782.2 0.221634 0.7585 -0.612827
-7836.78 329.925 21701 0.264118 0.612325 -0.745184
1593.41 -390.067 23925.2 0.31979 0.348689 -0.880994
1545.9 -478.81 23892.2 0.33038 0.191205 -0.924278
-4922.03 -3370.45 23304.9 0.36895 -0.756913 -0.539406
-3090.12 -3046.61 23853.8 0.366556 -0.730708 -0.575937
-4113.6 1376.22 23428.3 0.202632 0.799457 -0.565516
-4512.51 2436.07 24409.1 0.146965 0.677793 -0.720415
-2325 -2676.95 23792.6 0.29289 -0.757352 -0.583638
-4574.36 -2335.37 22192.7 0.380349 -0.662359 -0.645457
-2720.45 -1217.26 22221.2 0.430498 -0.454112 -0.780035
-522.806 2170.06 25530.5 0.234697 0.673736 -0.700712
-556.35 -669.524 23011.9 0.43023 -0.49733 -0.753369
-9061.74 -1118.59 21301.5 -0.893587 0.00938721 -0.448793
-1429.69 829.969 23930.4 0.194742 0.6589 -0.726586
-7173.2 166.007 21773.4 0.202194 0.656547 -0.72668
-2989.59 36.301 22520.2 0.817909 0.42329 -0.38968
-8801.03 409.929 21467.9 0.125669 0.680801 -0.721608
-2715.97 -1319.82 22293 0.420275 -0.48187 -0.768876
-7737.97 -126.319 21272.8 0.212572 0.641893 -0.736741
-6191.38 1014.68 22719.1 0.174232 0.622122 -0.763287
-974.511 1375.84 24509 0.220492 0.623613 -0.749993
-4456.72 -415.248 22005.5 -0.00565 0.520756 -0.853687
645.014 -972.194 26547.6 0.946611 -0.0200563 0.321754
-4770.56 1095.2 23125.1 0.0417612 0.7121 -0.700835
-3526.87 -2244.81 22799.5 0.344424 -0.670729 -0.656883
465.465 1313.63 25022.7 0.321518 0.559695 -0.763786
210.872 -1943.06 27894 0.969118 -0.138464 0.204053
-4701.96 -3548.16 23759.1 0.342395 -0.772703 -0.534505
-7965.68 -5262.1 24483.7 0.317544 -0.868714 -0.380135
-6892.12 -2310.12 21040.5 0.293886 -0.63206 -0.71703
110.561 773.77 24425.8 0.193155 0.663741 -0.722592
-4880.21 1316.58 23357.3 0.0933546 0.755625 -0.648318
-2088.01 2609.97 25196.2 0.237738 0.639956 -0.73071
-7190.5 -2848.84 21476.1 0.343468 -0.691859 -0.635107
-4289.25 -1829.67 21914.5 0.35474 -0.587956 -0.726958
-7994.98 -2491.39 20666.8 0.170675 -0.67786 -0.715106
-6335.23 -3407.43 22589.6 0.407422 -0.759344 -0.507351
-3713.64 -2169.44 22548.9 0.389497 -0.739496 -0.549033
-10272.5 -4136.84 25568.5 -0.88495 -0.252267 -0.39144
-7680.74 -1971.5 20357.4 0.37427 -0.443753 -0.814251
-1287.73 -1794.96 23496.3 0.366956 -0.634822 -0.679959
-1071.38 -3932.78 26200.7 0.341831 -0.799092 -0.494575
-431.495 -3877.81 26603.9 0.288325 -0.825174 -0.485753
-1465.9 1544.48 24558 0.166332 0.660739 -0.731954
-4774.45 -2020.09 21838.7 0.355898 -0.650924 -0.670548
-585.196 -680.421 23006.4 0.436915 -0.498222 -0.748919
-2743.33 -1801.95 22697.7 0.354406 -0.619609 -0.700344
-7780.52 -4359.3 23075.5 0.293542 -0.815922 -0.4981
-4356.07 -1370.99 21539.7 0.408612 -0.40866 -0.816109
-3720.26 -1107.62 21733.4 0.376368 -0.087597 -0.92232
-2605.72 -365.349 22526.7 0.413273 0.475444 -0.776633
538.57 463.459 26103.7 0.910168 0.230238 0.34436
-3929.25 -535.985 21988.9 0.111277 0.145016 -0.983152
-7180.34 -4079.49 22928.6 0.28351 -0.814315 -0.506472
-6967.84 503.756 22096.3 0.234923 0.608646 -0.757866
-2807.49 -214.316 22508.5 0.51736 0.341252 -0.784784
-2374.35 -1275.39 22466.6 0.397948 -0.462063 -0.79255
-8220.87 -1353.42 20186 0.259408 0.345435 -0.901877
-1565.11 -2216.09 23725.6 0.381036 -0.654274 -0.653251
-9376.74 1400.26 22167.3 0.105248 0.632319 -0.767526
-6377 912.535 22568.6 0.183713 0.600287 -0.778399
-1342.68 1758.14 24826.7 0.214101 0.695921 -0.68546
400.31 -953.537 23644.1 0.458147 -0.486857 -0.743688
-440.594 1670.95 24953.5 0.256079 0.699121 -0.667572
-6238.41 -3228.23 22352.7 0.408856 -0.729022 -0.548966
-10399.2 -1554.56 24993.2 -0.930848 -0.119502 -0.345312
-3293.53 -3008.33 23761.6 0.338174 -0.747209 -0.572116
-2584.43 -967.251 22193 0.347635 -0.199633 -0.916131
-9316.34 121.632 21365.7 -0.366732 0.594477 -0.715615
-8255.66 296.139 21509.8 0.229217 0.643633 -0.730202
-2365.91 -2846.53 24094.7 0.251184 -0.7866 -0.564062
-6047.35 2392.13 24058.4 0.238078 0.695522 -0.677914
-4014.54 -2809.23 23080.1 0.316791 -0.740865 -0.592251
-5055.51 -2452.49 22088.2 0.323824 -0.678483 -0.659393
-1813.46 2137.61 24940.5 0.246225 0.641246 -0.726758
-952.658 -831.383 22850.5 0.400351 -0.558598 -0.726421
-4529.16 -2042.1 21938 0.382226 -0.625363 -0.680312
-102.17 -3317.49 25948.5 0.355642 -0.79195 -0.496321
-2999.8 -172.847 21824.5 0.743149 -0.155358 -0.650841
-3662.04 -3234.99 23738.3 0.295279 -0.749819 -0.592099
-4957.53 -2357.6 22046.8 0.330114 -0.66615 -0.668782
-1230.95 -1889.64 23622 0.365716 -0.643524 -0.672405
-2293.02 -844.024 22260.1 0.332413 -0.00654106 -0.943111
-3590.45 -1308.66 21843.2 0.34019 -0.4481 -0.826727
511.573 1697.23 25334.1 0.362563 0.640013 -0.677445
-4017 -1468.3 21773.4 0.367145 -0.486578 -0.792746
-5741.5 -4564.45 24625.4 0.286683 -0.833361 -0.472571
-4594.86 477.456 22619.8 -0.0243418 0.614126 -0.788832
-4453.36 -1814.83 21825.9 0.379829 -0.607587 -0.697544
-334.492 1908.63 25333.1 0.226219 0.726079 -0.649334
-6318.57 -1528.11 20597.1 0.252263 0.304431 -0.918524
-2471.05 -931.876 22275.3 0.389962 -0.285288 -0.875523
-683.83 -3722.44 26279.9 0.333155 -0.803274 -0.493719
-3879.62 982.655 22856.7 0.202829 0.795833 -0.570534
-5078.91 -3309.13 23045.6 0.321636 -0.769492 -0.551754
-5364.35 -4667.02 24998.2 0.252244 -0.849461 -0.463453
-3957.33 -4060.94 24700.3 0.253455 -0.767081 -0.589362
-7668.93 648.229 21996.3 0.264991 0.586644 -0.765264
-78.4891 820.077 24417.2 0.190421 0.651617 -0.734258
-8032.52 -4525.18 23232.7 0.326089 -0.805659 -0.494551
-6853.3 -1883.79 20663.3 0.359722 -0.4722 -0.804753
-4660.06 -4550.3 25243.4 0.249365 -0.856703 -0.451527
325.876 -1124.97 23785.5 0.431542 -0.527491 -0.731795
-5361.3 -3345.4 22965.7 0.315422 -0.754034 -0.576144
-2129.81 -2492.71 23653 0.332054 -0.690907 -0.642174
-3772.95 -3350.66 23857.8 0.295058 -0.752327 -0.58902
-2303.93 -2138.97 23248.9 0.372988 -0.652589 -0.659551
-5273.77 -3308.55 22983.7 0.315964 -0.758366 -0.57013
-3850.02 -3427.23 23934.5 0.277442 -0.775875 -0.566608
-4853.77 400.93 22536.3 0.0318601 0.588821 -0.807635
-6524.06 -1177.16 20818.1 0.257819 0.493216 -0.830823
-7536.65 -1331.77 20395.6 0.33729 0.39012 -0.856762
613.506 1250.76 25691.3 0.832311 0.546026 -0.0954701
988.568 -1473.11 24507 0.404537 -0.642687 -0.650618
-1158.74 -26.983 23233 0.251063 0.569346 -0.782823
-2817.99 -1717.06 22572.7 0.372394 -0.617685 -0.692667
-2653.17 -2898.8 23962.1 0.314779 -0.779961 -0.540902
-4945.25 -3537.72 23495.7 0.370823 -0.764796 -0.526857
-5741.89 -3942.94 23586.8 0.336251 -0.779362 -0.528706
-5525.57 1448.46 23215.2 0.210825 0.718645 -0.662647
-4528.41 -1881.54 21839.1 0.405957 -0.61531 -0.675717
-1228.68 -2605.47 24387.8 0.376251 -0.717075 -0.586719
-4169.26 -4379.4 24597.7 0.220166 -0.806126 -0.549261
-2778.47 -1460.45 22397.9 0.385366 -0.565814 -0.728936
-2828.64 -989.049 22084 0.255784 -0.0270235 -0.966356
-3879.34 920.958 23180.9 0.307887 0.884448 -0.350652
-4111.79 -2201.98 22385.2 0.328782 -0.714465 -0.61761
-3354.77 2373.22 24684.6 0.230642 0.665326 -0.710032
-7679.2 -1043.91 20559.3 0.221577 0.589711 -0.776624
-3682.07 -2133.79 22529.1 0.381961 -0.738057 -0.556217
-4724.54 -1474.21 21457.3 0.359215 -0.472572 -0.804761
-3511.29 993.974 23398 0.444578 0.767584 -0.461698
-8428.37 -5256.57 24056.1 0.317972 -0.854762 -0.410213
-674.595 1631.09 24882.7 0.257916 0.696342 -0.669766
-2855.95 1715.08 24299.9 0.233647 0.658932 -0.714995
-516.037 2366.88 25742.2 0.258344 0.63379 -0.729088
-2314.35 -80.0472 22873.3 0.328182 0.62021 -0.712486
-7340.73 -2436.9 20938.3 0.354412 -0.626402 -0.694271
-294.122 960.214 24450.5 0.225474 0.638533 -0.735824
-7090.66 -1776.45 20515.7 0.327284 -0.432082 -0.840351
1274.42 -1673.97 24810.5 0.396957 -0.666456 -0.63108
-8844.5 495.543 21513.3 0.128525 0.685234 -0.716893
302.935 -2973.4 25640.9 0.327744 -0.775374 -0.539795
-4096.94 -3380.19 23759.3 0.278503 -0.755745 -0.592693
-4905.03 -2205.82 21946.4 0.315128 -0.66039 -0.681601
615.538 324.611 24151.8 0.300449 0.662849 -0.685829
-4628.34 1159.04 23230.5 -0.00208842 0.726768 -0.68688
-1983.55 744.152 23730.3 0.20071 0.654287 -0.729125
-6369.72 703.432 22484.5 0.193156 0.577499 -0.793212
-1287.92 -2671.22 24414.7 0.376251 -0.717075 -0.586719
-3097.63 -1307.48 22121.1 0.395227 -0.476336 -0.78543
-2476.96 -2956.91 24244.1 0.253261 -0.764952 -0.592205
-9064.55 346.943 21344.9 -0.112801 0.663283 -0.739818
-6802.72 -3432.82 22102.3 0.368972 -0.687164 -0.625832
-2489.59 -3562.03 24853.3 0.304499 -0.786575 -0.537196
-128.18 -2207.04 24624.2 0.340511 -0.701961 -0.625542
-6493.3 -1375.19 20687.2 0.26094 0.36247 -0.894721
885.019 -199.95 25753.2 0.940186 0.138134 0.3114
-7494.83 960.017 22392.6 0.268639 0.615366 -0.741052
-9775.53 -789.194 23147.8 -0.935002 -0.123895 -0.332297
-3993.78 -1171.64 21629.7 0.410263 -0.395275 -0.821853
-3011.71 -550.188 22256.8 0.678498 0.135786 -0.721944
-3134.2 -1367.62 22129.5 0.391911 -0.510901 -0.765105
-8895.7 -4751.61 23009.4 0.316498 -0.803509 -0.504185
-5532.11 2463.29 24453.2 0.170329 0.671861 -0.720827
1308.35 -1566.94 24701.1 0.409706 -0.643276 -0.64679
-1803.66 796.94 23826.5 0.182399 0.658228 -0.730388
-7199.27 -1035.28 20672.8 0.268994 0.556477 -0.786115
1017.85 566.77 24652.6 0.438932 0.678983 -0.588491
-2572.8 -1383.72 22477.5 0.390553 -0.544688 -0.742148
-7479.02 359.146 21849 0.242466 0.607052 -0.756769
-1930.11 -1076.44 22581.8 0.385377 -0.499356 -0.775969
-6485.18 1269.54 22902.6 0.193593 0.634193 -0.748546
-2308.77 1200.32 24001.8 0.280914 0.63368 -0.720789
-2135.62 1081.81 23975.7 0.25351 0.640592 -0.724827
-5848.25 -3924.96 23501.1 0.326146 -0.770324 -0.547932
-1231.58 -2880.19 24753.8 0.357298 -0.755817 -0.548706
-8003.99 2826.85 23811.5 0.192377 0.662565 -0.723877
-2107.58 -1816.07 23050.2 0.392214 -0.642829 -0.657981
-1540.35 1019.58 24058.6 0.177359 0.655613 -0.733972
-1412.64 -2094.77 23688.2 0.363765 -0.654982 -0.662324
-154.075 -3821.41 26633.8 0.267925 -0.818553 -0.508121
-3276.38 -2430.39 23008.6 0.322703 -0.627552 -0.708549
-6851.32 -2031.54 20849.7 0.336759 -0.565407 -0.752933
614.278 -1888.12 24653.7 0.358193 -0.693063 -0.625588
-8079.53 291.05 21579.2 0.241563 0.625626 -0.741781
-9169.15 961.105 21881.6 0.151629 0.638676 -0.754388
-3266.59 -1287.78 21980.2 0.385445 -0.461605 -0.79897
-3963.21 -3753.96 24355.1 0.259412 -0.759699 -0.596291
-1450.66 2753.32 25566.9 0.255531 0.632929 -0.730825
-299.425 1986.53 25465.7 0.210851 0.725432 -0.655202
-8372.33 -4052.85 22199.6 0.317635 -0.774491 -0.547057
-7418.12 2093.51 23302.8 0.184334 0.652167 -0.735323
-496.814 -3415.69 25838.7 0.373113 -0.784355 -0.495555
805.273 -435.048 23600.2 0.385565 -0.424968 -0.818988
-7844.18 2094.44 23258.9 0.18371 0.661014 -0.727538
-2791.42 2598.14 25084.9 0.218201 0.653917 -0.724418
-9190.3 367.277 21369.8 -0.160405 0.664599 -0.72978
-2838.43 -1256.73 22207.7 0.431444 -0.451212 -0.781193
-3524.71 -388.561 21833.7 -0.191093 -0.208677 -0.959134
-6592.12 -2702.17 21569.1 0.332131 -0.697875 -0.634554
-7971.44 -2056.11 20307.8 0.282686 -0.526608 -0.801731
-2549.53 -1853.32 22841.2 0.331775 -0.653986 -0.679873
-814.352 1999.57 25259.8 0.213461 0.735409 -0.643123
-7598.42 -4282.86 23080.4 0.290383 -0.814517 -0.502235
-89.9485 -3121.59 25756.1 0.336121 -0.799307 -0.498127
615.538 324.611 24151.8 0.300449 0.662849 -0.685829
-7473.87 -3098.31 21499.5 0.345892 -0.702171 -0.622346
-6679.12 482.681 22198.2 0.21795 0.604209 -0.766439
-4261.24 -1727.38 21842 0.363262 -0.539524 -0.759576
-3062.99 -3150.21 24027.9 0.37937 -0.722292 -0.57825
350.725 -431.119 23362 0.423569 -0.371593 -0.826141
-9893.37 -2484.66 24062.7 -0.931296 -0.120816 -0.343643
12.3978 2957.39 26300.1 0.366807 0.671626 -0.643716
179.18 -1413.65 23878.8 0.364199 -0.616352 -0.69819
-5229.96 -2708.11 22270.6 0.347892 -0.678263 -0.647249
-4598.25 -1641.96 21497.7 0.356781 -0.489378 -0.795749
-48.3491 -968.244 28070.7 0.950716 0.0450035 0.306778
-6717.28 1482.13 23031 0.195836 0.621634 -0.758432
-7857.2 -3279.94 21575.5 0.321306 -0.703392 -0.634037
-1071.45 -2739.78 24670.4 0.370119 -0.733431 -0.570168
-6292.89 2304.33 23815.1 0.217929 0.694161 -0.686037
-7553.76 -1860.79 20385.2 0.423873 -0.322705 -0.846282
-1680.13 -2717.92 24206.5 0.35583 -0.735497 -0.576566
-138.065 937.035 24489.6 0.183881 0.659206 -0.729133
-99.8652 713.632 24292.9 0.175127 0.661692 -0.729036
-8925.06 138.421 21174.1 -0.0127362 0.540274 -0.841393
-2000.06 -1285.07 22657.7 0.400688 -0.503841 -0.765241
404.364 -1996.49 24630.4 0.305307 -0.706507 -0.638463
665 373.137 25830.5 0.939852 0.221487 0.260044
-2527.99 -1983.16 22925.5 0.331108 -0.666294 -0.668147
-7543.58 -3130.52 21521.9 0.334192 -0.70491 -0.625634
-5093.55 351.78 22467 0.0711038 0.591871 -0.802891
-5737.87 -2257.5 21443.9 0.380029 -0.610577 -0.694819
-2507.83 -3513.26 24759.3 0.309463 -0.777663 -0.547242
-8745.11 -1837.8 20600.6 -0.66012 -0.329165 -0.675197
-5178.04 -265.514 21949.4 0.172633 0.635092 -0.752898
-3134.28 -1739.97 22437.4 0.404396 -0.616666 -0.675416
-2676.17 -1897.45 22843.1 0.329947 -0.650845 -0.683766
-7079.62 -270.271 21335.5 0.192574 0.66994 -0.717005
-9119.56 206.906 21242.5 -0.152114 0.595799 -0.788597
-3183.25 127.277 22141.9 0.693387 0.588552 -0.415717
-3351.16 817.17 23195.5 0.455799 0.774086 -0.439361
-8207.86 337.336 21569.1 0.234559 0.642016 -0.729929
-6597.05 -1131.61 20862.6 0.248814 0.495541 -0.832184
-7111.26 2284.57 23615.3 0.21543 0.670511 -0.709933
-392.02 -2040.69 29461 0.945382 -0.211204 0.248284
-5196.8 2316.69 24190.3 0.151734 0.669382 -0.727258
68.3081 -2692.41 25220.9 0.323007 -0.693479 -0.644014
-432.897 673.115 24173.3 0.220978 0.676865 -0.702156
-6372.19 -3966.77 23207.8 0.329205 -0.746086 -0.578775
-3258.12 1477.61 23913.1 0.252996 0.629803 -0.734399
-8219.63 -3010.67 21074.9 0.169833 -0.708798 -0.684662
-8861.54 -613.683 20688.6 -0.480769 0.320782 -0.816063
-4349.76 -2275.6 22362.4 0.343017 -0.674506 -0.653744
-5393.78 1506.05 23283.1 0.222802 0.733939 -0.641633
-4775.77 -3285.66 23255.9 0.347941 -0.765395 -0.541394
-6436.59 667.514 22426.1 0.214975 0.574346 -0.789882
-5431.82 1517.09 23415.3 0.215944 0.743211 -0.63325
-3578.71 -1571.27 22067.3 0.347834 -0.541683 -0.765239
-3092.43 -3045.5 23851.4 0.366556 -0.730708 -0.575937
-9205.29 -903.02 21520.8 -0.905016 -0.0603159 -0.421079
-4072.89 920.576 22877.5 -0.0300998 0.694342 -0.719016
-9526.35 -2152.86 22909 -0.93739 -0.111505 -0.329949
-3589.75 -2783.37 23198.5 0.278745 -0.725844 -0.628849
-1984.85 -3666.52 25485 0.306882 -0.806288 -0.50569
-3826.86 -621.147 21880.1 0.104079 0.318614 -0.942153
-9265 -5008.7 23407.7 0.0359761 -0.883719 -0.466633
-5698.72 1190.12 22973.4 0.196521 0.641951 -0.741133
-2324.09 1050.08 23845.1 0.289641 0.636949 -0.714426
-4403.63 -3182.47 23409.3 0.32614 -0.758656 -0.563981
-163.766 797.286 24358 0.197578 0.659528 -0.725249
-4789.46 -133.633 22181 0.0923568 0.605561 -0.790422
635.768 -928.904 26571.9 0.946611 -0.0200563 0.321754
-3387.76 -1814.1 22312.4 0.378281 -0.631202 -0.677117
-7916.28 -1974.53 20236.2 0.300952 -0.477495 -0.825485
-4278.87 -4036.04 24607.9 0.264203 -0.770594 -0.579984
-367.447 -2428.27 24745.1 0.34274 -0.688372 -0.639275
-2683.78 -589.645 22292.8 0.306359 0.511434 -0.802857
-3412.71 1755.96 24157.2 0.241078 0.643411 -0.72657
-3178.17 -2380.59 23001.5 0.316194 -0.643153 -0.697407
-9174.59 1280.53 22139.6 0.107837 0.63232 -0.767166
-409.655 -657.033 23068.8 0.413278 -0.397098 -0.81946
995.029 202.746 24237.6 0.359212 0.685875 -0.632884
-7270.64 -838.779 20811.4 0.240313 0.589005 -0.771571
-3743.9 1043.07 22922.6 0.342081 0.899883 -0.270538
-8154.13 200.845 21493.7 0.240135 0.623309 -0.744191
-6997.72 2174.81 23415.1 0.208074 0.671118 -0.711552
-3383.85 -2038.09 22598.8 0.35267 -0.737795 -0.575572
342.219 1157.23 24858.1 0.295939 0.630144 -0.717871
-8751.63 315.072 21401.1 0.189827 0.642111 -0.742738
-2429.27 -3393.8 24647.5 0.316794 -0.755311 -0.573713
-3080.02 -517.323 22008.5 0.527917 -0.560222 -0.638322
183.167 -1398.6 23868.3 0.369617 -0.594991 -0.713701
609.144 713.775 24501.9 0.368846 0.622861 -0.689925
-3692.62 -2935.94 23390 0.246524 -0.773988 -0.58324
-4855.39 -1453.51 21371.8 0.330104 -0.469253 -0.819044
387.576 -2881.41 25661.3 0.310929 -0.775841 -0.548993
-6633.46 -1720.72 20583.4 0.328228 -0.332903 -0.883992
-6365.86 -3369.12 22472.6 0.412454 -0.727311 -0.548544
-1116.31 3164.62 26139.1 0.268745 0.625316 -0.732636
218.671 -2557.78 25158.6 0.314845 -0.696928 -0.644332
-8177.5 -2654.63 20752.4 0.101064 -0.694716 -0.712149
-2148.4 -1268.08 22604.4 0.390567 -0.485425 -0.782189
-2687.4 -2933.82 23964.1 0.324327 -0.769154 -0.550649
-2477.12 -3286.37 24511.7 0.326843 -0.717276 -0.615377
-7759.86 -1507.13 20213.9 0.321212 0.225238 -0.919832
-3108.73 59.5089 22081.1 0.767703 0.491953 -0.410626
-2084.5 -2816.29 24054.2 0.258932 -0.800619 -0.540336
-2152.8 -2829.88 24089.1 0.258932 -0.800619 -0.540336
-5073.76 2393.27 24311.7 0.143345 0.675564 -0.723233
-2117.56 -1947.92 23228.5 0.372324 -0.665176 -0.647237
-8638.54 540.548 21635.7 0.206531 0.660079 -0.722247
-490.105 -3296.97 25687.4 0.374701 -0.783464 -0.495765
408.174 -1493.26 24012.2 0.386823 -0.630614 -0.672825
-3223.13 -2066.65 22713.6 0.336407 -0.708624 -0.620228
-5013.95 -2251.19 21943.1 0.317959 -0.657386 -0.683188
-6226.66 92.7852 21988.4 0.211544 0.675246 -0.706606
-4327.29 1078.62 22941 -0.0893139 0.735535 -0.671573
-5139.05 -2233.1 21857.1 0.342892 -0.645483 -0.682478
-200.678 1354.77 24838.8 0.275146 0.592918 -0.756798
-2293.83 -1558.69 22671.7 0.357151 -0.56172 -0.746266
-204.353 -3434.91 26072.4 0.358008 -0.774946 -0.520854
-3096.73 139.219 22428.8 0.857167 0.406744 -0.31595
-1987.81 783.168 23769.8 0.209934 0.652452 -0.728172
-9392.06 -1437.47 22205.7 -0.9401 -0.119608 -0.319228
-4110.52 -569.426 21854.2 0.0434232 0.321692 -0.945848
-4894.52 -4041.41 24211.8 0.332161 -0.768411 -0.547005
-178.282 636.527 24190.4 0.216033 0.674272 -0.706178
-4611.57 -3142.24 23200.1 0.349943 -0.764481 -0.541395
-3304.86 1222.88 23791.9 0.254038 0.606611 -0.753318
-2673.28 -1390 22395.7 0.396017 -0.540771 -0.742116
-5359.27 468.046 22595 0.124481 0.585216 -0.801266
-2439.44 -336.242 22614.2 0.330932 0.545211 -0.770213
-132.786 -2003.79 24397.8 0.347673 -0.72561 -0.593813
-3316.08 -1504.75 22119.3 0.384373 -0.561045 -0.733135
-2853.55 903.487 23553.2 0.256686 0.683739 -0.683091
-5181.52 -1883.47 21571.1 0.301855 -0.591533 -0.747644
-2841.92 -1897.62 22744.7 0.349343 -0.658255 -0.666828
-34.2497 -2467.85 24932.9 0.302772 -0.689688 -0.657769
-5035.21 -1777.77 21526.1 0.269935 -0.564009 -0.780403
-3178.67 -3797.87 24877.1 0.324123 -0.791459 -0.518205
-69.6684 -3933.87 26902.4 0.263002 -0.838772 -0.47675
378.495 1643.68 25240.5 0.248897 0.666401 -0.702823
-4227.16 564.418 22626.2 -0.16018 0.641144 -0.750518
-1387.68 -3030.13 24834.7 0.346655 -0.752899 -0.55944
-3608.83 -463.474 21919.1 -0.158956 -0.174533 -0.971736
-2144.59 -3012.87 24319.8 0.256751 -0.763706 -0.592311
-2999.75 -2576.74 23283.1 0.372166 -0.68638 -0.624799
289.163 -2928.94 25541.4 0.327164 -0.773577 -0.542718
-965.846 -1795.12 23696.3 0.348719 -0.643826 -0.68109
-2208.77 -2921.32 24187.8 0.25854 -0.780286 -0.569483
-609.173 -3438.06 25796.6 0.371924 -0.786341 -0.493295
377.77 -2942.56 25812.2 0.3233 -0.781858 -0.533081
-4891.75 -1717.19 21523.8 0.300179 -0.539831 -0.786432
-8303.25 549.831 21748.3 0.21507 0.631675 -0.744803
-6058.07 -1926.73 21132.3 0.380693 -0.547446 -0.745235
-4628.34 1159.04 23230.5 -0.00208842 0.726768 -0.68688
-1670.79 -954.527 22615.4 0.381418 -0.5054 -0.77401
-543.572 1549.93 24823.1 0.26853 0.675544 -0.686682
-6237.93 822.223 22546.7 0.195411 0.575994 -0.793754
-3543.41 274.422 21972.2 0.0701398 0.554558 -0.829184
-9015.26 470.032 21444.8 -0.0632181 0.707965 -0.703413
-219.517 -1715.33 23954.9 0.3344 -0.699447 -0.631626
-279.423 1279.89 24788.9 0.272553 0.591648 -0.758728
-9553.77 -93.9857 22307.6 -0.918667 -0.0168179 -0.394676
-4770.56 1095.2 23125.1 0.0417612 0.7121 -0.700835
-6865.41 -435.156 21205.2 0.217187 0.632429 -0.743548
-9460.1 -866.276 22205.3 -0.934143 -0.129514 -0.332571
-3439.21 2614.06 24949.4 0.229045 0.657978 -0.717359
-2459.5 1399.95 24099.9 0.280889 0.635401 -0.719282
-6664.07 -3421.35 22097.1 0.376647 -0.694431 -0.613108
-5686.05 -3875.17 23543.7 0.34238 -0.774944 -0.53126
-4047.53 -3280.87 23692.2 0.273626 -0.740602 -0.613709
-3806.12 -1404.01 21845.4 0.359375 -0.475424 -0.803008
-2572.03 -1658.53 22649.6 0.330376 -0.601064 -0.727718
-3246.21 431.341 22393.3 0.643635 0.633493 -0.429443
-4496.82 -2309.94 22243.1 0.390495 -0.659781 -0.642031
-6325.71 -2759.94 21788.6 0.30888 -0.719281 -0.622276
-2870.5 -1832.85 22664.7 0.372866 -0.646519 -0.665571
-1782.87 -3447.99 25134.9 0.34019 -0.768593 -0.54179
-6436.4 -4075.8 23323.8 0.326632 -0.755941 -0.567331
-2991.79 -130.462 21979.3 0.960635 0.0744661 -0.267647
-4549.79 -3367.98 23484.5 0.327576 -0.780802 -0.532018
-8721.13 -844.426 20473.7 -0.0469014 0.624106 -0.779931
-8023.79 428.297 21757.1 0.242434 0.629455 -0.73825
-3452.21 -670.085 21933.2 0.34852 -0.118888 -0.929731
-6864.94 -2849.68 21650.4 0.325856 -0.687788 -0.648664
-7605.04 -142.18 21232.8 0.19866 0.649263 -0.73416
-3159.96 -627.36 22114.6 0.524158 -0.200938 -0.827576
-5174.47 -3968.6 23998.5 0.317179 -0.781925 -0.536648
-3339.65 -2016.88 22598.2 0.353326 -0.729566 -0.585572
-3017.61 1198.12 23742.7 0.248884 0.612285 -0.750442
-2724.69 -1808.74 22712.5 0.354406 -0.619609 -0.700344
-24.1049 1373.54 24910.6 0.264214 0.590008 -0.762943
-2805.5 -3189.05 24196 0.381793 -0.700154 -0.60334
-8293.62 312.11 21488.5 0.232285 0.63805 -0.734123
-5145.31 1252.85 23167.4 0.205778 0.720435 -0.662291
-1358.66 -3017.18 24829.8 0.354968 -0.754023 -0.552673
-5319.65 -3375.95 23026.8 0.322951 -0.751347 -0.575483
-2943.67 -612.835 22130.5 0.571736 0.131087 -0.809898
-3211.56 -1825.79 22452.6 0.395332 -0.636381 -0.662369
-2128.04 -1576.63 22804.5 0.377676 -0.574118 -0.726463
-3486.79 -1807.54 22251.4 0.401867 -0.611556 -0.681544
-8238.63 -4657.41 23241.5 0.334117 -0.800297 -0.497886
-2901.99 -923.705 22038.6 0.308987 0.0910883 -0.946694
-4494.27 -1736.56 21751.2 0.393587 -0.578919 -0.714102
-6139.34 429.507 22295.7 0.203696 0.589012 -0.782031
820.966 562.523 24589.6 0.329291 0.697093 -0.63689
-10433.3 -3548.5 25881.8 -0.915311 -0.174946 -0.362766
-969.109 1610.23 24727.8 0.198161 0.696318 -0.689836
-6365.04 -3369.39 22473.7 0.412454 -0.727311 -0.548544
-8875.33 -785.554 20574.6 -0.50964 0.394 -0.764873
-5768.85 -4458.03 24404 0.317973 -0.822594 -0.471415
273.219 -697.846 23439.3 0.438424 -0.420055 -0.794567
-4403.53 -564.85 21829.3 0.0594562 0.529956 -0.845938
-7655.29 -1213.04 20422 0.308981 0.412889 -0.856769
-3559.58 -3205.9 23768.3 0.304573 -0.753368 -0.582814
-4205.17 -4295.64 24913 0.168547 -0.832808 -0.527278
-1932.86 1086.01 24107 0.214332 0.645133 -0.733393
-9359.83 422.89 21559.5 -0.300933 0.617814 -0.726461
-4577.39 -4084.24 24473.6 0.289437 -0.787352 -0.544337
-3633.84 -2472.11 22902.2 0.344944 -0.657809 -0.669553
-1483.22 -3559.77 25499.1 0.301871 -0.776632 -0.552917
-4144.74 -3757.16 24318.2 0.252768 -0.770782 -0.58481
598.437 -2286.59 25034.4 0.318751 -0.683575 -0.6566
-80.2968 -891.838 28118.5 0.950716 0.0450035 0.306778
-4700.5 741.742 22834.3 0.0351178 0.630732 -0.775205
-920.427 -1569.86 23469.5 0.331078 -0.624992 -0.706946
662.584 -1485.99 24196.5 0.408604 -0.64262 -0.648137
-7461.1 -1630.12 20242.1 0.417227 -0.0162548 -0.908657
-4493.92 -416.989 21961.1 -0.00565 0.520756 -0.853687
-6809.06 -1633.27 20536 0.258474 -0.258936 -0.930668
254.99 -3435.25 26439.8 0.307092 -0.77915 -0.546462
-6880.75 -1784.58 20593.2 0.310129 -0.422726 -0.851541
-4273.68 -4126.78 24716.3 0.226216 -0.802191 -0.552553
-828.418 2110.18 25339.1 0.250724 0.682765 -0.686271
-1005.06 -2405.3 24261.8 0.390706 -0.703919 -0.593166
-22.5531 -2890.65 25355.5 0.31365 -0.744875 -0.588884
-5761.76 -2929.26 22239.8 0.317764 -0.737953 -0.595359
-3208.68 1572.86 23937.5 0.254093 0.63066 -0.733284
-7713.24 -3538.96 21899.9 0.30944 -0.725425 -0.614821
-760.882 -4332.69 27398 0.277922 -0.867605 -0.412335
-3432.99 -221.879 21698.9 0.0385146 -0.254489 -0.966308
-5070.99 1099.69 23040.2 0.208826 0.656886 -0.724494
-8763.96 82.863 21170.6 0.167217 0.569467 -0.804826
941.664 820.32 24858.2 0.386051 0.671543 -0.632452
-4217.25 -1139.99 21465.6 0.41954 -0.231562 -0.877705
-817.715 -2996.43 25052.9 0.336652 -0.715883 -0.6117
-8648.67 -652.597 20591.6 0.0518928 0.606461 -0.793418
-3496.39 -487.291 22055.2 0.249073 -0.280816 -0.926879
-7461.04 -2672.3 21107.9 0.345287 -0.669675 -0.657505
-7447.79 -91.9338 21334.5 0.205485 0.674651 -0.708958
-8345.64 -4866.77 23473.8 0.320824 -0.80502 -0.499015
1109.46 -521.522 23736.3 0.429759 -0.193294 -0.882012
-7887.97 -4919.24 23933.6 0.339617 -0.804756 -0.486854
-7614.12 -515.685 21045.7 0.179457 0.629925 -0.755639
-4876.31 -3944.56 24065.7 0.346798 -0.746287 -0.568143
-6338.31 -291.98 21485 0.219414 0.640148 -0.736252
136.481 -3861.51 26941.3 0.248424 -0.835338 -0.490404
-2870.39 -619.65 22200.9 0.450286 0.425137 -0.785176
-4666.45 -2039.23 21904.5 0.369508 -0.640052 -0.673645
-10219.6 -2843.07 25080 -0.933616 -0.104257 -0.342771
306.882 -743.127 27142.5 0.908102 0.145126 0.392797
-6275.6 -1619.59 20844.8 0.314414 -0.464325 -0.827977
-3286.04 -2446.13 23006.5 0.324375 -0.627927 -0.707453
-5587.72 631.921 22652.7 0.194549 0.522478 -0.830161
-2487.59 1437.55 24127.7 0.278587 0.633426 -0.721915
-6658.94 -1444.23 20586.5 0.253003 0.124816 -0.95938
-2823.15 879.393 23499.5 0.290503 0.661744 -0.691161
-6887.29 614.691 22185.6 0.233309 0.598569 -0.766344
716.996 -595.694 23607.6 0.39524 -0.421439 -0.816195
-9095.18 1718.3 22599.7 0.170378 0.661204 -0.730603
458.834 1110.09 24875.9 0.334309 0.63325 -0.69802
-5805.36 1151.66 22933 0.199394 0.622042 -0.75717
-68.9603 -2529.99 24965 0.302772 -0.689688 -0.657769
-5963.24 1243.08 23000.2 0.173175 0.662579 -0.728697
-4254.53 -2130.49 22244.5 0.322968 -0.687822 -0.650071
275.909 -1744.09 24290.1 0.32532 -0.728704 -0.602626
-2180.52 -2665.32 23805.6 0.303891 -0.744654 -0.594256
-6050.56 -1525.07 20876.7 0.259364 -0.439277 -0.860096
-5773.86 -1377.08 20761.5 0.387106 -0.411169 -0.825281
171.839 477.69 24180.5 0.196356 0.653596 -0.730928
-3318.77 779.974 23191.1 0.435144 0.772285 -0.462846
-7893.5 -3691.58 21956.9 0.311369 -0.734396 -0.603086
-61.0643 2097.35 25651.8 0.205005 0.707964 -0.675841
-3578.71 -1571.27 22067.3 0.347834 -0.541683 -0.765239
-3943.63 -3063.66 23443.5 0.2651 -0.747206 -0.60943
-757.162 1463.16 24665.5 0.259401 0.642202 -0.72131
-5076.09 -2330.15 22006.1 0.327315 -0.663718 -0.672565
-2368.74 -2090.99 23171.2 0.365112 -0.659632 -0.656946
477.404 1571.57 25219.5 0.29982 0.633995 -0.712852
-756.479 -1276.19 23294.4 0.340182 -0.57192 -0.746447
-577.129 -3939.54 26638.4 0.282904 -0.833999 -0.473721
-6237.91 1346.15 23003.5 0.174432 0.652225 -0.737682
-5961.6 1362.8 23077.5 0.16932 0.663652 -0.728627
-7076.18 -2717.17 21320.2 0.3291 -0.674425 -0.660942
-9069.75 -48.4107 21091.8 -0.048682 0.548897 -0.834471
-5619.64 -4453.71 24598.6 0.251498 -0.836047 -0.48762
-2693.35 -1861.73 22795.9 0.330063 -0.63929 -0.694526
-6857.6 892.812 22433.6 0.196798 0.614345 -0.764101
-5567.65 359.434 22445.2 0.195145 0.614596 -0.764323
875.98 1089.07 25035.1 0.44751 0.603999 -0.659485
-8726.06 -842.952 20476.3 -0.0469014 0.624106 -0.779931
-5715.47 634.093 22568.9 0.240019 0.527145 -0.815174
-3052.55 3.96402 22299.1 0.886666 0.382562 -0.259749
-7779.58 -5054.65 24274.2 0.314199 -0.842124 -0.4383
-7928.5 -1033.29 20498.5 0.22112 0.582841 -0.781922
589.168 -512.686 23526.1 0.404632 -0.408284 -0.818277
-2042.92 -3343.13 24859 0.336669 -0.775479 -0.534122
-2657.54 -796.621 22141.1 0.252881 0.231301 -0.939442
-7498.83 -4353.87 23177.4 0.293371 -0.820924 -0.489915
-3534.25 -2253.47 22805 0.344424 -0.670729 -0.656883
-1720.09 -826.82 22515.4 0.380413 -0.50719 -0.773333
-3517.1 986.519 23387.7 0.444578 0.767584 -0.461698
-496.334 -2503.45 24722.1 0.369659 -0.683603 -0.629316
-3753.57 -1708.55 22094.4 0.376851 -0.51729 -0.768371
-382.808 -3098.36 25408.7 0.346948 -0.759948 -0.549641
-2738.41 1143.16 23837.3 0.224169 0.648839 -0.727156
-5718.52 -1496.09 20957.6 0.427463 -0.496501 -0.755488
-7830.89 -1605.61 20114.5 0.301679 0.118446 -0.946024
-7826.28 -1706.31 20129.9 0.354478 -0.024085 -0.934754
-9448.19 1205.1 22004.7 0.0673542 0.634286 -0.770159
-1133.87 247.621 23474.4 0.235902 0.654321 -0.718481
-1221.46 2993.95 25908.5 0.276145 0.620645 -0.733855
-2466.85 -480.166 22506.4 0.329182 0.530808 -0.780949
-8961.37 -989.997 20481.8 -0.53714 0.318664 -0.780983
-6499.5 -4044.82 23277 0.330117 -0.756735 -0.564248
-2691.81 -1048.29 22158.1 0.38182 -0.253352 -0.888834
-9800.45 -1192.71 23374.7 -0.932622 -0.125172 -0.338449
-2960.55 -2525.76 23274.7 0.370784 -0.681744 -0.63067
-6510.23 -1973.91 20865.3 0.377628 -0.531954 -0.757906
-2581.54 -3019.5 24263 0.303942 -0.724775 -0.618321
-5683.89 -2755.38 21998.8 0.319226 -0.716572 -0.620176
-3969.48 -3981.4 24649.2 0.253455 -0.767081 -0.589362
-6611.78 2365.76 23984.1 0.218254 0.693654 -0.686447
-5482.38 -2412.98 21812.5 0.380285 -0.681135 -0.625651
-2323.44 369.535 23323 0.27765 0.643999 -0.712865
-9726.1 -3050.66 23746.7 -0.911544 -0.170527 -0.374177
-263.11 -3016.96 25353.2 0.305851 -0.7569 -0.577544
-1390.58 -75.512 23131.6 0.256793 0.576269 -0.775868
-3346.85 -3218.3 23894.3 0.322083 -0.758449 -0.566584
-3544.4 1516.41 23889.5 0.257829 0.637316 -0.726191
-2947.01 -1945.78 22722.9 0.360253 -0.667872 -0.65128
-10216.6 -3083.85 25151.9 -0.932958 -0.108126 -0.343363
-282.88 -1652.67 23875.5 0.35252 -0.679384 -0.643558
-133.186 -3249.58 25872.9 0.344999 -0.803174 -0.485682
-3435.92 2513.67 24772.3 0.232851 0.665085 -0.709537
-899.401 1636.57 24784.2 0.197649 0.715955 -0.669585
-435.838 -4460.39 27718.1 0.243652 -0.865076 -0.438495
-3876.05 -2078.33 22279.5 0.31549 -0.712495 -0.626751
-5364.01 -1456.87 21117.8 0.40134 -0.472171 -0.784844
-10429.4 -3072.7 25681.9 -0.927297 -0.127807 -0.351831
-2457.71 -2837.38 24050 0.260576 -0.783393 -0.564265
-8147.27 -4770.06 23489.3 0.336671 -0.800031 -0.496591
-2129.81 -2492.71 23653 0.332054 -0.690907 -0.642174
-7772.91 -1240.89 20347.6 0.282968 0.44925 -0.84741
-144.776 289.461 23923.9 0.228812 0.67983 -0.696761
-1937.49 -1603.21 22924.4 0.399556 -0.608111 -0.685971
-1992.89 -1273.66 22657 0.399012 -0.504357 -0.765776
-5215.83 1484.77 23332.7 0.222101 0.746355 -0.627395
-8571 -1472 20040.9 0.041511 0.310513 -0.949662
378.775 -663.64 26953.8 0.909259 0.144898 0.390195
953.59 -832.327 23857.6 0.404237 -0.489315 -0.772763
-2686.19 1036.08 23774.1 0.246572 0.627748 -0.738333
-3197.81 -458.495 22189.6 0.636624 -0.335634 -0.694306
-884.758 -1347.53 23324.3 0.335614 -0.592659 -0.732201
308.205 1121.08 24827.1 0.276555 0.641288 -0.715728
-2282.2 -3445.81 24821 0.303536 -0.796496 -0.522935
-3030.46 -323.187 21968.6 0.940067 -0.138982 -0.311382
-5881.07 -607.085 21410.2 0.256695 0.561409 -0.78672
281.597 -3020.97 25705 0.319517 -0.783775 -0.532547
-3756.75 -696.029 21847.1 0.104348 0.345373 -0.932646
-2822.71 -1941.19 22821.9 0.344289 -0.651908 -0.675633
-8136.97 479.075 21733.5 0.234178 0.624584 -0.74502
-6908.55 1270.92 22737 0.187286 0.626977 -0.75619
-4332.01 -3625.19 24033 0.263253 -0.788458 -0.555907
-4156.52 1475.82 23505.7 0.150797 0.775571 -0.612985
-4364.58 -1260.79 21467.8 0.399163 -0.400704 -0.824685
1123.48 -802.956 23896.3 0.380731 -0.515446 -0.767697
925.278 -493.026 23668.3 0.379439 -0.456136 -0.804963
-190.308 -1800.74 24059.7 0.34917 -0.714773 -0.605953
-3865.12 -2817.27 23183.6 0.276131 -0.736796 -0.617157
-5498.09 164.038 22186.1 0.188458 0.641193 -0.743879
-8674.52 687.701 21722.8 0.166472 0.684619 -0.709636
-8576.26 -139.266 21170 0.205124 0.578114 -0.789752
-7695.6 -4146.22 22734.7 0.291149 -0.810614 -0.508071
-2847.76 1393.63 24029.8 0.27006 0.617552 -0.738713
-8440.64 -1291.77 20155.2 0.0425573 0.458706 -0.887568
-8546.8 -4293.89 22445.1 0.323254 -0.792208 -0.517603
-7896.62 -2239.87 20460.2 0.302325 -0.603142 -0.738118
-6840.25 -2708.47 21513.6 0.326153 -0.681408 -0.655215
-4539.13 -513.857 21862.9 0.0637077 0.578245 -0.813372
-7622.66 -2739.7 21112.3 0.313928 -0.680109 -0.662496
-6073.97 -1991.24 21187.4 0.379414 -0.562635 -0.734497
-8507.71 693.291 21825.8 0.194498 0.677761 -0.709091
-5253.79 -2521.03 22047.5 0.349566 -0.671351 -0.653522
-1253.83 -1818.85 23543.6 0.359625 -0.631804 -0.686654
979.529 1096.51 25249.4 0.63661 0.648649 -0.417111
-5038.06 -2811.96 22468.5 0.292264 -0.71322 -0.637102
334.716 2263.38 25803.1 0.178703 0.654993 -0.7342
-3655.42 304.407 21867.4 -0.0662231 0.498015 -0.864636
-4548.97 -3365.8 23483 0.327576 -0.780802 -0.532018
-8479.1 -5694.72 25237 0.0515813 -0.898345 -0.436252
935.975 327.163 24297 0.307672 0.667565 -0.678008
-3956.81 -577.179 21881.3 0.101879 0.2602 -0.960165
970.748 771.024 24804.1 0.372422 0.688192 -0.622651
-5724.49 1522.6 23316.7 0.195996 0.716026 -0.669995
-2648.77 1035.14 23786.2 0.245912 0.629579 -0.736992
-8769.65 -9.69819 21113.4 0.123812 0.550327 -0.825718
-8577.78 481.659 21590.1 0.207684 0.662859 -0.719364
-1385.69 1198.15 24261.1 0.175569 0.628954 -0.757359
-9169.15 961.105 21881.6 0.151629 0.638676 -0.754388
-4701.51 -2877.67 22675.6 0.338082 -0.722937 -0.602547
-8172.1 -5137.17 24032.9 0.327817 -0.824162 -0.461836
-6122.43 848.023 22611.5 0.197843 0.591198 -0.781884
-2688.9 -1175.93 22216.1 0.435595 -0.42572 -0.793107
-6893.5 -2304.12 21037.7 0.293886 -0.63206 -0.71703
-4650.06 518.762 22659.3 0.0157524 0.609974 -0.792264
-1638.63 -4766.26 27734.8 0.284707 -0.865562 -0.411999
-4837.14 -2591.56 22348.7 0.337383 -0.655197 -0.675936
-1196.31 2725.46 25667.1 0.275895 0.622639 -0.732259
-7199.55 501.207 22053.1 0.223513 0.611459 -0.759052
1013.23 -413.601 23684.6 0.397063 -0.0680373 -0.915266
-8699.75 120.827 21228 0.191519 0.583336 -0.789329
-8836.33 262.715 21344.8 0.151565 0.633034 -0.759142
-8639.85 -5621.4 24882.2 0.0454674 -0.918529 -0.392732
-343.793 3421.2 26636.8 0.343927 0.65249 -0.675256
-2352.69 -3416.26 24737 0.30569 -0.769275 -0.561044
420.384 1632.12 25245 0.276675 0.656968 -0.701316
-3998.96 -3976.45 24609.6 0.207223 -0.757403 -0.619193
-2902.89 820.724 23483.9 0.303002 0.661487 -0.686021
741.585 476.407 24450.4 0.344705 0.679618 -0.647532
-2709.55 -1860.56 22782.1 0.331561 -0.639561 -0.693562
-270.377 2888.11 26175.8 0.244652 0.625737 -0.740674
-5111.56 944.694 22910.2 0.153642 0.595282 -0.788691
-4634 -3526.68 23737.8 0.335172 -0.766632 -0.547664
-6535.58 2308.74 23764.3 0.228777 0.692516 -0.684166
-582.427 -604.237 23006.6 0.427856 -0.508539 -0.747213
-3817.53 -2326.72 22644.7 0.388193 -0.684612 -0.616939
-1359.32 729.789 23857 0.212876 0.657026 -0.723188
-7238.97 2243.09 23545.3 0.207473 0.662542 -0.719717
-7307.93 -396.228 21173.8 0.177024 0.652725 -0.736623
-2059.92 -2064.41 23355.6 0.371585 -0.6532 -0.659738
-4699.32 412.74 22551.9 0.0063825 0.594998 -0.803702
-614.693 -3997.47 26684.9 0.276964 -0.846152 -0.455321
-3360.64 -2058.69 22637.5 0.35267 -0.737795 -0.575572
-5544.82 1501.15 23477.3 0.208085 0.740869 -0.638603
-10189.8 -3202.27 25114.2 -0.927297 -0.127807 -0.351831
-4393.65 339.009 22458.6 -0.144869 0.61842 -0.77238
-2057.52 -998.321 22465 0.345564 -0.484493 -0.803649
-391.124 -3324.13 25818.3 0.376317 -0.782073 -0.496737
-302.585 -1406.62 23629.2 0.352301 -0.621163 -0.700029
216.05 -706.563 23400.6 0.431226 -0.400084 -0.808688
192.746 623.894 24292.4 0.206369 0.658286 -0.723928
201.678 1653.41 25142.8 0.256639 0.661687 -0.70449
-3775.74 -1432.79 21866.7 0.357282 -0.472839 -0.805464
-289.032 -2689.11 25097 0.315477 -0.671419 -0.670574
-1855.73 514.771 23569.4 0.179517 0.664258 -0.725627
-4529.77 -1227.09 21395.5 0.343801 -0.258521 -0.902755
-3581.63 -3114.81 23666.1 0.292881 -0.765392 -0.573058
-2447.95 -1621.48 22673.1 0.338748 -0.594141 -0.729552
-1414 1853.82 24934.4 0.216345 0.702022 -0.678498
-5434.8 -3232.76 22836.1 0.298943 -0.75142 -0.588218
33.0279 378.004 24003.9 0.217779 0.675601 -0.704369
-4942.86 991.703 23000.9 0.104341 0.696647 -0.709785
-3162.54 -3763.1 24810.4 0.322338 -0.789247 -0.522674
-9725.11 -1376.9 23234.4 -0.932805 -0.124088 -0.338345
-3328.06 -2937.62 23490.1 0.331944 -0.749516 -0.572747
-7711.42 -3713.82 22071.8 0.296596 -0.732379 -0.612904
-6492.72 -1565.61 20638.1 0.235611 0.0585903 -0.97008
178.071 -3348.6 26165.9 0.314461 -0.783408 -0.536084
448 1620.34 25245.9 0.304803 0.632336 -0.712213
-7365.6 -1782.82 20444.9 0.401666 -0.2282 -0.886898
1211.19 -443.71 23761.9 0.448398 -0.0510275 -0.892376
-5544.75 -4389.36 24528.2 0.253181 -0.836051 -0.486743
-5329.63 -2295.21 21858.2 0.404816 -0.652591 -0.640507
-3802.01 445.167 22211.9 -0.16018 0.611024 -0.775237
-2264.57 -2697.46 23817.2 0.29289 -0.757352 -0.583638
-8491.47 -1761.9 19943.8 0.0765891 -0.233557 -0.969322
825.815 1035.15 25001.4 0.440236 0.617301 -0.652021
-184.151 -1469.87 23773.6 0.395078 -0.621191 -0.676783
-6539.09 -3879.53 23180.2 0.3383 -0.750828 -0.567283
690.804 680.275 24596 0.375878 0.660462 -0.650005
-3153.74 -627.484 22110.1 0.524158 -0.200938 -0.827576
-3227.44 1699.73 24066 0.234188 0.641356 -0.730629
-5668.56 1497.19 23299.7 0.210069 0.717073 -0.664588
-179.728 -2921.09 25315.7 0.294436 -0.731934 -0.614475
-3043.27 -156.763 21782 0.680782 -0.136388 -0.719677
-9445.08 -138.328 21911.9 -0.930204 0.0314789 -0.365689
-1820.37 -754.12 22409.2 0.336894 -0.359036 -0.8704
-3004.18 -243.334 21935.2 0.973792 -0.0302674 -0.225417
-2533.54 -2209.18 23247.3 0.357792 -0.660851 -0.659743
-9137.81 -1016.38 21380.7 -0.904394 -0.0183279 -0.426304
-5530.29 -1787.32 21340.2 0.383081 -0.500808 -0.776171
-5786.28 220.806 22189.1 0.224666 0.625274 -0.747367
-7674.27 -4999.82 24219.4 0.328658 -0.828005 -0.454303
-1348.07 -2634.57 24321.3 0.383417 -0.714292 -0.585473
-6157.57 -3200.24 22377.2 0.385282 -0.739388 -0.552145
-1006.67 -2067.1 23929.5 0.356103 -0.66959 -0.651798
-566.578 -3555.55 26053.5 0.373305 -0.783967 -0.496023
652.141 1173.68 24978.3 0.428054 0.569459 -0.701773
-8946.76 661.454 21694.6 0.0756318 0.664984 -0.743019
-9791.41 -2957.56 23953.5 -0.931093 -0.11881 -0.344892
-1955.68 775.64 23764.7 0.198821 0.656806 -0.727376
-852.504 -3710.58 26086.7 0.343061 -0.800823 -0.490909
-8046.31 363.578 21676.3 0.240915 0.624937 -0.742572
-8157.58 -4673.02 23335.2 0.331046 -0.801753 -0.497595
-2581.67 -2293.74 23271.2 0.368379 -0.6561 -0.658657
-2210.34 -2716.82 23844.1 0.291368 -0.757469 -0.584247
-2806.94 1583.98 24224.3 0.267987 0.639791 -0.720312
-3861.79 -3982.35 24670.8 0.302453 -0.754816 -0.582044
