-282.68 -40.5645 269.772
-217.809 -52.83 290.386
-264.358 20.768 308.7
-315.626 -18.2933 248.608
-254.461 -33.3421 269.358
-277.791 -30.4749 261.227
-355.211 85.4621 279.155
-363.704 -62.4365 295.054
-318.469 14.4344 246.75
-265.671 -18.7319 268.172
-247.89 -1.65505 303.158
-303.546 -23.6842 252.993
-306.218 24.8811 272.572
-229.46 -23.8138 303.169
-276.487 40.1205 315.019
-316.883 65.7268 297.83
-320.006 74.5298 302.872
-337.427 87.942 296.771
-340.431 52.676 260.019
-252.337 27.2337 324.831
-363.285 96.3655 282.155
-347.476 -28.0462 256.059
-352.682 -3.19707 231.726
-202.19 -51.2402 307.629
-327.13 41.1674 262.404
-238.166 -72.8496 301.905
-432.967 -28.4045 288.953
-356.612 -18.4173 243.894
-315.138 -5.83379 241.322
-287.531 25.1947 284.211
-290.861 -83.6235 309.275
-275.425 -70.3163 295.549
-362.82 31.8686 218.013
-367.312 -42.4205 268.036
-327.398 -48.1514 274.758
-330.394 69.1171 285.326
-395.376 -25.5058 252.235
-289.895 -28.8133 259.277
-292.865 -18.001 252.548
-292.527 -32.8426 259.562
-349.899 5.35682 226.976
-345.266 68.6431 272.984
-359.49 68.7572 260.489
-220.613 -12.1459 322.812
-237.822 29.8149 344.609
-303.835 27.7005 275.976
-343.279 4.14771 229.312
-311.855 -51.8307 277.135
-323.614 38.4136 262.979
-345.505 75.2591 281.659
-258.774 -8.44019 289.353
-341.982 -73.6439 303.829
-250.53 -88.0024 313.369
-324.007 22.8759 249.562
-291.179 -57.0556 285.027
-265.731 -2.24341 278.855
-210.804 10.2129 362.108
-295.921 9.06755 263.813
-367.33 -9.54135 237.896
-351.467 -60.6796 289.471
-262.748 20.4179 308.036
-307.538 60.7076 300.328
-214.503 -58.4326 294.017
-326.928 4.66286 230.092
-202.372 -31.156 326.211
-251.702 2.81804 303.13
-349.151 12.0078 223.626
-330.764 -28.2392 255.719
-269.678 3.82225 286.904
-296.27 0.427638 256.335
-261.772 1.63431 293.259
-366.173 14.5207 218.739
-279.116 -41.8208 270.276
-262.899 -31.8671 267.246
-276.128 -13.3593 261.316
-366.607 59.9411 247.34
-263.688 -20.0412 272.468
-268.937 -7.65549 260.333
-203.51 6.36761 359.312
-357.312 -25.7399 253.864
-257.882 32.0627 325.638
-339.224 -35.3499 262.642
-297.851 -13.3316 248.209
-275.125 41.3811 314.908
-354.893 -22.9312 251.469
-305.278 -10.9499 245.893
-284.161 -9.86652 257.034
-286.945 46.115 309.617
-295.138 -60.6245 287.276
-329.918 -2.25416 234.251
-254.506 -77.4267 304.13
-358.253 1.32372 230.124
-283.129 -8.00624 258.217
-272.181 -9.23077 260.344
-344.45 9.4031 225.889
-306.464 -13.9756 245.696
-205.101 -51.0365 305.295
-201.869 -37.9453 319.554
-294.359 -21.9936 255.158
-335.88 9.55193 227.958
-261.844 -54.9331 284.605
-366.829 57.3788 242.624
-348.477 16.8 217.554
-246.833 -63.9837 293.681
-201.626 -45.6945 315.177
-286.55 -8.90203 256.735
-273.721 17.9891 282.039
-219.319 -56.8848 291.72
-230.727 -45.5443 283.413
-255.474 9.95833 308.008
-302.67 -58.3162 284.735
-204.958 -22.8365 329.943
-350.969 -31.2187 259.137
-378.065 -10.9562 238.907
-369.32 22.9139 212.4
-312.229 37.0321 274.23
-349.422 -1.63522 231.686
-358.387 30.4915 221.219
-313.366 -20.499 246.123
-326.359 1.49463 232.079
-308.354 20.4934 269.407
-289.953 -79.6346 303.412
-296.912 -20.373 252.436
-262.848 -32.9629 267.823
-295.102 -15.4045 250.202
-280.355 -23.2472 258.353
-272.599 -40.5019 269.318
-200.046 -34.5717 323.866
-211.746 -41.5036 305.911
-356.381 61.0418 251.052
-285.992 25.0415 288.306
-215.295 -37.3703 305.732
-206.021 -59.7261 297.491
-318.736 -28.0028 255.572
-310.031 -8.74172 243.443
-258.569 5.8735 300.525
-247.75 -90.4204 317.148
-253.506 -58.7327 287.464
-281.558 -40.2658 268.933
-291.768 4.47859 264.035
-286.247 -0.139136 256.337
-306.811 71.7912 307.541
-319.239 41.4518 270.184
-280.505 -9.28225 260.745
-332.295 -74.733 292.983
-363.115 73.4796 260.732
-346.297 63.4003 264.758
-274.512 28.6088 293.004
-265.552 -76.2112 303.834
-363.722 54.8053 240.38
-273.015 -46.0553 275.532
-300.932 -36.9281 266.264
-208.594 -51.3012 317.769
-285.09 -11.7269 254.127
-289.668 29.13 290.562
-345.634 14.9822 222.239
-348.29 54.8313 255.441
-266.715 -26.0797 263.808
-293.637 -35.5408 263.741
-267.428 -18.114 266.274
-209.246 -24.1574 325.748
-247.54 -10.5383 296.151
-342.302 19.0694 228.683
-214.231 -25.7886 319.375
-293.36 2.45489 259.397
-207.502 -45.8847 311.156
-253.561 -12.1241 304.981
-334.661 13.3622 228.708
-319.791 -13.1679 244.146
-278.551 16.8164 280.451
-232.961 -72.9773 347.851
-205.293 -25.9934 327.273
-262.253 -84.3599 308.775
-211.157 -17.8481 326.797
-354.628 99.2938 293.012
-293.203 26.8234 281.689
-382.362 -33.3646 255.963
-329.664 13.0439 234.379
-262.032 -95.8557 325.39
-319.48 -56.5317 282.461
-286.971 -45.9007 272.96
-316.584 62.6123 293.956
-208.63 -30.76 337.867
-263.393 -89.1633 315.268
-362.591 59.4067 245.028
-226.914 -51.4684 287.808
-343.68 -23.652 247.437
-294.097 17.8387 272.253
-364.912 31.5445 216.385
-301.919 20.984 268.228
-296.26 -35.2933 263.67
-291.817 -37.9453 266.953
-294.395 28.3299 284.026
-294.011 29.1104 285.108
-263.357 -0.696022 289.731
-339.895 39.4091 247.021
-331.547 38.5279 260.704
-336.656 42.1231 253.452
-214.999 -23.2253 320.488
-335.426 41.914 258.16
-266.095 -12.5544 273.69
-302.353 39.0319 286.364
-264.799 -37.6818 268.325
-324.614 -60.6328 286.662
-282.892 -84.1436 310.25
-368.846 -5.40615 234.145
-295.23 -77.3825 304.333
-296.353 -74.146 299.26
-259.167 -79.6444 307.725
-314.836 -45.4016 270.639
-313.399 34.66 272.114
-356.54 -56.6153 289.506
-279.091 -36.7124 268.678
-345.909 -30.8003 258.062
-225.852 -71.2052 300.839
-235.831 -68.5884 299.126
-341.462 -39.1586 266.113
-289.057 -4.31663 259.287
-216.35 -60.6647 294.281
-205.162 -29.3136 323.106
-378.519 -30.3813 258.39
-317.506 77.5006 309.273
-405.251 -51.6789 290.723
-336.366 52.0411 263.311
-296.51 20.8256 275.436
-339.603 45.6199 254.046
-270.995 -104.823 381.543
-317.152 -56.0485 282.445
-278.474 -77.6393 303.236
-327.274 -52.4167 277.986
-245.377 5.74924 311.958
-409.387 32.4443 305.366
-212.537 -21.0909 320.746
-338.429 4.35785 229.658
-252.784 -57.7975 287.015
-244.383 -8.74486 300.02
-318.057 -37.3831 264.928
-243.46 -64.3597 292.401
-338.06 49.2917 259.91
-212.473 -32.5707 309.672
-290.922 -20.793 252.58
-263.911 -63.0277 290.426
-299.433 28.8908 278.962
-216.202 -48.7436 335.256
-211.68 -17.7307 329.051
-266.217 -79.5287 395.728
-205.56 -22.9371 329.563
-324.39 66.6998 289.507
-393.283 -36.2842 264.169
-314.474 -46.0681 273.782
-343.419 13.826 223.187
-376.595 -17.0846 244.26
-221.073 -39.7757 351.534
-349.554 48.2662 246.511
-259.178 -91.4334 371.541
-349.957 68.3557 264.739
-262.966 -80.1328 306.597
-305.067 -30.4695 258.507
-310.773 -72.3426 300.214
-206.341 -34.0802 308.944
-270.525 10.8062 287.876
-351.982 57.0841 250.99
-238.258 -57.4134 286.643
-306.154 -5.48401 243.258
-268.093 -27.3481 264.382
-270.317 -29.653 264.497
-268.055 -38.5645 268.518
-218.81 -27.7663 311.763
-248.988 -1.65162 305.738
-257.415 -41.8308 273.99
-200.653 -17.4454 338.089
-363.298 61.4714 244.478
-344.377 27.1928 232.67
-341.666 -45.6141 271.372
-284.669 -10.2059 257.501
-268.885 -9.53091 259.163
-310.586 -16.883 241.625
-413.583 -43.2347 276.28
-324.728 15.5046 241.65
-231.847 -74.3035 303.192
-308.712 -11.6416 244.949
-298.401 5.35176 256.559
-269.338 -35.2651 268.308
-259.866 -92.0282 373.045
-349.679 51.8437 249.78
-362.695 78.941 262.448
-338.465 -11.0871 232.547
-244.293 -24.7771 286.02
-334.178 -13.2927 239.626
-218.882 -65.428 296.39
-326.603 -36.5835 261.407
-309.957 -9.12458 244.263
-258.566 -7.30619 288.738
-210.759 -67.8019 304.771
-357.531 19.8588 216.775
-409.816 -43.6379 275.416
-327.054 -27.6964 252.009
-432.913 -5.88116 311.09
-302.481 -26.6319 254.725
-264.421 -62.7269 290.748
-341.183 47.768 254.651
-318.034 -68.0035 293.884
-348.416 -2.22044 234.651
-415.795 -49.7673 291.424
-317.775 -28.7412 253.882
-244.373 -84.235 310.225
-278.558 -28.6626 261.328
-383.885 -34.2951 263.723
-220.673 -27.4694 310.435
-373.097 64.6357 267.434
-357.16 54.2935 244.766
-320.095 40.6485 269.07
-269.927 -97.9005 380.624
-350.277 27.9835 228.291
-331.933 -49.815 286.871
-288.475 -81.3551 307.38
-255.246 11.6797 308.076
-286.932 -64.799 289.637
-299.155 -72.979 300.007
-380.984 -17.3548 243.853
-358.055 18.8446 218.191
-333.317 -21.235 246.867
-289.845 -3.86944 256.596
-202.162 -38.9751 318.722
-374.522 39.1873 242.004
-348.706 -7.54094 237.689
-336.658 -39.5009 262.065
-332.566 85.638 299.427
-251.486 62.4564 367.999
-366.804 -59.4672 289.819
-372.508 -13.7277 240.483
-362.431 -15.0396 243.867
-354.844 -63.7102 294.939
-282.107 -35.564 266.471
-205.195 -9.30177 342.457
-358.229 79.8614 265.019
-361.241 -69.4806 304.763
-436.625 -33.0636 290.338
-318.849 -51.6438 280.403
-240.522 -57.7498 371.18
-339.039 15.7359 229.359
-275.531 -69.2985 295.895
-350.507 -10.4875 235.644
-253.74 -56.6398 286.004
-263.14 14.8001 302.894
-303.666 -16.8815 248.487
-328.069 23.7961 246.534
-340.061 8.60915 227.137
-331.513 -56.6053 282.33
-292.794 -2.44368 255.347
-304.741 -49.4641 274.51
-350.883 -9.3752 237.963
-294.639 14.1377 273.058
-328.808 39.7893 261.287
-341.691 66.6995 269.936
-233.309 -75.3406 304.54
-211.206 -57.9846 295.081
-215.614 -39.0106 305.855
-373.054 65.6845 268.031
-325.027 -57.5309 283.921
-236.377 -40.4727 280.069
-227.809 -50.4356 288.129
-252.045 -73.9132 299.786
-306.634 24.1146 269.552
-247.205 -55.0372 284.153
-361.298 61.6442 245.885
-240.476 -60.7125 367.851
-270.25 -50.0187 281.333
-252.85 -83.7825 310.155
-359.255 70.946 253.697
-260.239 -2.76934 291.807
-278.047 -25.1728 260.535
-334.141 44.0293 260.031
-282.335 -57.8569 284.231
-269.826 -26.6222 262.201
-279.807 -25.6356 260.305
-281.888 -37.4568 268.414
-286.455 -15.2667 251.319
-271.044 -4.84058 258.091
-326.142 41.0166 265.479
-231.501 -55.6195 286.537
-358.009 78.6626 265.537
-346.324 -74.5188 308.092
-289.449 -33.8702 263.08
-307.802 29.3194 271.896
-353.344 8.03577 223.567
-276.79 9.68125 266.582
-315.515 -49.3296 276.25
-265.552 -42.2567 273.397
-317.485 -17.8897 244.538
-218.397 -12.7982 323.186
-276.602 -89.3232 407.291
-388.145 -49.09 278.927
-269.118 -13.2695 271.86
-309.717 -14.7236 243.991
-347.737 59.7149 252.873
-255.809 -90.8539 316.614
-338.753 81.3889 289.444
-359.846 -20.7593 244.952
-270.188 -90.1529 394.814
-225.659 -47.5455 287.756
-358.656 56.7022 242.774
-398.168 -47.8818 283.752
-318.408 42.1673 269.418
-350.548 49.4217 246.18
-331.072 5.58607 228.734
-366.39 49.8027 232.276
-401.274 29.0857 281.162
-352.531 57.9673 253.362
-296.579 -30.2109 258.472
-340.785 -64.663 295.701
-364.306 11.5052 221.689
-279.597 -44.8928 273.687
-298.298 -17.5028 250.557
-352.459 19.5092 215.591
-300.662 -20.3649 251.867
-239.132 1.33449 314.372
-360.455 47.4498 234.84
-312.04 -27.4972 256.675
-260.181 -96.2439 322.898
-313.044 32.2646 269.316
-267.015 -98.3648 326.005
-405.443 -30.1766 262.941
-334.909 -70.1164 298.974
-301.929 -41.9428 269.714
-365.123 46.6571 231.197
-369.727 91.8098 289.606
-260.634 -75.7791 390.498
-272.77 -25.8794 261.153
-345.328 -33.0398 259.532
-320.174 -17.231 246.654
-272.689 -37.7951 269.121
-347.138 -31.1516 254.825
-269.634 -8.78251 260.152
-299.327 -16.2544 249.298
-347.383 -25.2498 251.891
-212.979 -53.7566 327.545
-224.162 -58.5424 291.301
-317.914 69.4941 301.316
-362.059 -41.0891 269.011
-326.351 14.3599 238.995
-346.155 65.8539 272.368
-330.83 -28.0585 255.058
-322.538 13.1416 243.832
-383.897 39.7047 260.385
-205.05 -27.0668 326.731
-245.417 -25.3561 283.289
-327.637 54.0466 273.999
-364.299 52.3742 237.789
-323.581 -62.0776 289.115
-331.071 -36.0884 260.112
-221.576 -28.1093 306.529
-271.995 -33.7941 266.086
-274.918 -4.10222 256.145
-356.026 -55.9331 285.856
-321.976 43.2957 271.361
-257.807 4.56431 298.323
-368.866 -10.9024 236.684
-224.294 -39.2413 356.663
-336.385 -67.9393 295.585
-296.386 -20.9256 254.269
-418.003 26.7143 318.062
-336.289 -55.8351 282.949
-219.027 -54.9452 295.655
-292.255 -13.5594 249.045
-418.691 16.7967 306.037
-293.555 -35.6448 264.807
-230.867 -57.4101 351.548
-236.851 -73.1195 348.124
-256.85 -30.7808 267.028
-298.966 -33.9689 262.556
-276.136 -74.471 419.51
-252.988 -33.2002 270.84
-352.611 41.3422 244.322
-226.55 -8.08318 317.193
-338.814 -20.6365 246.961
-232.153 -5.29109 316.205
-285.145 0.175485 260.927
-308.697 -12.6572 243.549
-344.12 51.5888 254.352
-320.984 -34.2386 262.393
-231.396 -68.277 344.994
-223.851 -4.0942 328.218
-309.918 -17.6765 249.417
-216.133 -10.3603 333.177
-355.102 -27.2637 255.387
-347.761 79.7493 282.196
-290.238 13.8268 275.77
-242.651 -41.3185 278.208
-266.351 -84.1608 392.94
-227.541 -1.75219 331.063
-323.453 69.3384 298.008
-398.629 14.1965 262
-377.215 33.2456 243.621
-350.015 -27.905 253.079
-251.337 -86.6215 364.623
-268.104 -37.9533 269.917
-281.721 -9.73263 258.748
-275.81 -29.6402 262.544
-320.877 -23.0423 252.835
-291.889 -22.4126 254.069
-298.371 -72.5141 299.045
-228.417 -51.9626 285.104
-280.555 -84.1207 311.749
-311.703 -12.8574 244.268
-263.208 -38.2431 270.436
-265.81 -63.4927 290.351
-287.354 27.9464 290.659
-311.074 -48.4729 275.499
-297.399 -7.926 248.319
-230.143 -46.967 361.269
-285.223 -82.5265 310.988
-260.868 9.06002 298.858
-323.075 0.261502 234.47
-301.992 27.085 276.112
-288.244 30.3538 292.799
-286.34 -62.3425 283.776
-246.571 -64.3642 373.644
-300.144 -35.2693 263.656
-382.007 46.2372 264.259
-362.216 91.9854 276.947
-292.545 -21.5517 252.861
-316.761 -59.6488 285.366
-315.404 32.5302 266.67
-209.15 -41.2421 314.521
-269.302 -7.13528 257.795
-368.989 -18.1381 245.461
-348.691 12.1721 221.835
-337.406 -3.70042 234.989
-268.037 -4.02274 269.981
-349.139 -4.33492 234.149
-273.806 -14.7031 264.55
-235.224 -3.85057 315.202
-213.954 -48.9025 332.525
-278.396 19.176 281.94
-348.716 -58.8948 288.085
-234.183 -63.4799 293.762
-359.122 52.5436 241.606
-273.171 -22.7988 258.756
-345.244 52.6225 254.874
-267.108 -82.547 393.468
-270.85 -13.6152 268.999
-298.825 -72.8845 297.37
-401.572 26.0871 283.801
-335.001 -45.7985 272.705
-241.064 -74.176 300.787
-352.583 -52.9805 281.328
-205.748 -24.1795 328.267
-428.619 0.528631 311.297
-328.356 38.8179 260.12
-274.114 -38.2487 270.837
-327.606 -66.1199 295.317
-323.529 36.8532 264.788
-341.404 6.27954 223.987
-349.944 -2.40693 233.982
-343.952 -61.7539 291.109
-319.681 38.7185 267.483
-375.592 -14.7834 241.92
-313.639 34.1369 270.871
-274.431 -37.3941 267.936
-370.452 0.650808 229.087
-388.551 -42.3117 272.413
-284.546 -10.7177 255.041
-271.068 -25.4465 261.854
-285.454 -7.7458 257.37
-337.011 -46.8253 274.658
-295.831 -34.4261 261.138
-225.745 -27.0766 308.436
-278.04 -37.792 267.154
-311.049 -55.2998 280.198
-270.766 -14.5538 268.268
-332.612 49.5488 262.137
-365.637 -2.49415 230.853
-241.564 -43.2827 277.269
-224.849 -60.9028 294.298
-262.208 -95.7173 322.573
-324.676 -22.372 249.429
-254.654 -88.6908 315.423
-345.594 49.9225 249.462
-239.512 -0.270336 314.415
-293.513 -38.2539 265.614
-291.965 -24.9588 256.698
-242.786 -73.6873 303.352
-267.875 -58.4411 287.085
-310.445 -21.3549 250.518
-377.84 33.9201 243.475
-233.023 -24.0088 307.302
-348.614 -53.0459 280.192
-275.631 -32.9013 265.893
-321.162 -14.9844 243.332
-365.279 20.1104 213.789
-270.329 6.67767 269.216
-215.04 -10.9074 331.644
-259.585 -96.7193 322.594
-289.961 -31.5826 261.767
-274.241 -28.1393 261.669
-344.368 -28.7142 257.129
-295.682 -50.0589 276.146
-322.63 -20.1904 248.882
-372.022 -15.7743 242.584
-356.491 63.8516 253.914
-259.821 1.69534 295.938
-332.825 -28.7946 251.739
-246.755 5.34538 314.914
-320.708 5.53311 236.691
-334.508 22.41 238.729
-266.162 -91.0397 315.31
-337.321 11.3497 227.094
-230.945 -67.6839 345.742
-347.643 25.9725 227.05
-295.082 -63.9507 289.726
-269.472 -13.1632 270.642
-293.232 -3.71856 253.718
-255.097 11.4796 309.23
-304.602 -25.1771 253.58
-355.799 94.5869 281.91
-391.491 -60.9029 293.867
-271.553 -96.3771 320.445
-272.811 -33.4736 267.082
-250.13 -88.8952 313.518
-357.188 -52.4125 281.048
-281.207 -43.3926 271.676
-339.22 52.1768 259.249
-219.432 -12.7715 324.925
-288.823 -39.1399 267.675
-201.63 -36.4648 321.775
-354.689 -7.15635 232.312
-303.278 -38.4808 266.224
-284.75 -38.4192 268.407
-273.943 22.3287 292.646
-215.954 -21.0941 320.393
-234.9 -1.97324 320.587
-232.228 -69.2781 299.534
-365.942 -10.3995 238.572
-362.139 10.9523 221.051
-299.304 -39.2735 268.293
-267.294 -74.3286 299.191
-259.953 -15.798 278.04
-298.601 -70.7671 297.289
-422.12 20.9326 320.268
-373.532 59.2012 260.643
-304.166 -32.6603 262.95
-335.93 24.866 237.142
-364.48 -59.5955 292.253
-279.016 -3.09588 258.369
-356.7 87.5261 275.801
-362.875 55.6093 240.526
-273.202 -75.7462 302.549
-274.155 -33.5409 264.948
-361.432 61.6344 253.947
-262.025 -93.2321 322.312
-314.003 -27.1782 257.009
-282.554 -41.5217 270.82
-269.493 -19.7361 266.38
-294.169 -36.732 265.693
-273.982 -96.328 326.143
-305.488 27.5755 276.412
-279.337 -78.5071 304.906
-270.656 -17.3483 267.376
-264.234 -18.7132 270.624
-221.312 -13.7283 320.866
-346.301 -73.1344 305.763
-285.438 -35.7457 264.753
-296.334 2.3879 257.882
-347.431 -10.4987 233.726
-214.129 -15.254 328.985
-213.14 -59.0069 294.554
-342.743 -19.9617 248.234
-343.172 -35.0416 261.971
-288.856 26.0401 285.186
-300.96 -33.4906 262.41
-409.209 5.82554 277.292
-349.345 64.6182 262.559
-269.119 -110.067 340.573
-272.989 -96.1727 322.988
-355.743 100.806 291.536
-341.018 60.776 266.493
-341.355 -11.1326 240.09
-272.508 -58.6349 285.618
-212.139 -23.8571 324.949
-334.598 54.3431 270.039
-365.988 39.4529 225.525
-368.007 40.4372 225.53
-228.025 -7.7239 320.565
-307.16 -24.2981 252.793
-309.113 -49.4602 274.614
-341.01 -42.6008 270.217
-273.765 -93.7711 321.405
-230.368 -49.9456 284.214
-304.076 -51.9349 278.966
-217.598 -9.65244 330.977
-271.779 -15.0166 266.039
-297.609 -42.0767 271.133
-277.313 -89.2028 318.279
-208.496 -57.0879 291.439
-289.304 23.078 286.38
-289.537 -33.9932 263.158
-318.378 36.0219 266.833
-380.311 42.2671 257.724
-277.088 -40.1432 269.322
-335.466 44.3673 256.652
-366.555 43.4184 228.275
-347.098 11.6391 223.306
-295.597 26.64 282.044
-206.675 -35.803 316.434
-212.074 -33.8141 314.108
-270.075 -9.41573 269.844
-291.339 -4.13749 256.223
-244.486 -79.8666 305.998
-233.834 -0.860918 324.956
-235.89 -56.4639 286.547
-281.186 -30.8812 262.058
-392.628 8.41273 243.136
-231.132 -0.370118 325.386
-248.616 -90.9271 315.696
-323.001 -73.3813 305.93
-408.082 24.1227 294.178
-330.34 43.2288 261.046
-288.946 -16.0117 251.866
-229.233 -60.2071 292.654
-282.963 -29.0805 261.422
-339.578 9.56541 225.542
-349.747 15.9634 221.776
-211.886 -39.3786 316.79
-321.336 -60.095 287.205
-254.249 -9.25962 290.965
-403.967 -2.06755 256.685
-339.103 10.5549 226.888
-317.371 18.5963 250.465
-338.232 -25.7662 250.84
-360.092 20.4428 214.2
-265.289 -75.1784 396.521
-223.906 -33.959 300.364
-330.751 54.4365 273.148
-248.263 24.8933 328.778
-282.603 -9.64151 258.681
-304.094 -31.0935 257.731
-241.344 3.10271 317.346
-244.106 8.13072 317.429
-380.609 -31.488 259.497
-252.466 -35.729 273.378
-261.173 -64.8208 292.94
-243.29 -58.9067 374.675
-288.134 -12.3766 255.361
-332.335 8.24848 229.432
-340.615 33.9578 241.602
-206.425 -51.7158 305.849
-308.287 -74.1407 300.56
-281.825 -38.7938 268.015
-311.743 -73.8415 301.074
-260.307 -16.858 276.318
-371.082 9.04635 221.83
-281.119 -38.5769 267.336
-342.408 -73.3522 305.295
-326.315 53.1591 275.784
-352.298 -45.9354 274.492
-213.817 -57.7541 293.131
-393.811 -44.0249 277.657
-365.535 48.5478 234.282
-329.937 27.7541 247.988
-318.502 -19.2808 248.243
-272.904 -25.9254 261.321
-331.093 6.67259 227.958
-254.965 -88.7453 313.482
-278.018 -37.9207 268.496
-333.606 42.7709 260.11
-292.311 -37.5091 265.653
-301.078 -12.8816 247.668
-354.39 -28.3434 255.291
-216.864 -30.2744 312.223
-344.426 68.3037 267.632
-289.397 -19.2451 253.987
-280.213 -40.9582 269.761
-222.907 -27.3073 305.719
-232.871 -44.8068 281.888
-282.765 -25.8455 258.905
-363.732 82.9509 266.038
-321.653 -33.8313 260.162
-403.445 -48.4324 284.334
-267.385 -35.3328 268.78
-290.93 17.5326 274.756
-405.535 78.2821 351.047
-292.564 21.7969 277.833
-302.608 -52.3496 273.952
-364.193 56.125 240.244
-259.078 -60.6777 289.308
-302.713 46.2102 287.91
-360.301 60.5487 246.977
-283.962 2.26867 259.613
-392.111 31.529 273.033
-286.568 25.2409 287.353
-360.256 -46.0811 270.455
-236.999 -7.64217 310.957
-351.11 -6.78768 238.055
-282.569 -69.6538 297.683
-272.404 14.8955 281.807
-423.279 35.6244 339.147
-362.699 61.6303 247.022
-296.518 -17.7986 250.592
-252.816 8.3827 311.954
-363.185 33.0583 219.723
-351.265 9.53473 222.765
-288.32 11.0031 273.442
-271.907 19.8758 292.733
-281.656 -40.5552 270.997
-376.976 22.7008 226.892
-316.285 65.3244 296.493
-394.496 21.8713 263.232
-342.929 -57.6523 283.526
-313.682 3.88191 246.547
-200.891 -29.2195 329.228
-220.615 -65.1066 298.597
-437.809 -21.8648 304.343
-420.796 14.722 309.9
-285.918 -112.083 347.326
-362.543 -37.2452 266.378
-246.715 -4.56215 303.365
-217.852 -24.9887 361.083
-213.86 -1.41316 340.247
-303.886 13.6944 258.02
-412.978 19.1766 303.688
-234.874 -44.0004 279.61
-279.391 -40.3802 271.92
-201.124 -61.1311 301.947
-266.497 -36.6341 269.678
-278.915 27.3718 299.114
-362.568 56.759 241.859
-271.052 -10.0789 260.102
-385.439 38.8051 263.095
-409.399 34.7488 306.862
-335.67 -31.8696 257.648
-360.802 40.0462 229.772
-331.079 31.9032 250.146
-351.137 79.4363 274.031
-291.15 -3.63726 257.528
-357.717 0.415302 230.635
-342.711 -29.6622 253.788
-402.333 -35.6705 264.834
-422.049 -49.5651 290.923
-297.857 -61.7436 286.813
-295.305 17.6451 271.715
-394.99 29.0229 272.903
-251.039 -82.3448 308.67
-262.062 10.2316 299.6
-380.957 -23.8849 250.695
-357.243 1.36252 229.495
-347.944 -65.5935 294.381
-332.825 -40.4054 266.471
-351.038 -46.2966 272.668
-281.847 11.801 272.539
-385.155 32.8797 255.273
-288.476 -64.2792 291.934
-365.373 51.2497 236.729
-243.041 -43.1391 279.423
-265.435 13.0788 297.34
-280.388 -10.851 261.301
-336.207 9.17925 229.706
-413.854 -38.9779 272.873
-316.028 -13.131 244.335
-304.751 -57.7327 286.058
-352.666 18.4233 220.444
-330.73 43.3449 262.072
-247.973 -2.71954 305.312
-271.151 -34.4288 266.739
-406.702 -42.4885 276.302
-240.682 -45.3844 279.092
-394.672 42.189 282.267
-287.467 28.099 289.735
-246.738 5.6576 313.92
-349.668 -12.3537 241.166
-361.497 -16.14 239.724
-264.778 6.61282 289.997
-342.611 0.147379 229.007
-392.739 -33.7683 262.016
-204.123 -47.1919 311.007
-234.88 -53.0541 286.794
-283.772 -66.5122 291.947
-260.543 3.26062 293.372
-253.736 -60.9041 290.298
-397.587 -42.7647 275.041
-303.956 -20.4383 251.95
-381.539 16.7369 232.807
-303.291 -40.9249 269.835
-391.67 -36.0625 267.975
-277.408 -2.13661 256.884
-342.335 -14.59 243.503
-313.557 -55.846 281.286
-201.84 -51.3402 308.647
-276.042 22.5763 292.243
-393.797 46.3732 289.773
-364.905 72.4429 257.329
-430.357 -27.3053 286.81
-272.01 -90.196 319.461
-362.684 -11.6247 239.1
-287.885 -41.6887 269.36
-375.02 52.397 257.962
-312.228 -46.313 274.401
-296.25 23.6305 276.534
-323.874 -46.1916 274.886
-252.473 -82.5119 365.046
-220.611 14.1976 346.304
-229.827 -63.2313 294.95
-366.095 79.9874 269.693
-397.684 -32.0227 262.216
-313.063 -10.1615 242.851
-351.677 18.1136 218.655
-276.364 13.4719 285.893
-292.021 -24.8148 256.801
-248.995 -8.39247 297.752
-269.036 -98.6337 324.041
-237.844 -62.9826 359.047
-264.663 -53.7719 282.111
-341.972 53.0275 258.449
-344.631 44.1013 248.787
-239.673 -3.17501 309.63
-297.406 -72.0793 297.28
-306.13 34.3521 278.944
-310.342 33.7825 272.951
-208.531 -19.0403 329.448
-337.435 7.88289 226.752
-387.48 40.9316 271.244
-263.335 4.55141 292.797
-349.46 12.2855 222.54
-289.379 26.094 285.383
-217.834 -25.5604 312.981
-343.738 32.5094 239.665
-303.239 -15.6961 248.144
-296.091 -28.4742 258.718
-384.444 28.0558 248.835
-400.988 22.9582 279.238
-355.269 25.3895 222.441
-326.063 17.3896 244.117
-270.51 -7.95295 264.614
-269.188 -8.20557 261.738
-330.194 -2.59327 235.864
-204.588 -27.2663 327.255
-271.34 -21.8668 264.046
-261.841 -66.6286 292.426
-326.81 -22.8961 250.961
-278.148 -47.2831 274.221
-380.669 44.7229 262.321
-391.453 -24.7195 252.258
-357.627 89.4415 276.656
-357.65 -11.3712 240.707
-280.802 -8.73808 257.997
-323.798 -34.6343 260.191
-330.278 -26.3853 252.718
-362.125 81.8363 265.824
-330.702 -18.0506 248.221
-388.901 -25.844 254.364
-408.07 16.3517 286.779
-348.522 -18.8889 248.213
-256.577 -87.4489 311.984
-262.306 -55.89 286.558
-271.759 16.3052 283.152
-393.412 -28.0827 255.832
-371.571 -11.0542 239.771
-323.079 0.341949 234.617
-355.113 -45.7294 273.899
-306.059 -46.5088 273.883
-362.027 10.8188 222.477
-313.394 -55.7925 281.592
-252.663 -93.5388 318.237
-279.708 -18.9497 256.628
-221.498 -65.6519 298.613
-398.08 29.5692 279.594
-351.823 -66.1214 296.299
-277.372 19.7952 288.402
-260.607 -30.041 264.65
-315.145 -20.0415 250.07
-229.581 -47.8493 284.004
-314.79 -11.4532 244.706
-266.205 17.654 309.511
-416.782 18.0962 305.797
-257.715 2.12965 296.938
-401.666 18.1856 273.882
-271.003 3.72037 284.677
-384.656 52.7657 276.931
-209.932 -57.8531 294.001
-287.16 -85.5757 311.646
-250.129 -94.4682 319.367
-430.813 -1.4407 313.979
-271.315 -8.16988 258.411
-313.773 42.9813 278.507
-215.732 -61.7914 294.617
-336.235 45.3862 258.159
-266.093 15.2149 294.466
-337.394 7.23575 228.17
-227.128 -41.7681 361.575
-250.973 -94.6052 320.686
-256.17 10.1166 308.006
-258.874 30.4355 322.723
-334.287 41.731 257.315
-288.34 -52.6065 277.295
-320.103 48.1654 276.543
-320.496 -24.197 251.677
-205.568 -22.1923 329.687
-273.845 -13.7338 266.132
-360.285 28.586 219.127
-275.212 -16.169 263.401
-234.702 -2.47646 316.746
-327.671 -36.8858 265.736
-374.433 -8.63003 238.522
-257.998 -67.4367 295.533
-301.423 37.0304 281.029
-343.082 -18.3227 249.304
-203.082 -15.4489 339.117
-294.242 -79.1108 305.169
-343.151 46.9568 254.162
-373.513 15.8868 215.167
-253.933 14.4402 314.319
-405.414 7.21398 270.779
-321.409 -53.1532 280.297
-419.086 1.38159 294.549
-405.768 24.5574 286.108
-334.082 -47.4445 275.131
-308.778 -37.6483 265.709
-323.664 -63.1011 291.675
-424.28 19.0189 323.391
-247.54 -85.6695 313.477
-340.44 -62.113 290.2
-305.162 42.5116 283.505
-259.519 -18.4991 276.716
-224.732 -67.9466 298.286
-287.449 -22.9257 255.748
-306.185 -23.9759 253.362
-346.158 20.849 224.804
-360.215 20.9022 216.612
-348.212 54.7049 254.331
-434.897 -24.6997 294.908
-322.062 -23.7924 250.786
-407.801 15.6835 284.968
-361.937 -65.337 298.785
-280.533 22.4044 287.019
-261.288 10.6086 302.151
-338.227 -23.2424 251.611
-256.761 3.14766 298.314
-288.29 -42.3636 270.182
-238.322 -42.4414 279.571
-295.647 -34.0138 263.595
-271.623 -70.4444 296.267
-298.864 38.978 286.421
-357.312 74.2888 266.049
-308.551 -71.9249 298.811
-318.261 38.1052 268.374
-277.905 -83.1327 311.391
-259.476 -64.8224 291.649
-288.334 -108.82 340.47
-282.255 -109.902 340.756
-324.152 40.273 266.505
-205.253 -24.9019 333.372
-358.113 65.8759 254.068
-307.211 -45.6715 271.053
-324.494 -60.3016 289.499
-361.646 63.2352 249.944
-268.984 3.85143 268.218
-284.035 -3.93884 261.994
-356.694 -11.5269 242.02
-275.065 -50.6127 279.497
-327.773 5.86765 232.295
-238.546 5.33954 323.377
-374.859 12.8057 219.281
-311.333 -45.0728 272.101
-314.449 -44.6255 272.025
-319.362 -42.8171 268.732
-265.39 -26.6706 263.224
-316.802 -15.6324 246.742
-280.998 -23.7918 257.431
-304.596 -24.9673 255.255
-372.734 -12.5619 241.408
-388.746 35.3642 266.867
-201.909 -53.8167 305.941
-228.382 -46.114 284.069
-277.592 -42.8495 271.223
-227.439 -48.3396 286.286
-295.687 -77.0136 302.924
-254.326 -90.8711 314.732
-347.203 58.6428 254.265
-356.688 -32.5252 260.128
-281.322 -104.147 333.008
-313.482 -42.8674 270.067
-274.192 -113.924 345.481
-397.359 -32.0668 264.643
-333.598 -44.9638 270.808
-304.28 -27.291 256.098
-228.835 -70.4275 299.914
-297.478 -29.9872 259.231
-427.234 -35.8238 274.338
-388.08 -40.1032 272.119
-335.925 -51.9341 279.142
-307.079 -63.6057 289.838
-218.564 -37.3523 304.489
-324.703 -65.1071 292.023
-290.779 -74.5634 303.959
-287.548 -83.124 309.048
-353.344 100.194 292.545
-362.63 13.9025 218.133
-336.507 56.818 268.323
-359.432 -4.62209 233.729
-324.974 51.7185 275.128
-314.522 45.8203 280.774
-323.803 45.1868 271.343
-201.458 -60.2639 296.96
-324.67 37.721 262.305
-219.584 -9.49716 322.692
-344.475 41.6312 247.425
-273.979 22.6025 292.227
-243.242 7.89609 320.215
-368.349 26.0679 214.875
-332.485 13.7142 233.071
-357.144 53.1684 244.479
-299.411 1.78044 253.521
-349.989 40.6673 237.991
-337.069 10.4906 227.519
-279.613 -6.21405 256.376
-286.733 -6.17969 259.065
-256.741 -84.0664 308.957
-349.359 9.19577 225.206
-347.898 8.43774 226.25
-358.682 -68.2662 299.094
-243.219 -60.3831 290.795
-347.052 5.45783 226.664
-303.798 -23.5004 253.656
-345.995 63.4703 263.715
-222.231 -27.8768 305.505
-266.656 -17.436 271.295
-281.25 -10.7375 258.502
-372.93 6.10351 224.054
-202.72 -61.7512 298.123
-288.809 -12.7106 252.058
-264.304 -26.2146 264.333
-308.256 -20.3075 251.001
-353.537 73.229 264.66
-318.844 -1.94976 238.125
-434.199 -18.422 302.788
-270.093 5.48875 287.294
-269.231 -35.5256 267.72
-317.631 -27.5476 256.936
-318.422 -59.0363 286.426
-441.468 -24.0372 311.169
-375.213 -31.7304 259.92
-382.42 41.8742 261.826
-334.896 30.8978 244.875
-391.272 -33.869 264.895
-392.682 37.3969 277.267
-293.665 -22.7812 255.254
-395.354 -40.0461 271.076
-392.571 34.028 274.177
-308.008 -18.2951 249.796
-302.991 -21.4789 252.718
-327.347 -60.5208 288.783
-221.731 -49.651 287.814
-332.654 56.829 269.301
-418.751 -49.5587 286.759
-340.081 -14.4318 244.393
-333.432 -69.4553 297.889
-345.379 -73.7241 306.856
-306.694 -62.1147 289.209
-361.672 56.6614 242.324
-361.109 -11.7403 239.858
-300.851 -38.6335 266.927
-335.094 42.5823 258.441
-344.079 -45.3746 272.751
-365.165 35.4299 218.802
-277.905 -28.4796 262.428
-362.301 32.1774 219.755
-297.378 -73.3272 298.802
-246.211 -3.89475 305.262
-409.599 18.2567 292.353
-339.141 -41.6538 268.497
-420.725 10.2032 305.81
-288.34 -87.3269 314.465
-278.814 -4.02506 254.758
-385.164 31.412 260.947
-289.693 -112.453 348.214
-315.02 1.59447 238.55
-323.297 70.5325 298.396
-290.586 52.8432 313.374
-351.005 51.1769 247.118
-361.843 -11.341 240.466
-362.863 56.7538 242.502
-298.472 22.8414 274.558
-312.698 -23.4156 250.978
-336.547 45.4566 258.403
-418.834 -48.2827 289.43
-216.16 3.82437 354.287
-349.083 41.0388 241.796
-323.778 -7.00324 241.783
-334.737 31.293 246.383
-274.117 -30.3459 262.997
-309.955 7.63503 250.801
-367.701 25.6952 212.609
-371.071 -10.579 237.574
-354.998 -41.1365 275.508
-367.567 24.8269 211.858
-359.163 -22.9393 249.553
-340.172 -34.1216 261.202
-390.137 -15.7769 242.879
-268.939 -59.3145 286.552
-260.799 3.47486 292.008
-342.316 41.8995 243.301
-271.3 -73.5788 300.22
-333.726 34.7935 254.524
-271.687 -76.5432 302.863
-316.511 -5.75622 240.927
-282.013 -6.79037 258.931
-250.925 -94.784 322.202
-325.797 53.0588 274.518
-373.618 -5.49208 232.041
-224.408 -53.241 287.115
-365.383 -20.0522 247.382
-381.058 -17.5295 242.707
-268.206 4.18671 270.631
-362.05 -62.8451 294.864
-246.402 10.0688 316.195
-289.738 28.3527 288.991
-257.73 13.8373 305.477
-364.981 -63.6086 296.096
-351.539 61.5339 254.746
-337.574 -22.0708 249.694
-278.918 15.7429 283.232
-292.261 -79.9555 309.42
-288.055 12.6557 270.33
-307.836 -14.1146 247.527
-270.637 -29.6526 264.417
-266.809 -32.9548 268.493
-349.885 5.58057 226.814
-295.91 -57.0802 283.689
-228.169 -49.915 285.872
-342.477 -31.8792 258.555
-254.119 -83.5921 310.67
-298.482 -60.5202 285.165
-227.242 12.3211 340.462
-264.414 17.7602 306.665
-271.369 19.7119 297.737
-272.681 20.0591 300.423
-259.931 10.0212 299.34
-269.914 -10.013 273.253
-255.657 -57.7271 288.042
-273.231 -41.7321 271.422
-264.911 -37.042 269.497
-249.839 -37.133 273.968
-282.01 -46.1781 275.292
-265.45 7.59796 285.76
-258.411 0.792831 295.807
-218.488 -28.9986 310.046
-281.251 -67.0727 292.124
-283.875 -99.7664 327.353
-303.745 39.5156 284.4
-282.531 -117.921 352.139
-361.586 -11.2223 240.089
-222.131 10.3029 341.498
-397.221 -26.4888 255.299
-257.824 -41.9529 274.898
-242.428 20.8682 330.311
-228.468 -69.3123 298.027
-257.782 8.99205 304.886
-284.562 -61.8158 287.687
-270.727 -8.2828 266.233
-355.602 60.6267 250.304
-259.228 2.0039 297.919
-274.994 -7.45743 255.021
-227.158 -38.2044 287.668
-254.393 -0.210818 300.637
-196.375 -50.7756 305.872
-354.247 13.1323 220.773
-274.244 -26.9366 262.292
-235.182 -43.1932 283.388
-286.36 -25.8555 258.803
-241.274 -40.3218 278.298
-314.376 -16.4493 247.012
-234.901 -57.0278 288.386
-314.611 -23.4572 252.547
-246.079 -58.1595 287.962
-311.216 -30.0919 260.063
-362.4 -2.24302 232.088
-264.206 -16.3935 271.117
-298.124 -53.4378 280.75
-329.142 -44.5695 270.941
-275.514 13.9304 281.105
-266.206 -17.6103 268.536
-384.594 -23.4792 250.513
-207.518 2.07552 352.77
-298.107 -78.4656 305.413
-320.704 53.7032 281.907
-251.496 -0.347024 300.92
-336.837 41.4638 251.378
-339.395 10.1221 225.39
-294.819 17.9202 272.31
-268.71 -6.04304 270.933
-289.171 19.7976 277.697
-343.317 35.5054 240.417
-366.451 -4.20156 233.202
-360.288 23.4872 215.293
-256.528 -35.1856 269.689
-363.985 9.1954 221.886
-313.771 -29.5121 258.01
-355.111 74.3311 262.842
-345.405 -18.7084 247.184
-359.303 46.8945 230.492
-344.425 51.3524 255.037
-367.541 -11.1437 239.472
-277.564 -67.3974 294.15
-339.419 -36.0455 263.592
-303.38 -12.9983 245.781
-313.593 -53.1549 278.963
-328.218 -56.3668 283.118
-268.207 -82.784 308.448
-280.677 25.2556 292.02
-265.26 -97.9775 324.368
-342.655 -63.5986 292.74
-274.715 -105.395 334.281
-323.461 -15.2376 246.651
-258.864 13.5456 305.012
-203.408 -21.5244 333.015
-274.72 18.0988 283.996
-278.041 19.3344 282.075
-332.327 27.2068 242.972
-403.236 -36.6251 266.026
-271.367 14.2806 291.747
-250.175 1.49839 303.77
-308.151 32.6728 273.303
-327.303 40.4089 262.917
-318.62 -15.3493 246.345
-211.542 -23.9537 322.552
-267.131 -10.6321 271.014
-298.451 5.43342 257.006
-274.879 -56.2665 283.957
-247.493 5.86742 311.154
-274.195 -23.7129 259.896
-367.408 46.0011 234.385
-302.806 -8.70624 245.006
-298.276 -13.7336 251.114
-341.2 69.5249 270.998
-300.812 -20.7098 251.833
-289.81 -34.2534 263.426
-334.654 62.9716 265.927
-287.697 -37.7417 267.422
-274.616 -48.0285 277.172
-338.46 -15.7377 244.397
-329.377 -37.439 264.819
-338.334 38.2959 245.699
-351.017 37.5064 237.06
-262.837 9.24954 298.054
-324.997 26.9834 243.144
-203.029 -24.4393 330.582
-357.395 19.749 214.716
-202.135 -41.8868 317.484
-330.115 1.38431 231.949
-317.02 -3.493 237.928
-267.289 -34.3385 267.702
-270.726 -33.7729 265.542
-224.309 -52.6781 287.677
-370.923 -7.57935 234.04
-292.876 -33.3771 261.998
-203.433 -64.0069 298.788
-376.161 -16.0361 242.582
-273.873 -51.5141 279.558
-355.784 -14.9043 242.87
-285.382 -49.2618 277.429
-378.99 -19.4375 245.057
-349.547 -30.6311 257.365
-244.427 -67.7438 295.197
-256.273 -85.6032 312.13
-299.784 56.2935 306.576
-349.282 54.9052 251.864
-279.982 29.1887 302.462
-339.431 42.3791 250.266
-353.775 38.8368 234.725
-230.742 -0.400465 321.204
-344.068 33.3924 238.579
-305.476 -7.34367 244.048
-317.123 -9.8267 243.157
-300.789 -17.3703 252.831
-242.451 -43.2435 278.346
-213.341 -56.0135 293.514
-216.032 -55.4494 291.95
-282.327 -39.2546 269.77
-338.095 -22.9438 251.061
-296.528 -36.5362 266.551
-377.085 -13.3313 239.994
-346.912 -28.5907 258.629
-351.312 -28.5023 256.232
-296.386 -49.2373 276.476
-277.209 -63.7168 290.732
-284.121 -61.6399 288.161
-237.351 -77.3337 304.414
-291.09 -62.5192 291.047
-397.746 -35.1957 264.389
-297.705 -73.0542 297.831
-384.791 -53.8927 286.063
-261.249 -92.7084 319.793
-328.422 -25.3679 253.277
-324.739 81.424 304.769
-316.9 65.6457 297.095
-320.487 50.1171 277.54
-309.694 -7.36023 244.675
-310.011 44.3893 283.004
-275.473 -58.2853 283.589
-336.74 51.0027 260.48
-258.756 27.5916 320.698
-334.851 45.5797 260.168
-330.124 43.1235 261.031
-344.705 44.5863 248.524
-266.833 18.9957 301.955
-293.082 26.4333 283.12
-300.48 27.6467 276.703
-314.579 30.1267 269.33
-338.591 32.5443 241.752
-213.696 -15.5595 327.133
-344.962 26.9624 228.391
-352.158 26.2866 223.428
-268.59 2.4944 270.909
-300.236 6.02254 257.123
-361.024 24.3668 210.756
-210.381 -36.0374 311.778
-275.871 -16.9056 264.364
-292.137 -14.0042 250.491
-279.833 -19.0373 257.337
-292.136 -22.6177 258.864
-280.973 -30.8595 263.864
-315.235 -20.4091 251.243
-360.48 -9.83619 237.1
-211.189 -57.9333 294.948
-301.179 -33.7142 263.475
-286.651 -38.663 267.916
-328.933 -26.2553 254.432
-305.615 -39.5071 266.503
-277.509 -51.4336 278.938
-400.677 -14.6269 241.244
-310.259 -52.9187 279.172
-308.513 -54.5013 281.932
-269.195 -66.4519 292.4
-310.53 -56.1444 282.513
-275.509 -68.2775 293.944
-349.995 -49.4613 277.725
-300.63 -70.4483 296.408
-263.727 -87.2761 313.259
-329.541 -67.9552 296.652
-408.051 -52.7758 291.368
-309.783 61.7338 301.4
-297.621 55.1937 307.609
-361.622 60.6751 246.136
-351.204 56.4527 252.22
-294.924 37.8678 291.446
-292.821 36.7521 291.329
-218.839 14.4526 353.182
-323.692 42.9425 269.936
-321.696 41.6124 268.516
-320.555 40.5555 269.617
-335.673 44.3042 258.033
-331.32 41.5124 258.768
-346.824 45.9511 247.16
-251.72 6.24757 307.128
-234.832 -2.04988 316.173
-370.719 -36.1478 266.305
-242.272 -4.15841 306.032
-225.357 -12.1118 317.532
-227.39 -12.761 315.307
-231.141 -12.3534 313.145
-204.171 -23.4585 329.068
-342.021 22.219 230.036
-283.699 1.50176 261.001
-281.163 -7.14294 258.187
-217.04 18.2826 348.199
-295.339 -19.2885 253.095
-281.083 -27.5509 259.651
-309.364 -19.9792 250.823
-291.815 -30.6366 260.639
-326.031 -20.6251 250.825
-321.991 -24.2808 253.337
-307.186 -30.6112 260.028
-206.178 -66.4647 300.967
-305.489 -35.2879 265.521
-256.251 -59.2834 287.162
-263.264 -62.5096 289.103
-214.873 -59.7758 324.325
-331.175 -43.6235 271.613
-353.953 -46.5671 274.12
-269.196 -74.843 302.075
-325.163 -58.9377 284.281
-327.902 -56.8892 285.503
-346.618 -59.6738 288.558
-404.464 -43.3059 277.217
-333.121 -67.6974 296.152
-220.203 -41.7109 347.483
-319.783 66.8379 295.531
-352.992 53.6365 247.413
-350.446 41.1174 238.741
-263.739 -93.285 320.702
-275.902 14.313 281.792
-270.594 -108.249 339.954
-202.974 -12.9236 343.505
-242.339 -8.61578 302.304
-366.247 26.0238 211.139
-226.515 -24.3478 304.591
-277.694 -5.61947 255.705
-260.309 -16.5925 276.132
-218.711 -43.2159 341.982
-201.339 -42.5475 316.493
-212.301 -53.7266 324.926
-335.701 -2.14568 234.713
-245.794 -66.1488 372.987
-206.451 -46.586 306.472
-305.951 -12.5277 246.453
-337.314 -3.76652 235.46
-298.49 -17.4347 250.337
-206.918 1.82703 350.457
-238.986 -40.6016 279.579
-238.812 -59.7086 291.415
-236.754 -41.8734 279.232
-240.099 -41.0351 276.748
-350.844 -1.92755 229.651
-313.713 -21.0617 252.015
-210.958 -54.9356 294.565
-353.908 -10.0609 239.877
-321.63 -62.2101 288.199
-353.943 -13.1758 241.07
-383.987 -40.1291 268.613
-232.713 -53.2962 287.68
-236.88 -56.2238 364.912
-267.358 -43.4508 273.575
-211.608 -53.9528 322.859
-298.044 -38.172 267.491
-256.378 -74.7864 382.344
-328.869 -29.2433 257.006
-303.331 -40.8748 269.198
-344.609 -34.5225 261.336
-385.106 -31.3045 259.554
-345.632 -61.3594 289.794
-295.831 -69.3145 295.034
-358.34 -61.6357 293.152
-236.22 -55.7006 362.858
-356.171 -67.1357 300.394
-233.346 -62.2042 353.701
-331.26 54.8571 271.439
-255.496 -73.1216 381.36
-359.371 61.0263 248.457
-256.664 -75.7329 383.841
-350.837 58.5888 254.734
-257.933 -32.0021 268.961
-305.585 38.9224 283.335
-306.902 -17.904 254.167
-334.527 43.2543 260.097
-292.909 -20.4111 252.404
-289.846 29.9159 291.004
-288.789 29.346 291.315
-257.24 6.33141 301.496
-262.748 -0.628015 287.557
-323.638 15.1986 243.136
-220.782 -23.2811 311.076
-291.409 -2.48186 256.749
-286.973 -64.8978 289.784
-215.654 -31.1972 308.476
-364.789 -23.5801 246.589
-258.057 -16.7826 278.213
-310.092 -55.2833 279.26
-208.511 -34.5189 315.701
-253.323 -94.3023 320.24
-287.16 -6.99307 256.816
-213.352 -29.6374 346.041
-329.357 4.67514 229.95
-215.782 -45.1481 337.041
-272.041 -14.9721 265.917
-281.315 -11.887 259.129
-278.696 -12.7757 256.817
-276.625 -14.4682 261.498
-297.797 -16.7116 251.219
-239.257 -39.1071 278.195
-247.254 -52.7781 283.566
-241.505 -42.2956 281.627
-270.878 -31.1653 265.187
-277.162 -95.3995 400.686
-221.399 -48.8979 289.308
-260.471 -93.0723 373.995
-357.787 -6.22151 233.402
-330.374 7.42725 226.965
-239.49 -45.4717 279.393
-325.777 2.0969 232.361
-268.397 -36.8084 269.014
-284.982 -38.6649 268.688
-332.323 -33.969 262.207
-232.914 -69.495 297.883
-335.742 -37.4722 264.531
-338.858 -40.5415 267.579
-292.79 -60.78 287.19
-318.204 -55.3817 281.887
-403.522 -29.3168 258.537
-396.499 -32.7788 264.623
-304.766 -63.6743 292.061
-301.693 -65.659 292.23
-237.504 -75.4483 302.659
-316.455 -31.7776 257.025
-296.689 -70.1814 295.904
-299.503 -44.1753 270.591
-404.07 -44.5324 276.408
-341.05 -23.5762 247.388
-418.469 -46.2265 285.003
-280.16 -64.546 290.704
-419.94 -48.1413 289.698
-350.253 -16.6955 233.731
-410.615 -50.9552 289.347
-362.935 -19.3926 244.49
-270.955 -92.0511 319.196
-246.434 82.4852 304.426
-387.935 -17.8201 244.925
-252.544 3.93707 303.559
-256.917 5.19398 300.172
-233.151 -15.8276 305.485
-212.639 -23.6226 320.967
-315.893 -16.4019 247.636
-332.377 -49.6365 282.421
-304.301 34.3319 278.498
-266.625 -32.6739 268.353
-309.98 -8.92145 243.881
-305.767 29.4981 273.225
-212.273 -38.8256 308.945
-300.98 -13.0334 247.512
-315.752 -28.3583 256.672
-343.672 3.4453 229.166
-343.549 55.7693 257.319
-312.469 31.8405 268.634
-332.012 38.8071 255.466
-348.288 48.4432 249.809
-218.401 -35.7369 305.743
-203.174 -46.5071 308.596
-335.511 -9.27297 239.57
-370.027 -28.9359 250.738
-309.621 32.8895 271.611
-205.646 -43.5948 311.426
-271.776 -98.0357 328.759
-293.178 -33.2881 262.235
-274.29 -11.786 261.425
-296.408 -19.0121 250.851
-310.053 -16.9234 247.08
-391.547 39.2885 275.658
-285.292 -35.5018 265.473
-301.036 7.08841 259.209
-313.941 -22.7124 251.188
-222.326 -2.66993 333.657
-262.013 12.8076 306.879
-363.14 -61.742 288.564
-256.86 8.6405 307.81
-202.031 -61.9579 297.739
-355.075 20.2649 218.046
-296.262 -22.8526 254.352
-268.598 -98.0054 328.436
-204.163 -23.7732 331.034
-312.752 46.5559 280.242
-318.003 49.2165 277.709
-229.34 -23.2165 305.361
-268.214 -9.60245 267.977
-235.105 -43.0493 279.802
-209.328 -25.2646 324.299
-274.622 15.2971 281.317
-216.144 -30.2247 310.641
-225.921 -26.1555 306.542
-262.933 9.54484 299.022
-337.121 43.1459 254.019
-238.181 -38.0776 270.642
-268.135 2.12072 266.898
-365.224 52.5379 237.568
-262.124 -17.6058 274.721
-239.87 -69.488 299.063
-297.841 29.4832 280.511
-294.87 -64.5257 290.817
-263.248 -0.707627 289.33
-274.722 1.57589 257.449
-263.675 -17.9674 272.164
-286.781 -5.65513 258.317
-247.716 -39.1756 274.988
-262.249 -82.8494 307.078
-314.969 -13.5845 244.892
-318.707 -68.0112 296.325
-263.387 -18.4913 272.746
-346.751 80.6549 278.435
-208.426 -51.0943 317.823
-290.583 -29.2803 259.97
-344.794 29.8785 234.286
-237.994 -57.4679 290.531
-297.17 -25.5973 255.547
-310.073 -30.7827 259.107
-269.003 -10.5701 271.687
-273.073 -14.7205 266.038
-207.13 -62.9916 301.867
-214.901 -38.1933 307.355
-219.459 -57.6188 294.29
-314.727 -13.6033 243.996
-332.797 -65.0566 293.643
-273.879 -48.1949 276.685
-322.987 67.2821 290.503
-269.969 -53.5881 282.163
-287.021 -88.9717 315.722
-337.509 38.5274 255.31
-215.955 -47.5257 337.205
-268.206 2.97497 270.502
-268.802 -3.85125 263.154
-213.465 -60.3349 295.424
-269.711 -44.9432 274.188
-256.029 -65.5353 293.777
-242.966 -38.3704 276.256
-268.867 5.26102 267.746
-334.607 -9.50968 238.841
-262.096 -16.7216 274.654
-358.967 -0.117611 227.107
-251.121 -37.2116 272.259
-270.924 -95.6708 320.668
-280.031 -20.6987 256.742
-279.242 -2.13462 255.653
-291.494 -14.2307 249.868
-272.77 -12.6861 264.564
-270.192 -5.24745 268.487
-290.753 30.9625 291.857
-235.144 -33.8487 274.973
-222.949 -10.7048 323.485
-371.176 -13.3022 240.607
-271.071 12.6448 293.072
-364.21 106.903 302.147
-280.745 -6.82709 262.211
-283.603 -22.5252 257.751
-281.14 -29.8758 261.688
-296.27 -67.7609 296.161
-233.849 -70.103 298.165
-358.265 102.987 291.32
-365.095 63.0027 247.989
-242.515 -62.3585 292.487
-233.545 -50.5523 284.223
-255.221 -75.0852 303.157
-297.914 -11.7229 247.641
-247.144 -85.2981 312.358
-211.314 -28.6248 321.345
-358.388 16.8982 220.541
-266.056 -59.6613 288.733
-348.751 -5.73731 233.447
-277.019 -69.2319 297.096
-365.714 109.79 292.547
-278.849 23.0474 293.856
-363.446 105.728 292.747
-364.896 100.593 287.935
-272.161 11.7678 294.586
-207.309 -36.417 309.313
-229.333 -52.1713 286.41
-312.725 -30.1344 260.144
-260.042 -80.0666 308.106
-293.832 -65.7195 293.129
-347.86 -28.7687 255.712
-376.342 -27.8236 256.993
-338.9 -67.0397 297.774
-341.701 -70.8727 303.899
-422.658 -46.3158 285.652
-285.236 48.713 314.402
-370.322 31.113 224.105
-269.626 7.42078 299.337
-384.159 9.35708 229.425
-272.991 14.9131 285.438
-217.774 -59.1649 293.642
-281.731 -20.8033 253.275
-252.547 -67.9304 296.154
-425.49 6.55596 311.981
-275.624 -55.9511 283.821
-243.356 -80.5638 309.214
-202.921 -20.1828 335.83
-339.68 -17.4758 246.911
-290.295 -51.7329 280.086
-357.983 -4.23356 232.961
-358.045 -13.2631 239.229
-323.002 -61.1859 291.236
-292.626 -83.0027 311.762
-263.544 10.3162 300.616
-272.466 15.9484 281.525
-387.541 47.079 284.33
-271.081 2.06208 274.793
-253.926 27.2398 322.471
-269.017 -1.9899 280.809
-390.842 45.6396 279.258
-271.157 -5.82911 261.244
-297.33 -38.4059 267.454
-260.507 -78.7286 305.301
-327.343 -31.6413 258.128
-286.319 -64.5623 292.857
-383.312 47.1399 271.192
-335.573 -32.4496 259.347
-349.175 -26.7784 255.097
-416.368 23.1696 306.33
-369.41 -22.9872 249.716
-353.955 27.9219 223.953
-267.995 -99.8042 328.351
-340.308 -49.1186 276.21
-379.187 -32.3425 259.719
-206.024 -20.2948 329.507
-269.185 -7.7331 260.867
-276.469 22.477 297.117
-361.708 73.1873 258.338
-227.992 -31.158 301.852
-357.885 59.3932 249.904
-290.529 -3.42697 254.784
-245.394 -38.7051 274.206
-226.736 -58.2111 291.616
-416.339 40.5609 329.878
-229.607 -58.0293 291.213
-239.828 6.01811 316.334
-294.531 -36.2322 263.677
-318.709 -29.1766 258.378
-258.163 -81.2509 309.736
-273.453 -74.3984 302.43
-305.106 -59.2479 285.314
-199.116 -35.526 328.711
-336.653 -38.3551 265.339
-330.679 -53.7984 282.539
-372.475 -24.9468 253.407
-365.544 59.3174 244.984
-208.321 -41.5965 311.128
-365.962 54.9791 240.936
-210.848 -42.9121 308.008
-241.894 -45.3126 278.432
-349.333 -59.2992 286.502
-269.274 -36.0931 270.279
-354.319 -63.4202 293.387
-248.812 -51.4528 283.081
-361.965 83.875 267.776
-350.368 7.95796 227.4
-341.661 3.4871 229.385
-291.603 -30.6206 260.682
-343.963 5.18785 226.184
-357.889 -5.98796 235.396
-327.153 -27.1035 254.666
-354.28 -5.61637 229.369
-355.264 -8.23224 233.95
-309.292 -43.0135 269.613
-333.408 39.091 255.144
-322.006 -41.4397 267.719
-364.75 57.0924 241.859
-321.093 -48.8186 276.242
-330.705 -40.2259 266.189
-342.616 -33.6788 260.2
-357.164 -27.9921 256.449
-387.445 30.6315 258.027
-331.874 -49.454 279.331
-332.862 -56.6762 285.056
-344.424 -52.5079 281.91
-375.999 26.9503 228.474
-280.934 -99.2102 330.003
-375.168 25.3555 227.862
-365.138 -40.5489 270.066
-251.512 -0.881025 299.8
-337.422 -70.7547 304.493
-263.654 18.9236 308.514
-298.313 5.40369 257.839
-270.019 13.1598 294.442
-342.416 15.593 227.491
-247.291 -4.17724 307.208
-270.455 11.0902 290.575
-275.884 13.1946 285.528
-406.601 8.3551 272.339
-264.177 -0.562241 292.156
-344.696 6.90414 230.621
-270.817 -4.92849 268.834
-276.514 -3.45229 254.843
-273.621 -15.5438 261.257
-332.404 11.799 231.485
-227.011 -50.9826 288.504
-238.644 -42.2685 279.952
-346.537 13.2169 224.867
-246.758 -23.0918 282.601
-341.035 6.19058 226.15
-316.278 -8.14601 240.024
-233.552 -68.8241 296.67
-345.541 2.96701 230.425
-274.148 -48.0857 277.753
-278.255 -47.2172 278.432
-302.966 -31.3033 258.991
-306.43 -40.2471 269.223
-313.62 -28.1605 254.865
-289.794 -60.1858 289.471
-353.035 -23.7658 251.776
-312.378 -42.5114 270.396
-414.326 -25.0284 257.099
-259.279 -92.9682 320.999
-292.217 -83.8172 314.182
-365.425 -39.3896 268.258
-337.488 -60.1773 289.58
-269.789 10.4773 290.5
-341.001 -60.3838 287.636
-365.276 67.0194 252.32
-366.723 55.3556 240.168
-271.608 -16.6463 262.736
-278.397 -48.1144 278.462
-354.217 83.4349 280.63
-347.533 -24.1337 252.525
-242.067 -58.0736 372.314
-363.209 65.9459 251.631
