0.294886 -0.235209 2.82934
0.336176 -0.214274 2.80687
0.458023 -0.258277 2.86998
-0.455136 -0.0757075 3.44132
-0.455485 -0.0743098 3.26427
-0.461763 -0.225137 3.33218
-0.445242 -0.234783 3.3504
-0.441986 -0.012512 3.20677
-0.456534 -0.173874 3.28145
-0.453163 -0.0256651 3.1876
-0.435114 0.0198055 3.13168
-0.451474 -0.1617 3.1786
-0.438797 -0.191013 3.2017
-0.363622 -0.267569 3.31138
-0.44671 -0.0942857 3.1328
-0.443672 -0.110127 3.12928
-0.437536 0.258458 2.88745
-0.374013 -0.308657 3.28743
-0.452228 -0.31092 3.20662
-0.44194 0.0493431 2.96129
-0.445931 -0.149811 3.04588
-0.441699 0.122018 2.84138
-0.434038 0.101862 2.84159
-0.441901 -0.42988 3.18509
-0.354943 -0.446371 3.1996
-0.441657 -0.393638 3.07367
-0.444074 -0.382377 3.04401
-0.444301 -0.375812 3.02584
-0.445336 -0.361177 2.99663
-0.444823 -0.348846 2.97864
-0.440814 -0.333682 2.96002
-0.267207 -0.355174 2.9795
0.0962964 -0.334837 2.9632
0.181679 -0.296797 2.93239
0.15052 -0.144263 2.73068
0.264376 -0.309899 2.91738
-0.452821 -0.0389491 3.37156
-0.459252 0.00990175 3.32644
-0.456164 -0.0901557 3.34604
-0.444544 0.343834 3.00295
-0.447549 -0.0472229 3.21363
-0.459065 -0.24041 3.29048
-0.455797 -0.176478 3.25351
-0.449801 -0.0959533 3.19346
-0.415286 -0.267892 3.31729
-0.454518 -0.393528 3.24145
-0.445889 -0.173036 3.07252
-0.435508 0.15126 2.81254
-0.437958 0.102022 2.83077
-0.429132 0.151738 2.75775
-0.215149 -0.432336 3.19552
-0.258016 -0.422547 3.11676
-0.280743 -0.324287 2.92447
-0.191752 -0.365472 3.01813
-0.254373 -0.285853 2.88817
-0.306028 -0.211871 2.79017
-0.0437207 -0.370812 3.02891
-0.158885 -0.212595 2.78934
-0.0216435 -0.35865 3.00252
-0.134257 -0.174078 2.73981
-0.0431189 -0.233779 2.81098
0.176466 -0.299359 2.92153
0.181629 -0.307984 2.92085
-0.460922 -0.0140511 3.35952
-0.443717 -0.254576 3.32238
-0.410385 -0.242993 3.33071
-0.460357 -0.213346 3.26342
-0.451306 -0.210391 3.26395
-0.450306 -0.0945803 3.18345
-0.453272 -0.0736232 3.15071
-0.457418 -0.244695 3.22816
-0.453235 -0.137833 3.15907
-0.447801 -0.0730906 3.10837
-0.449652 -0.419825 3.23032
-0.450639 -0.114226 3.02252
-0.1884 -0.275081 3.33578
-0.237374 -0.283888 3.28206
-0.43547 0.170999 2.81054
-0.225896 -0.298134 3.28344
-0.412931 -0.438434 3.21883
-0.438273 -0.0222196 2.90571
-0.436064 0.0877424 2.83031
-0.387351 -0.429199 3.21779
-0.164737 -0.293125 3.28723
-0.452291 -0.427483 3.15349
-0.361348 -0.431118 3.21858
-0.420126 -0.438254 3.17131
-0.38582 -0.442013 3.18658
-0.439656 -0.416645 3.10622
-0.371976 -0.424498 3.15264
-0.0642169 -0.287452 3.27749
-0.285832 -0.438352 3.18525
-0.432828 0.00770489 2.74111
-0.198344 -0.434833 3.21172
-0.184385 -0.434793 3.21147
-0.100814 -0.43742 3.21453
-0.308668 -0.129769 2.70281
-0.272267 -0.164846 2.74169
-0.0560776 -0.381174 3.05044
-0.16432 -0.295908 2.89689
-0.11598 -0.295131 2.90738
-0.105993 -0.294943 2.90152
-0.0199633 -0.36463 3.01434
-0.144913 -0.227362 2.79464
0.0490229 -0.384386 3.04921
-0.100116 -0.21534 2.79936
0.0127387 -0.361864 2.9925
-0.0171221 -0.25704 2.85166
0.00821977 -0.148869 2.71915
0.132993 -0.265175 2.86922
0.391266 -0.35185 2.98805
0.343327 -0.228094 2.83051
0.445323 -0.295267 2.91323
0.423823 -0.230187 2.82898
0.421095 -0.171575 2.76082
0.468248 -0.284208 2.88501
-0.460559 -0.165641 3.39324
-0.440933 -0.260744 3.31728
-0.444438 0.238164 3.02769
-0.451414 -0.222676 3.25816
-0.404454 -0.274092 3.32628
-0.452303 -0.211757 3.2267
-0.449084 -0.135688 3.17828
-0.449538 -0.217531 3.22542
-0.44654 -0.111849 3.16243
-0.44758 -0.175933 3.19607
-0.446371 -0.0109573 3.08921
-0.447809 -0.110069 3.14722
-0.445549 0.235973 2.87771
-0.436454 0.206314 2.8776
-0.445652 -0.0451835 3.02799
-0.445253 -0.0139029 2.99001
-0.450384 -0.141037 3.04274
-0.448117 -0.130829 3.03466
-0.430664 0.0452405 2.7789
-0.312874 -0.430028 3.16824
-0.422873 0.0782893 2.70427
-0.435276 -0.35787 3.00642
-0.440735 -0.34061 2.98318
-0.432548 -0.016603 2.73469
-0.268193 -0.373154 3.00728
-0.281168 -0.30104 2.9164
-0.256236 -0.320411 2.93574
-0.331145 -0.196758 2.76237
-0.296374 -0.0924282 2.66541
-0.0679826 -0.369744 3.03316
-0.171572 -0.159796 2.74128
-0.0825992 -0.269423 2.88286
-0.152399 -0.204531 2.7717
-0.0723211 -0.136221 2.72237
-0.0481454 -0.109649 2.69808
0.0693611 -0.285721 2.91569
0.0933679 -0.32251 2.94526
0.0763012 -0.254062 2.86618
0.0668644 -0.216372 2.79823
0.110678 -0.243866 2.83899
0.0743286 -0.113868 2.69434
0.413165 -0.400004 3.11346
0.250731 -0.295009 2.90309
0.215577 -0.25804 2.84023
0.416281 -0.39048 3.0753
-0.450659 -0.0392819 3.24688
-0.455055 -0.158557 3.30717
-0.454183 -0.0303401 3.19243
-0.460768 -0.281535 3.30788
-0.457738 -0.0841137 3.18206
-0.45223 -0.261685 3.27913
-0.457407 -0.263041 3.25754
-0.449287 -0.127966 3.17236
-0.451446 -0.181354 3.20195
-0.455527 -0.265883 3.23717
-0.447736 -0.11531 3.1339
-0.447065 -0.0135883 3.06384
-0.45737 -0.315099 3.23921
-0.453806 -0.371216 3.26276
-0.451913 -0.377576 3.25773
-0.448847 -0.143899 3.09443
-0.446697 -0.0384614 3.01947
-0.327183 -0.287264 3.27591
-0.443916 -0.0919096 3.04047
-0.310501 -0.280516 3.26995
-0.431656 0.226927 2.83629
-0.438608 0.141792 2.86575
-0.451201 -0.423729 3.22616
-0.435333 0.137244 2.86779
-0.443824 0.0602906 2.91096
-0.446192 -0.149689 3.02817
-0.439978 0.134181 2.84296
-0.435472 0.0942303 2.87407
-0.440689 -0.0210874 2.93716
-0.429046 0.0863686 2.83518
-0.442504 -0.0858238 2.9262
-0.439396 -0.0782796 2.90966
-0.443417 -0.0712948 2.901
-0.432405 0.0772369 2.805
-0.433418 0.0621096 2.80231
-0.42802 0.0905831 2.7712
-0.115183 -0.295572 3.27469
-0.289636 -0.440139 3.21133
-0.274416 -0.438112 3.22039
-0.334133 -0.429011 3.16426
-0.434173 0.0209013 2.75425
-0.211218 -0.437051 3.21738
-0.280358 -0.419905 3.12327
-0.411072 -0.329882 2.94192
-0.361836 -0.347753 2.97365
-0.368989 -0.108029 2.68704
-0.300333 -0.154166 2.72779
-0.283662 -0.113447 2.687
-0.267496 -0.128889 2.70136
-0.189367 -0.247661 2.8307
-0.158107 -0.249414 2.82711
-0.0413705 -0.257863 2.85507
-0.00196919 -0.298556 2.90892
-0.0101728 -0.284136 2.88747
0.11755 -0.314983 2.93826
0.142128 -0.263744 2.86157
0.142167 -0.0882968 2.68708
0.329251 -0.275158 2.89818
0.282828 -0.180632 2.77264
0.335302 -0.298721 2.91267
0.294573 -0.175739 2.7664
0.421481 -0.163455 2.76391
0.461848 -0.307302 2.92262
0.444675 -0.246373 2.84131
-0.644173 0.139765 3.28998
-0.456944 -0.0984418 3.32157
-0.4489 0.120838 3.21167
-0.455046 -0.265446 3.32948
-0.452733 -0.140762 3.23051
-0.445421 -0.271155 3.293
-0.449735 -0.0511806 3.1613
-0.447197 -0.264844 3.28737
-0.454779 -0.0791766 3.16298
-0.450204 -0.0211992 3.10416
-0.451529 -0.360381 3.26725
-0.448914 -0.136446 3.12475
-0.442765 0.0353867 3.01922
-0.444602 -0.0849827 3.08947
-0.449246 -0.134286 3.10549
-0.442524 -0.0823438 3.0273
-0.279965 -0.288227 3.27303
-0.44297 -0.0286017 2.96043
-0.430685 0.0930883 2.81328
-0.191487 -0.306306 3.2752
-0.433299 0.124333 2.78498
-0.404143 -0.441839 3.1768
-0.433723 0.0364814 2.81187
-0.440334 -0.285926 2.88262
-0.435167 -0.18115 2.75324
-0.323929 -0.199639 2.76374
-0.180862 -0.269042 2.87783
-0.110178 -0.242531 2.82578
0.00785562 -0.32667 2.95988
-0.0533429 -0.216304 2.8032
-0.0762267 -0.148788 2.71064
0.000945949 -0.258941 2.85233
0.0392076 -0.16798 2.74421
0.0686963 -0.138485 2.72246
0.198386 -0.25571 2.83339
0.336843 -0.165912 2.75337
-0.354445 0.298256 2.86729
0.584903 0.399009 2.94059
-0.170637 -0.0805742 2.65635
-0.0175565 -0.285753 2.91675
0.271117 -0.0750231 2.66291
-0.464135 -0.171643 3.31003
0.297115 -0.263923 2.89139
0.433354 -0.255869 2.85376
0.432421 -0.353254 3.0218
-0.264189 -0.223686 2.80041
-0.129406 -0.12326 2.7239
0.0514877 -0.0626001 2.65998
0.19767 -0.0611767 2.66497
0.446347 -0.132465 2.73206
-0.441707 0.110326 2.84916
-0.436766 0.116474 2.76771
0.0976894 0.197057 2.79278
-0.16272 -0.208082 2.78629
-0.115403 -0.157494 2.73749
-0.426715 0.0469601 2.68821
0.0911619 0.187416 2.80772
0.556612 0.256789 2.85725
0.0141193 0.0265627 2.69208
-0.267535 -0.121556 2.68948
0.144934 0.0345673 2.6462
-0.0328501 -0.370871 3.04717
0.125666 -0.215196 2.81085
0.401778 -0.0527349 2.66599
-0.454237 -0.0471534 3.06612
0.0572054 0.104071 2.73124
0.0202254 0.0389141 2.70104
0.0768963 0.0204045 2.67947
0.101253 0.0227149 2.64345
0.175107 0.00310711 2.67938
-0.0479426 -0.246831 2.84413
0.122754 -0.128398 2.72305
0.335564 -0.237518 2.8395
0.479012 -0.219517 2.82726
-0.086296 0.165426 2.7943
-0.262136 -0.0601025 2.6492
0.0653619 0.0648485 2.70439
-0.302387 -0.141884 2.71789
-0.150091 -0.277663 2.88032
0.0664585 -0.215374 2.8111
0.0927802 -0.171982 2.75918
0.569273 0.0145149 2.68978
-0.407366 0.163059 2.78023
-0.456062 -0.0308934 2.91878
-0.442514 -0.290598 3.27449
-0.0151642 0.154946 2.79407
-0.0516704 0.120601 2.76064
-0.44307 -0.0918771 2.67148
0.0542484 0.123922 2.76531
-0.451549 -0.247699 2.83227
0.0903805 0.103949 2.68488
0.0781763 0.0428202 2.6804
0.0791749 0.0345724 2.64051
0.481353 0.116732 2.76871
-0.144156 -0.196413 2.77805
-0.108521 -0.291291 2.90198
0.0198692 -0.12098 2.71534
-0.0527251 -0.265255 2.87148
-0.0108672 -0.293528 2.91262
0.179105 -0.0464654 2.65674
0.0206537 -0.251286 2.85695
0.148469 -0.172367 2.76066
0.241451 -0.242137 2.86686
0.260313 -0.235622 2.85495
0.464782 -0.0515313 2.66385
0.353235 -0.27885 2.90754
0.476451 -0.177009 2.77953
0.457253 -0.233386 2.84488
0.605787 -0.0747114 2.70165
0.505655 -0.189083 2.76889
0.0694332 -0.274306 2.88771
-0.435904 -0.250186 2.96548
0.474325 -0.136724 2.74077
0.207434 -0.0292438 2.66124
0.00320865 -0.267282 2.8826
-0.177648 -0.102431 2.67654
-0.361863 -0.256093 2.83584
-0.059062 -0.286667 2.90165
-0.200185 -0.102941 2.67749
0.297765 -0.161663 2.75943
-0.0549277 -0.055563 2.66348
-0.128883 -0.188665 2.77015
0.0389093 -0.248378 2.85451
-0.158283 -0.0478644 2.64448
0.000588846 -0.150252 2.72892
-0.361158 -0.403928 3.11258
0.512997 0.14277 2.80608
0.21504 -0.0384953 2.65895
0.178671 -0.000581384 2.68693
0.0253628 -0.430983 3.20381
-0.4381 -0.0802654 2.91828
-0.170601 -0.295705 2.88324
0.113356 -0.0795255 2.67838
-0.27667 -0.410685 3.10054
-0.253979 0.0342714 2.67868
0.0579229 -0.212949 2.80267
0.154169 0.151957 2.77623
-0.426102 -0.4348 3.23298
-0.436271 0.0134678 3.17996
-0.458533 -0.228172 3.3512
-0.440803 0.0430244 2.79853
0.264467 0.299728 2.90119
-0.441144 -0.0731276 3.0475
0.460382 -0.345638 2.97219
-0.44073 0.123157 2.93893
0.454071 -0.362626 3.02737
-0.272677 0.167799 2.78412
-0.063152 -0.208036 2.80136
-0.0749291 0.232087 2.83732
-0.440396 0.15956 2.92038
0.178125 -0.121499 2.71268
0.0492307 0.303797 2.9056
-0.258803 -0.39469 3.10878
0.490093 -0.170532 2.78171
0.396428 -0.370607 3.05704
-0.399106 0.0494119 2.68508
-0.344457 -0.377422 3.04644
-0.438046 -0.058256 2.88372
0.325876 -0.175338 2.77355
-0.192009 -0.276473 2.87957
-0.173916 -0.130816 2.70631
-0.0313861 0.216531 2.82268
0.201463 -0.154401 2.74459
0.530471 -0.357652 3.01419
0.225175 -0.147014 2.73813
0.464987 -0.337041 3.01084
0.363536 -0.0518484 2.67539
-0.265494 -0.391477 3.05805
0.535713 -0.188674 2.80251
0.495532 -0.0526641 2.68797
0.0641575 0.0444939 2.68426
-0.328886 -0.048537 2.61489
0.598209 0.201316 2.84534
-0.176284 0.017697 2.67753
-0.296809 0.0107863 2.66564
-0.243845 -0.0376242 2.63734
-0.4403 -0.0233537 2.64323
0.00288379 0.116832 2.75318
0.467886 0.172443 2.82009
0.116471 0.302286 2.90794
-0.142543 0.324337 2.91457
-0.424865 0.248843 2.84085
-0.145416 -0.172839 2.75114
0.625596 0.160816 2.81208
0.517773 -0.274086 2.92355
0.452625 -0.347816 3.00172
0.485385 -0.252117 2.87514
0.330706 -0.153883 2.75933
0.240598 -0.16144 2.75648
-0.308494 -0.299676 2.89891
0.314573 0.201746 2.85258
0.251924 -0.0653853 2.68059
0.32728 -0.224655 2.83267
0.459155 -0.0862971 2.69757
-0.145563 -0.212056 2.80296
0.133674 -0.111378 2.70493
0.464302 -0.1637 2.77534
-0.152469 -0.287764 2.88074
0.0793459 -0.111864 2.70504
0.236215 -0.0933679 2.68707
0.330534 -0.136425 2.73547
-0.272546 -0.13378 2.69523
-0.361767 -0.153297 2.72037
-0.0251316 -0.0622296 2.66104
-0.30309 -0.0398731 2.62171
0.344803 -0.0361494 2.66769
-0.171781 -0.060671 2.63765
0.600227 0.0583626 2.75601
-0.255178 -0.0597138 2.64374
0.00485835 -0.193902 2.79865
-0.440275 -0.0221026 2.97442
0.483351 -0.147456 2.7482
-0.00448465 0.148002 2.77704
0.0668243 0.170245 2.79093
0.000280919 0.167505 2.79765
0.132629 -0.161575 2.75838
0.424877 0.0983787 2.76555
-0.202405 0.154168 2.77516
0.190895 -0.141019 2.7387
0.350501 -0.0429891 2.66432
0.23459 0.0305278 2.70912
0.393131 0.196201 2.86361
0.507649 -0.221574 2.85136
-0.297624 -0.152222 2.71705
0.405301 -0.225218 2.8495
0.031356 -0.153079 2.74537
0.573906 0.170609 2.82964
-0.446072 -0.0174683 3.03691
0.472246 -0.240415 2.82662
0.485162 -0.0529579 2.66547
-0.431093 -0.343738 3.15759
0.14009 -0.225943 2.8355
0.226352 -0.109069 2.70449
0.604716 0.0361021 2.74289
0.0776466 -0.0609418 2.66656
0.454719 0.165775 2.8202
-0.43836 -0.200735 2.92789
0.0629199 -0.337729 3.01354
0.0784074 -0.0167986 2.65192
0.585158 0.211977 2.85834
-0.336012 0.168143 2.7863
-0.400662 0.153683 2.75966
-0.437175 -0.0884842 3.19907
-0.407164 0.321883 2.8866
-0.433677 -0.0760521 3.15536
-0.428143 0.325918 2.91069
0.316755 -0.300183 2.93011
-0.00557685 0.127385 2.77863
-0.445894 -0.11512 3.01168
0.599991 0.0104767 2.7208
0.138746 -0.212825 2.80552
-0.0339894 -0.0744181 2.65514
-0.428492 -0.168286 3.26964
0.111347 0.00346242 2.67941
0.474166 -0.376008 3.08157
-0.282967 -0.0141891 2.6566
0.475474 -0.370977 3.06444
0.106346 -0.157396 2.75563
-0.435888 0.0408056 2.78294
-0.00082623 -0.0886841 2.70336
0.542074 0.109882 2.777
-0.333611 -0.118482 2.67356
-0.448769 0.146537 3.12931
-0.12248 0.174464 2.79458
-0.254256 -0.0842018 2.66192
0.165227 -0.234053 2.83994
0.529915 0.150116 2.802
0.0725473 -0.00421493 2.67217
0.084463 0.00713911 2.67165
0.513556 -0.0820042 2.71637
0.183345 0.0345161 2.69379
0.23569 -0.138536 2.73237
-0.428954 0.0918951 3.11919
0.140752 -0.0878175 2.67893
-0.165298 -0.159643 2.73773
-0.443285 0.0930199 2.89708
-0.440042 0.125686 2.8729
0.342944 -0.312326 2.92864
0.155697 -0.241656 2.85071
-0.287679 -0.321562 2.96015
0.12757 -0.130047 2.69878
0.0157181 -0.14551 2.72643
0.0907167 -0.179327 2.77238
0.110845 -0.120833 2.69799
0.250673 -0.115722 2.71419
-0.252006 -0.150441 2.71778
-0.261018 -0.375115 3.03159
-0.0495132 -0.175639 2.75316
0.17373 0.0130866 2.68835
-0.480162 -0.13797 2.67263
-0.30142 -0.445545 3.17446
0.309343 0.0268511 2.70482
-0.289532 -0.44745 3.20581
0.319321 0.034464 2.70339
-0.435958 0.0317499 2.79803
0.500883 0.104704 2.77612
-0.442894 0.0501743 2.97069
-0.427527 0.193285 2.90143
0.56936 0.17763 2.83441
-0.466319 -0.212098 3.32396
0.450009 0.152786 2.80731
-0.45362 -0.0732886 3.42998
0.3064 0.114049 2.77593
0.425292 -0.328048 2.9822
0.544925 0.183364 2.82049
0.280071 -0.229469 2.81608
-0.430975 -0.163876 3.10521
0.13936 -0.130351 2.71576
-0.427299 -0.156053 3.14659
-0.0374534 -0.243831 2.82613
-0.430677 -0.147106 3.1888
-0.0983916 -0.171768 2.74936
0.0382166 -0.0463413 2.64681
-0.147832 -0.223325 2.79817
0.56575 0.238893 2.87393
-0.375879 -0.0662992 2.64255
-0.273233 -0.420816 3.11118
-0.266426 -0.43793 3.18036
-0.438889 -0.323095 2.93796
-0.382121 -0.437061 3.16291
-0.439368 -0.0760192 2.76089
-0.439535 -0.119253 3.01094
0.231011 0.193434 2.82415
-0.450853 -0.228867 3.10953
-0.445558 -0.121074 3.02262
-0.439188 0.108877 2.87874
0.266037 0.226914 2.85857
0.590259 -0.383275 3.07767
-0.0874152 0.321888 2.90615
0.532892 -0.0401363 2.66347
-0.106679 0.32521 2.91892
0.439416 -0.32932 2.97445
0.321261 -0.189493 2.78397
-0.315713 -0.283827 2.88611
0.210504 -0.2441 2.84668
0.189333 -0.13594 2.73435
0.501659 -0.157625 2.78047
0.141283 -0.231514 2.83417
0.12575 -0.258158 2.86064
-0.035947 -0.224026 2.80148
0.363793 -0.174404 2.78142
-0.432553 0.180577 2.84731
0.115672 -0.133826 2.71454
0.481456 -0.27631 2.93437
0.449466 -0.0945508 2.70589
0.0926477 -0.149922 2.73782
0.360563 -0.238577 2.86275
0.0920434 -0.199163 2.78614
0.0444291 -0.104265 2.68891
-0.435999 -0.0182321 3.02065
-0.263175 -0.184395 2.75189
0.0642323 -0.316675 2.95759
0.152497 -0.0588612 2.66806
0.155128 -0.0974566 2.68535
-0.046617 -0.0916602 2.66265
0.0281778 -0.34525 2.98638
-0.0213363 -0.171032 2.75762
-0.0266862 -0.131772 2.71242
0.043378 0.17999 2.79267
-0.324015 -0.398162 3.06935
-0.0248526 -0.384199 3.06015
-0.429458 0.149752 2.76195
0.510898 -0.0464513 2.68477
-0.128326 -0.196602 2.77626
-0.281813 0.177487 2.78069
0.523566 -0.0382562 2.68144
-0.132727 -0.169358 2.74891
0.47098 -0.0746874 2.67813
-0.283718 -0.30762 2.91126
0.437796 -0.24948 2.86563
-0.464821 -0.352794 3.10452
-0.0765896 -0.333717 2.97235
-0.302724 -0.128453 2.69254
0.0131244 0.114372 2.75239
0.135785 -0.213529 2.8183
-0.44636 -0.049954 3.19427
-0.326906 -0.189315 2.76172
-0.263986 -0.388151 3.05639
-0.35594 -0.327271 2.95041
-0.463535 -0.232493 2.77175
0.586035 0.16388 2.82028
-0.434038 -0.0578879 2.62884
-0.311186 -0.449 3.18694
-0.43937 -0.211065 2.92089
0.20271 -0.127919 2.71887
-0.434196 -0.17607 3.11203
-0.0691835 -0.275473 2.88123
-0.43825 0.027397 2.78304
-0.460156 -0.384514 3.15463
-0.142005 0.306546 2.89655
-0.483018 -0.0951967 2.88125
-0.441559 -0.0566224 2.90714
-0.325006 -0.178199 2.75536
-0.436093 -0.108492 2.96586
-0.440752 -0.0135002 2.87743
0.452152 -0.396909 3.08599
-0.438135 -0.0792616 2.9495
0.135993 0.00115479 2.66549
0.386823 0.178791 2.82353
0.573847 0.162961 2.82119
0.40534 0.18203 2.83675
-0.441565 -0.0700838 2.94779
-0.438303 -0.0900308 2.98603
0.26459 -0.0944175 2.70048
-0.440743 0.0588535 2.85433
-0.432768 -0.0845138 3.11305
0.253197 -0.259237 2.85301
0.192692 0.223788 2.85735
-0.442541 -0.0491956 3.07164
0.550305 0.218459 2.88058
-0.439828 0.115149 2.8697
0.128421 -0.13823 2.72968
-0.446561 -0.140659 3.19708
-0.440291 0.161936 2.87874
-0.429823 -0.0280536 3.25718
-0.447192 -0.0811668 3.08924
-0.368362 -0.189829 2.75786
-0.458682 -0.279888 3.28946
-0.465085 -0.149374 3.34186
-0.0617365 0.200912 2.81811
0.104673 -0.100199 2.692
-0.448812 -0.167471 2.73153
0.131465 -0.000513732 2.66832
0.458357 -0.382332 3.06156
0.00039574 -0.0783208 2.67136
0.253346 -0.287124 2.8951
-0.441046 0.0181429 2.81036
-0.451827 -0.0545734 3.19021
-0.429007 -0.224826 3.13641
-0.0205428 -0.314551 2.94591
0.201691 -0.137738 2.72745
-0.435131 0.18052 2.98463
-0.0187695 -0.101501 2.68195
-0.452919 -0.121699 3.15353
0.465074 0.156552 2.81083
-0.194224 -0.100527 2.67239
-0.119065 -0.0437291 2.6334
-0.168938 -0.291304 2.8966
0.160019 -0.237651 2.81828
-0.440788 -0.172757 3.22434
0.600662 0.189347 2.85344
0.0872312 0.0517204 2.65733
0.341582 -0.0494111 2.6743
-0.190116 -0.231079 2.82228
-0.281517 -0.262857 2.84844
-0.30129 -0.178608 2.74619
-0.430109 -0.064564 3.01592
0.421482 -0.0345905 2.6881
-0.305144 -0.128049 2.69295
-0.344946 -0.31521 2.93062
0.0430408 -0.244072 2.84432
-0.307262 -0.402571 3.07819
0.223268 -0.150197 2.75073
-0.102247 -0.288934 2.90647
-0.417581 0.0455068 2.70442
-0.329085 -0.368903 3.02314
0.101352 0.160852 2.77325
0.529362 -0.14238 2.76818
-0.0148717 -0.255081 2.8549
-0.359358 -0.437448 3.20431
-0.318447 -0.371283 3.03547
-0.439196 -0.1508 3.029
-0.441029 -0.0672119 2.96812
-0.433683 0.151422 2.79942
-0.437185 0.0517192 2.91134
-0.0208985 0.232193 2.85384
0.429442 -0.319755 2.97364
0.460496 -0.290602 2.93512
-0.0609092 -0.241561 2.83441
-0.432701 0.104173 2.83973
-0.456536 -0.26999 3.25014
-0.434019 0.185275 2.892
-0.440221 0.112303 2.96314
-0.45179 -0.248302 3.28825
-0.359715 -0.383252 3.04853
-0.444153 0.0038 3.2019
-0.455549 -0.151561 3.32191
0.305325 0.197421 2.82752
-0.459188 -0.155284 3.36164
0.0290001 -0.0742296 2.66678
0.589145 -0.429462 3.22954
-0.452448 -0.0299519 2.94675
0.03765 0.116222 2.7592
0.134809 0.186401 2.80326
0.352641 -0.277597 2.90086
0.437643 -0.432899 3.17251
-0.447215 -0.194493 3.30173
-0.434493 0.134814 2.79251
-0.43777 0.087543 2.82828
0.608114 -0.0325467 2.9133
0.0299667 -0.136272 2.72638
-0.0235814 -0.397935 3.06892
-0.218314 -0.0584767 2.64087
-0.236997 0.146628 2.77665
-0.117194 -0.292813 2.89816
0.591723 -0.0333539 2.66446
-0.148306 -0.0511718 2.64885
-0.157876 0.172602 2.78886
0.143509 -0.123563 2.71097
0.472066 -0.362558 3.06792
-0.306863 -0.139626 2.70428
-0.0894059 -0.293415 2.89806
0.239542 -0.27985 2.8944
-0.297911 -0.29897 2.8969
-0.31045 -0.291994 2.89134
-0.317251 -0.383283 3.0399
-0.164142 -0.23019 2.82567
-0.451276 -0.193493 3.36279
-0.428964 -0.195285 3.28546
-0.43495 -0.0743507 2.653
-0.434594 0.137674 2.80975
-0.438009 0.0447004 2.94523
0.0310779 -0.22963 2.84113
-0.0514591 -0.108173 2.68272
-0.429253 -0.142002 3.16847
-0.444031 0.00602428 2.98066
0.565196 -0.0577685 2.71685
-0.442964 0.0367027 2.99459
-0.444138 -0.0701738 3.1121
0.395481 -0.027155 2.67888
-0.445147 -0.0880294 3.13638
-0.430555 0.201221 2.91864
0.131979 0.0887508 2.68073
-0.452948 -0.0512193 3.13304
0.191712 0.144518 2.77244
-0.453192 -0.0835995 3.17329
-0.417843 0.159325 3.01323
0.194966 -0.291406 2.91857
0.326985 0.220099 2.85204
-0.0765341 -0.388795 3.07564
-0.218962 -0.124175 2.69103
0.083792 0.182811 2.79417
-0.2635 -0.139273 2.70856
-0.446436 0.199848 2.91085
0.218572 -0.0721259 2.67238
-0.301241 -0.264863 2.85789
-0.307547 -0.253377 2.84469
-0.3205 -0.307915 2.91418
-0.341558 -0.0581239 2.6428
0.48057 0.136047 2.78007
0.5239 -0.190427 2.82964
0.0952349 -0.123283 2.69668
-0.0272224 -0.22057 2.82422
-0.322232 -0.387436 3.05251
-0.429201 -0.0419808 2.64073
0.42901 -0.0405669 2.683
-0.444874 -0.338804 2.96273
0.142405 -0.106547 2.69275
-0.43461 0.0201752 3.00655
-0.0999354 -0.235408 2.82785
-0.334562 -0.418494 3.14479
0.0424042 0.00831178 2.67989
-0.447986 -0.0168549 3.07586
-0.453444 -0.184317 3.29294
-0.454623 -0.105004 3.2686
-0.109126 0.0310908 2.68685
-0.440556 0.0934161 3.20317
0.0529634 -0.350382 2.99881
0.146404 -0.120796 2.7122
0.590344 0.29712 2.94139
-0.41372 0.137436 2.75739
-0.0666514 -0.402521 3.12368
0.0616557 -0.152127 2.74165
-0.44133 -0.0541828 3.19363
-0.318315 -0.419199 3.11585
-0.25332 -0.17685 2.75096
0.254384 0.294683 2.89507
0.381606 -0.21331 2.82442
-0.453015 -0.263239 2.83864
0.192087 -0.438297 3.56224
0.0148522 -0.152306 2.73813
-0.450849 -0.0679642 3.14901
-0.432296 -0.0560624 2.64084
-0.0699658 -0.362434 2.99669
-0.302021 -0.0637333 2.63652
-0.166004 -0.246175 2.84326
0.352914 -0.136348 2.72719
-0.461051 -0.178718 3.29877
-0.0100041 -0.385067 3.03543
-0.0804082 -0.366676 3.04181
-0.275497 -0.192922 2.76088
0.270438 -0.153731 2.75096
-0.346381 -0.297263 2.91232
0.0386724 -0.141444 2.73193
-0.34084 -0.351831 2.98875
0.116715 -0.209592 2.80067
0.43359 -0.318774 3.00869
-0.0696685 0.15126 2.78053
-0.435702 0.28322 2.98248
-0.0368647 -0.348265 3.00208
-0.291625 -0.287335 2.86721
0.319298 -0.0791941 2.68297
0.375776 -0.377984 3.03726
-0.429978 -0.122979 2.73681
-0.120764 -0.30537 2.91547
0.278353 0.199972 2.85597
-0.140248 -0.227051 2.79156
0.222744 0.0139347 2.69528
0.154749 0.0309865 2.63944
0.0965709 -0.0719871 2.66889
-0.322936 -0.185213 2.76094
-0.203038 -0.174701 2.85318
0.479057 -0.369751 3.08788
-0.0609806 -0.0938761 2.67199
0.0162207 0.0183379 2.68363
-0.231575 0.104644 2.76029
-0.287837 -0.343729 2.9838
0.219245 0.0152649 2.69305
0.101653 0.0695906 2.64181
-0.110425 0.0157294 2.67607
-0.0934837 -0.283325 2.89664
0.220021 0.224913 2.80817
0.484777 -0.151266 2.78297
-0.13997 -0.169586 2.73236
0.373564 -0.0464336 2.68195
-0.0641051 0.321144 2.90725
0.230307 0.0230277 2.69991
0.541653 -0.23141 3.22779
0.355862 0.201652 2.83762
0.519781 -0.143288 2.71313
-0.26404 0.134951 2.75507
-0.440416 -0.011988 2.97902
0.521199 0.0916599 2.78265
-0.0844736 -0.112402 2.69711
0.104141 -0.31347 2.92724
0.240286 -0.103906 2.70478
0.563497 0.142394 2.83414
-0.35548 -0.285921 2.89185
-0.0520507 -0.136749 2.7122
-0.454582 -0.185311 3.27589
0.197756 0.230063 2.85501
0.0447642 -0.0959198 2.68302
-0.0199587 -0.185292 2.76457
-0.460504 -0.244272 3.33206
-0.441288 0.0782554 2.83886
-0.274999 -0.044068 2.63253
-0.264236 0.125706 2.75754
-0.246526 -0.170227 2.73873
-0.0107987 0.0390399 2.68903
0.443585 -0.146029 2.76902
0.228588 0.0333683 2.70475
0.141275 0.102545 2.6797
0.509788 -0.276542 3.30601
0.438735 0.0930776 2.78211
-0.160725 0.224587 2.8397
0.445702 -0.279982 2.9071
-0.0776496 0.223974 2.83418
0.593997 0.16671 2.85691
-0.425115 0.141666 2.75564
-0.168068 -0.176595 2.75526
0.396126 0.219214 2.83884
-0.241157 -0.154867 2.72993
-0.0251873 -0.299517 2.91631
0.213124 -0.238119 2.8525
0.633181 -0.0435725 2.69834
0.573048 -0.0576442 3.07681
-0.433417 0.072272 2.70783
0.570669 0.0645694 2.80262
0.535281 0.0471042 2.75845
0.299604 0.158645 2.80842
0.29697 0.152016 2.81901
0.252494 0.188822 2.84543
0.388871 -0.148431 2.76742
0.585753 0.168035 2.857
0.589431 0.14508 2.83142
-0.33123 0.17003 2.78276
0.108306 -0.124617 2.71088
0.167021 -0.125774 2.72428
-0.268994 -0.0738726 2.63937
-0.0917903 0.159795 2.7804
0.146751 0.202564 2.83959
0.00338713 -0.25682 2.85794
0.358685 0.18879 2.84342
-0.108633 -0.280534 2.90095
0.611467 0.0387764 2.74934
0.133264 -0.13899 2.73068
0.348584 0.203679 2.86049
0.20547 -0.0809302 2.69196
0.563777 -0.0499624 2.68947
0.233265 -0.063042 2.68082
0.492443 -0.446647 3.22183
0.106304 0.23151 2.80778
-0.10916 0.147326 2.77833
-0.433435 -0.0860824 3.15174
0.303902 -0.0823542 2.69532
-0.308669 0.0371177 2.68339
-0.237943 0.124453 2.7539
-0.434443 0.035907 2.79393
0.0783996 -0.269463 2.89345
0.0820092 -0.210191 2.80776
-0.295461 -0.39424 3.07173
0.5642 0.150406 2.83295
-0.1517 -0.222892 2.81359
-0.339467 -0.397453 3.09677
0.0176748 -0.246738 2.84284
0.0768327 0.0425821 2.65999
0.47119 0.22298 2.87663
-0.0904728 -0.0405878 2.63715
-0.0686057 -0.095402 2.67914
0.525961 -0.0928393 2.72457
-0.250364 -0.258565 2.81136
0.0591877 -0.0833906 2.67287
0.450399 0.0918618 2.79002
0.395245 -0.167223 2.78157
-0.307203 0.109888 2.73254
-0.281028 -0.175592 2.73654
0.175239 -0.116454 2.72067
0.219577 0.140697 2.77332
-0.0353469 -0.120483 2.70991
0.508228 -0.13785 2.75491
0.546935 -0.205594 2.84331
-0.0915569 -0.117557 2.70441
0.100629 -0.111309 2.693
0.450525 -0.41476 3.12887
-0.00694418 -0.237451 2.83502
0.305819 0.15496 2.82057
0.569703 -0.0165049 3.09136
0.0674991 -0.154879 2.75767
0.450325 -0.123121 2.73632
0.117384 -0.208823 2.79106
0.345081 0.0364588 2.7214
0.341829 -0.265301 2.91473
0.379507 0.154861 2.80963
0.0200976 -0.24592 2.84787
0.47214 0.348337 2.94134
0.0994244 0.0396961 2.63554
-0.332729 -0.256035 2.85536
0.265745 -0.0756935 2.68531
-0.32519 0.0145672 2.66816
0.303804 -0.0819783 2.69408
-0.419756 -0.0454827 2.59436
0.583687 0.0604958 2.76187
-0.438065 -0.142012 2.99292
0.264033 0.161234 2.80085
-0.351843 -0.115956 2.6881
-0.321681 -0.199316 2.76876
-0.315631 -0.379286 3.04536
-0.301397 -0.343167 2.97289
-0.0623356 -0.143179 2.7288
0.657094 0.0324085 2.73675
0.213492 0.114406 2.77071
-0.0251978 -0.0805505 2.67565
-0.265776 -0.0571177 2.63958
0.0418922 -0.0455934 2.64727
0.108501 0.175667 2.7778
0.0841877 -0.278697 2.89957
-0.313326 0.122142 2.7477
0.0659021 -0.343271 3.0317
-0.438511 -0.002252 2.90272
0.0110985 -0.0411811 2.64331
-0.128756 0.115983 2.76442
0.515896 -0.269472 2.90441
-0.222168 0.156908 2.77609
0.030165 -0.328101 2.99419
0.528085 0.184331 2.8645
0.469935 -0.04931 2.68832
-0.446744 -0.135656 3.10203
0.497296 -0.150016 2.76791
0.17744 0.212713 2.83478
-0.0552558 -0.264759 2.85922
-0.173547 -0.290653 2.91213
-0.447159 -0.108081 3.0216
0.0889568 0.0371208 2.64963
-0.00744409 -0.331112 2.9628
-0.254698 -0.0667686 2.65578
0.530431 0.0517705 2.77751
0.195945 0.221768 2.84753
0.0977922 -0.250559 2.85422
0.414897 -0.342187 3.04537
-0.449 -0.402552 3.24066
-0.292312 -0.0465485 2.62645
0.146042 -0.142681 2.74085
0.223369 -0.275844 2.91118
0.406554 -0.0272519 2.68406
0.484538 -0.348945 3.02286
-0.115829 0.182086 2.80445
-0.0561946 -0.245863 2.84031
-0.449323 0.0134804 3.16854
-0.449477 -0.358943 3.21208
-0.306482 -0.0465603 2.62608
-0.175525 -0.0513606 2.62637
0.00246541 -0.259074 2.88889
-0.32015 0.164942 2.77813
-0.262783 -0.121411 2.68918
0.136879 -0.242195 2.84724
-0.260195 -0.0422162 2.60737
0.0571436 -0.255127 2.87179
-0.445148 0.0858049 2.73677
0.368381 -0.237747 2.85598
-0.231316 -0.236789 2.79198
0.291808 -0.238776 2.87583
0.412783 -0.120129 2.73523
-0.018988 -0.247039 2.84573
0.417917 -0.23979 2.8707
-0.0299194 -0.206482 2.80985
-0.22235 -0.209904 2.76144
0.0695031 -0.195261 2.78974
0.50293 0.205587 2.88229
0.31541 0.200958 2.85999
0.0910251 -0.219479 2.8118
-0.266272 -0.159852 2.70923
-0.0433717 -0.223734 2.81326
-0.22232 0.15696 2.77921
-0.307523 -0.320699 2.94054
-0.186808 -0.0689262 2.64735
-0.0638774 -0.381566 3.08189
0.223937 -0.229911 2.85177
-0.28854 -0.156369 2.7007
0.465261 -0.040578 2.6831
0.153275 -0.300461 2.92196
-0.0318636 -0.205954 2.78084
-0.27946 -0.152986 2.72132
-0.0370226 0.152564 2.78747
0.0711651 -0.196033 2.78725
0.0609744 -0.142201 2.73738
0.219219 -0.0957121 2.69724
0.24167 -0.197378 2.80306
0.501529 -0.154418 2.77643
0.400495 -0.0379977 2.67164
0.233439 -0.194848 2.80496
-0.133996 -0.165692 2.71175
0.459836 -0.153148 2.78739
-0.220675 -0.152785 2.68525
-0.262833 -0.083738 2.64514
-0.26242 -0.0223532 2.65056
0.219148 -0.0985027 2.70139
-0.0234957 -0.0603089 2.65401
-0.270982 -0.406121 3.10114
-0.351802 -0.268956 2.87854
0.490634 -0.356705 3.06904
0.159567 -0.221174 2.83186
-0.118261 -0.162564 2.72207
0.106122 -0.111088 2.69976
-0.117878 0.194747 2.80822
0.467243 -0.238782 2.86166
-0.29451 -0.0761716 2.64921
0.536197 0.399433 2.99954
0.454994 -0.0556803 2.68256
0.518091 0.121949 2.79811
-0.186152 0.312091 2.89379
0.28624 -0.13651 2.75001
0.0363032 -0.140537 2.72377
0.231271 -0.08293 2.70047
-0.140429 0.111551 2.74458
0.454737 -0.155479 2.76684
-0.403717 0.306882 2.8763
-0.150043 -0.229689 2.81999
-0.047542 -0.113327 2.69255
0.0676855 -0.0471759 2.65134
0.126022 -0.119592 2.71341
0.465514 -0.0410711 2.69078
-0.201296 0.0736479 2.68247
0.151085 0.100139 2.6907
-0.355413 -0.231305 2.80998
0.551354 -0.173117 3.19893
0.209202 0.168973 2.8042
0.582714 0.0548215 2.77014
-0.170562 -0.176029 2.76317
0.601176 -0.0770359 2.98647
-0.433716 0.143477 2.76851
0.172955 0.0181273 2.69184
0.137833 0.0440412 2.68614
-0.176227 -0.1158 2.68661
-0.300895 -0.133572 2.67523
0.590833 0.0307004 2.73541
0.508831 -0.110293 2.73482
-0.24516 -0.256088 2.85343
0.33285 0.108812 2.77232
0.107789 -0.0949436 2.67953
0.518833 0.205524 2.87824
0.0773544 0.0980209 2.63725
-0.453869 -0.0405605 2.94628
0.095158 -0.313755 2.94709
-0.0242647 -0.127504 2.70056
0.123504 -0.0386028 2.65733
0.501237 -0.143523 3.377
-0.198491 -0.0935324 2.66961
-0.318068 -0.093007 2.66293
-0.300892 -0.406124 3.09654
0.616851 -0.00905521 2.88858
0.0555583 -0.332732 3.0025
-0.25872 -0.0563021 2.64106
0.137067 -0.00933473 2.68614
-0.273481 -0.362473 3.00223
-0.1249 0.141959 2.7697
-0.0258522 -0.385538 3.06033
0.510147 -0.0532207 2.69278
0.540465 0.256342 2.87886
0.0480785 -0.354424 3.01223
0.531849 -0.0673386 3.2808
0.406716 -0.358228 3.07161
-0.437213 -0.0979543 2.73487
0.0534401 0.119571 2.74294
-0.140445 0.250272 2.84766
0.0662351 -0.290164 2.92867
-0.428702 -0.0910543 2.65388
0.155153 0.134871 2.77594
-0.357311 -0.384624 3.05923
0.0223452 -0.273705 2.90328
0.0992527 0.157956 2.75493
-0.065877 -0.231062 2.82779
0.599662 0.121252 2.8238
0.0801631 -0.283515 2.88752
-0.0280043 -0.0973022 2.67145
0.583615 0.104043 3.02327
-0.0347389 -0.407861 3.10691
0.606239 0.14029 2.8761
-0.187859 0.177271 2.79373
-0.0354835 -0.407282 3.11496
-0.0830754 -0.112228 2.69928
0.592354 0.0871205 2.78436
0.00247173 -0.0828229 2.66295
-0.439873 -0.0530452 2.69964
0.501873 -0.362082 3.06996
-0.226926 0.000477147 2.67518
0.0880279 -0.333277 2.97804
0.436278 0.0914801 2.75749
-0.166818 -0.142418 2.71797
-0.209083 -0.313259 2.90546
0.104324 0.03281 2.64113
-0.402368 -0.32633 2.93709
0.168747 0.16232 2.80205
0.188725 0.0159164 2.68632
0.44319 -0.290358 2.93353
0.435203 -0.308883 2.96837
-0.0337814 -0.32712 2.95654
-0.12279 -0.278176 2.87554
0.521721 -0.239412 2.86621
-0.0777087 -0.0915657 2.68205
-0.249622 -0.130463 2.70029
0.14037 0.0120835 2.66259
0.354108 -0.228652 2.85069
-0.135655 -0.219132 2.77725
0.299849 -0.280898 2.9108
-0.440785 0.073698 2.86841
0.0696606 -0.0847624 2.68065
-0.195414 -0.396767 3.08442
0.593749 0.194679 2.85548
0.473907 -0.260383 2.87851
-0.232815 -0.0552967 2.63857
0.398423 -0.0411824 2.68015
-0.243635 -0.342317 2.98913
0.479953 -0.232485 2.86358
0.0778709 -0.140853 2.72838
-0.237802 -0.0462953 2.63848
0.30921 -0.0425863 2.67408
0.554005 -0.0674529 2.69706
-0.23733 -0.209552 2.76449
-0.370337 -0.109175 2.67751
0.0032279 0.115494 2.75194
-0.459209 -0.286945 3.27221
0.106154 0.0105508 2.67276
-0.357555 -0.063569 2.64627
-0.0823715 0.164196 2.78751
0.112697 -0.18092 2.77183
-0.240157 -0.0579226 2.63365
-0.0883771 0.116371 2.74282
-0.289497 0.115606 2.74999
0.211647 -0.216788 2.8222
-0.00979769 -0.169571 2.73949
0.0709897 -0.0727522 2.6601
0.0165074 -0.282307 2.89904
-0.441166 0.102899 3.01148
0.235862 0.113216 2.77561
0.452415 -0.293617 2.91968
-0.451693 -0.042399 3.09718
0.106493 -0.100658 2.68851
0.351021 0.312271 2.92358
0.242401 0.145947 2.79777
-0.44285 0.129498 2.76516
0.0439093 -0.204898 2.79304
0.615289 0.0719595 2.77215
-0.347746 0.057765 2.70719
-0.339242 0.132957 2.78884
0.45025 -0.273556 2.90002
-0.452666 -0.214694 3.25025
-0.254957 -0.0891509 2.6644
0.540524 0.336605 2.99779
0.467906 -0.382295 3.11625
-0.356493 0.138548 2.75832
0.545093 -0.173581 2.79739
0.493218 -0.0845484 2.71544
0.475155 -0.151478 2.77126
0.505879 -0.0805697 2.71502
-0.438103 0.339181 2.97688
0.0765431 -0.227131 2.82998
-0.053518 -0.064341 2.65916
0.126568 -0.0463867 2.65626
0.0377126 -0.057925 2.65432
-0.324674 -0.362457 3.00431
-0.151246 0.342186 2.9277
0.0158409 -0.263002 2.87639
0.541671 -0.23708 3.23576
-0.37383 0.156691 2.76515
0.434837 -0.320994 2.97759
-0.446063 0.0627073 2.95061
0.119592 0.150447 2.77694
-0.0507105 0.143869 2.78911
-0.34285 -0.376719 3.05412
0.155361 -0.259307 2.88582
0.0684959 -0.255107 2.86332
0.205088 -0.142728 2.74499
-0.317843 0.185709 2.79319
-0.283778 -0.393825 3.06872
-0.277218 0.31726 2.9009
-0.37181 0.162432 2.7735
-0.28867 -0.296729 2.90027
0.109278 0.0062611 2.66335
0.127493 0.156148 2.77765
0.0369471 -0.261516 2.86431
-0.436885 0.0506827 2.87117
0.538912 0.164466 2.82503
-0.260214 0.182954 2.80996
0.32736 -0.142941 2.7587
0.641314 -0.0331979 2.68229
0.135775 -0.221864 2.80852
0.132781 0.31296 2.91353
0.227753 0.0268935 2.70064
-0.0909718 0.180396 2.79668
0.324387 0.291625 2.89401
-0.340911 -0.38786 3.06514
-0.25646 -0.220603 2.79811
0.0845641 -0.222638 2.8195
-0.4523 -0.0673943 3.35789
-0.120351 0.165452 2.78897
0.434375 -0.145162 2.76724
0.0378842 0.0115122 2.66712
0.149752 0.0569827 2.69199
0.470046 -0.0641907 2.67899
-0.306858 0.171672 2.77439
0.543505 -0.360675 3.0146
-0.0423958 0.234099 2.85304
0.0519849 -0.0821187 2.67851
-0.0374808 -0.138793 2.7139
0.323032 0.311799 2.92959
-0.259656 -0.152148 2.72222
-0.375256 0.202184 2.79418
0.0166875 -0.120326 2.69893
0.154511 0.0392119 2.65344
-0.108304 -0.289578 3.27938
-0.326381 -0.318027 2.95799
-0.0990654 -0.260291 2.86642
-0.443938 -0.0167096 3.01174
0.372305 -0.115608 2.72804
0.0165375 -0.111972 2.69381
0.520371 0.207381 2.83916
0.156025 0.0544514 2.681
0.0496436 -0.0462099 2.6484
0.159174 -0.0754482 2.67356
-0.307857 -0.366318 3.01535
-0.306574 0.269363 2.86203
-0.209895 -0.0456814 2.61917
0.0580991 -0.199514 2.79558
0.138165 -0.0694505 2.67314
-0.372158 -0.196692 2.78484
-0.41032 0.171722 2.77461
-0.0620864 -0.302273 2.91909
-0.169334 -0.0559659 2.63625
-0.280371 -0.18532 2.75256
-0.0167772 -0.363363 3.01853
0.326706 0.141246 2.81715
-0.363157 0.306317 2.88064
0.480417 -0.0491885 2.69525
0.532554 0.0553766 2.75554
-0.403947 0.153627 2.76461
-0.278587 -0.294521 2.90379
-0.358036 0.168571 2.78182
0.520951 0.0920587 2.78904
-0.0755328 -0.280303 2.8849
-0.408579 0.174449 2.7754
0.287402 -0.298421 2.93793
-0.424063 0.139617 2.81391
-0.428368 -0.316101 3.28684
-0.432971 0.158319 2.76396
0.59896 0.0503644 2.76897
0.170958 0.0228731 2.70493
-0.351528 0.213295 2.81771
0.198819 -0.29339 2.91788
0.0445267 -0.226885 2.84839
0.389307 0.172339 2.82538
-0.439435 -0.266915 3.01327
0.580719 -0.0566784 3.05863
-0.358503 0.251838 2.86407
0.0486058 -0.285548 2.88225
0.0792204 0.0252845 2.68064
0.579211 0.17427 2.84552
0.233983 -0.0767845 2.68789
0.488129 -0.286401 2.92944
0.547445 -0.0462735 2.69799
-0.250604 -0.197546 2.78547
0.215601 -0.0777415 2.6849
0.609413 0.0510537 2.90118
-0.422057 0.227765 2.81999
0.597852 0.136992 2.94033
0.517369 -0.27248 2.91646
0.549599 0.0423031 2.73327
0.508361 -0.0428793 2.69477
0.37252 -0.229004 2.8438
-0.0707741 -0.0488955 2.6442
0.471418 -0.321162 3.0073
-0.0528485 -0.213147 2.78304
-0.314364 -0.0663647 2.63982
-0.264701 -0.238678 2.81824
0.611542 0.143928 2.8158
0.559165 -0.205127 2.84109
0.149104 -0.238268 2.86467
0.26294 -0.230098 2.8222
0.175534 -0.0582099 2.66794
-0.442854 -0.128807 3.08202
0.0880716 -0.330041 2.97278
-0.315632 -0.150256 2.73206
-0.406799 0.0513574 2.70389
-0.246675 -0.169634 2.75197
0.0310376 -0.335652 2.96819
0.370989 -0.133169 2.74671
-0.438292 -0.103322 3.1509
-0.0813456 -0.182603 2.76261
0.169145 0.169039 2.78631
-0.459789 -0.220223 3.31776
0.0526107 0.0140373 2.68299
-0.0221201 -0.0982699 2.68316
-0.205448 -0.385262 3.05824
0.176869 -0.103029 2.70296
-0.180401 -0.154355 2.72872
-0.459747 -0.287333 3.19803
-0.326469 -0.212746 2.85838
0.470078 -0.115354 2.72099
-0.438429 -0.0671652 3.16005
-0.44016 0.0820014 2.7197
0.199012 -0.103852 2.70608
-0.00526337 -0.339785 2.96767
0.0914216 -0.173539 2.77698
0.071697 -0.173578 2.77257
0.442636 0.179462 2.83966
0.584363 -0.0719991 2.71245
-0.440633 -0.298363 3.24068
-0.429558 0.0629746 2.96928
-0.0397335 -0.0597189 2.66642
-0.0162129 -0.295149 2.92231
0.197589 -0.0842023 2.69179
-0.176394 0.17753 2.80358
0.161945 0.152576 2.78909
-0.0251601 -0.213026 2.79856
-0.324603 0.135428 2.76161
0.600073 0.188731 2.86868
-0.323693 -0.052017 2.64783
-0.434354 0.0663434 2.89367
-0.174672 -0.0829082 2.6547
-0.0812935 -0.316041 2.94621
-0.442453 0.128393 2.78541
0.144219 -0.0750021 2.6793
-0.0446573 -0.412626 3.10356
-0.341675 0.221378 2.82429
0.451558 -0.185415 2.80173
-0.10832 0.175603 2.79618
-0.207039 -0.366694 3.03104
0.562674 -0.0969841 2.73335
-0.431233 -0.00403805 2.80787
-0.154012 0.178602 2.79437
0.36958 -0.160812 2.78309
-0.43977 0.150399 2.8969
0.47254 -0.082789 2.69671
0.0495094 -0.280662 2.92944
-0.391655 0.13955 2.7609
-0.00704078 -0.276157 2.90287
-0.441373 0.14327 2.78466
0.542451 -0.228158 3.21652
-0.0110001 -0.356586 3.01715
0.493082 -0.382081 3.07068
0.103804 -0.0374262 2.65133
-0.341747 0.182895 2.79183
0.260301 -0.0448443 2.67496
-0.164856 0.364393 2.94411
-0.248808 -0.347319 2.99418
-0.219228 0.306217 2.91117
0.503019 -0.186289 3.36994
0.0555493 0.299809 2.9063
0.17629 0.0411663 2.7068
-0.172225 -0.351522 3.26659
-0.0841695 -0.205206 2.78507
0.483811 -0.249954 2.87767
-0.0760771 -0.0747091 2.65781
0.197154 -0.294125 2.92907
0.130566 0.030175 2.648
-0.439232 0.125825 2.84464
-0.436322 0.359366 2.9394
0.53352 -0.137653 3.27639
-0.23225 -0.0462549 2.64447
-0.451281 -0.216423 3.09209
0.495766 -0.0597298 2.69485
-0.00523024 -0.302258 2.91948
0.242053 -0.0859416 2.68748
0.53197 -0.124382 3.25628
0.379002 -0.0541954 2.68745
-0.456854 -0.131795 3.38494
-0.454091 -0.24582 3.19682
0.270352 -0.120285 2.71669
0.28073 -0.0314185 2.66733
0.459061 -0.338674 3.01486
0.373174 0.057805 2.73257
0.145683 0.051514 2.69195
0.286169 -0.290896 2.91961
0.586987 -0.0492631 3.0351
0.467359 -0.200684 2.82362
0.378304 -0.0385806 2.6771
0.114507 -0.238892 2.83682
0.0855003 -0.0653046 2.65629
-0.0462873 -0.308685 2.91923
0.529196 -0.315294 2.9747
0.176219 -0.0798037 2.68453
-0.4393 -0.0553694 2.63911
0.481108 -0.220331 2.84443
0.143196 0.101606 2.69656
0.616164 0.0321946 2.87915
0.107245 0.0394914 2.63964
0.613671 0.0318373 2.89267
0.0240972 0.150243 2.78441
0.249989 -0.273833 2.89663
-0.0926099 -0.219386 2.79617
0.236507 -0.135833 2.72604
-0.444649 -0.149417 3.03487
-0.411817 -0.327238 2.94057
-0.174001 -0.276992 2.87492
0.330095 0.160186 2.81928
-0.262284 -0.194187 2.77615
0.226966 -0.0958312 2.69327
0.591052 0.0591106 2.77903
-0.341063 -0.251788 2.8312
0.16727 -0.0817812 2.67847
0.198532 -0.292396 2.92128
0.158827 0.114145 2.76749
0.154542 0.140599 2.77403
-0.306478 -0.173499 2.74688
0.156041 0.0404814 2.67754
-0.232554 -0.230025 2.77915
-0.052697 -0.314854 2.95634
-0.167577 -0.119507 2.68999
0.166244 0.170609 2.79931
-0.318021 -0.275929 2.87623
-0.0754543 0.147352 2.77685
0.187316 -0.133079 2.72164
-0.35441 -0.250587 2.84578
0.0589031 -0.205406 2.80529
-0.256845 0.119032 2.75469
0.0675167 -0.0456716 2.65254
0.466144 -0.322608 2.98085
0.279931 -0.182496 2.77889
-0.449305 -0.294525 3.01267
0.300072 0.223885 2.84618
0.328709 -0.302114 2.95753
0.591086 0.131505 2.81466
0.245323 0.16977 2.80745
0.241259 -0.276892 2.88576
-0.323223 0.142668 2.75934
-0.0108336 0.0399651 2.69457
0.46957 -0.0708735 2.70643
0.181891 0.0351086 2.68322
-0.433821 -0.155506 3.06573
-0.0570697 -0.359137 3.02942
-0.274691 -0.433952 3.17188
-0.225883 -0.285853 2.85928
0.444314 -0.38112 3.08898
-0.280614 -0.0886934 2.65438
0.0716702 -0.0246664 2.67201
-0.382393 -0.0898767 2.65882
-0.0614062 -0.401516 3.10426
-0.0239848 -0.079422 2.67162
0.288578 0.303737 2.89788
-0.342401 0.188478 2.78271
-0.436889 0.0710614 2.73686
-0.439083 0.0455908 3.10994
-0.0789662 -0.174297 2.7355
-0.335124 -0.31926 2.92999
-0.268861 -0.26981 3.31617
-0.444815 -0.0628876 2.70252
0.567972 -0.138503 3.13807
-0.190687 -0.231512 2.82603
0.359083 -0.226433 2.84328
0.0776029 -0.199262 2.78763
0.187504 -0.299177 2.94869
-0.429717 -0.00501352 2.97403
0.162036 -0.243529 2.83825
-0.0123449 -0.122271 2.68721
-0.0203283 -0.109512 2.69576
-0.448481 -0.135724 2.69731
-0.442757 0.121443 2.8565
-0.440867 -0.367495 3.01213
0.213243 -0.25211 2.86716
-0.067225 -0.077627 2.67246
0.118951 0.165355 2.75768
-0.171854 -0.116936 2.70543
0.122083 0.0469043 2.63879
-0.0382186 -0.119272 2.70405
0.618688 -0.0458553 2.68875
0.0940673 -0.216148 2.81431
-0.335469 -0.349536 2.98763
0.108847 -0.140663 2.72574
0.0198138 -0.132203 2.72116
0.11021 -0.266448 2.87434
-0.445331 -0.172218 3.11841
-0.439467 0.186093 3.12016
0.0239197 -0.109096 2.69528
0.417306 -0.24104 2.85437
-0.271072 0.167416 2.78906
-0.446829 -0.255804 2.81915
-0.318229 -0.198014 2.77594
-0.21253 0.339817 2.89745
0.543203 0.0851772 2.79498
-0.441616 -0.0330634 2.91042
0.225526 -0.0665221 2.66458
0.558253 0.0431079 2.75257
-0.119569 -0.0483669 2.64687
0.0950101 -0.321375 2.95357
0.457381 -0.111422 2.73727
0.396765 -0.0524103 2.68182
-0.279306 0.233294 2.81597
-0.0912162 -0.221337 2.81087
-0.268413 -0.445574 3.20716
-0.438233 0.232098 2.96785
0.227461 -0.281792 2.91359
-0.0532897 -0.0963639 2.67819
0.152086 -0.0119503 2.68883
0.0260537 0.00409774 2.66573
0.0365277 0.0113244 2.67957
0.157146 0.149946 2.78149
0.37014 -0.216721 2.82695
0.623581 -0.00968951 2.71013
0.439101 -0.414389 3.14345
-0.0201407 -0.347819 2.99921
0.0872198 0.0443743 2.66996
-0.0498305 0.11452 2.76687
-0.439789 -0.227094 3.23787
0.0572329 0.309596 2.90613
-0.274213 -0.410871 3.11472
0.486708 -0.0635245 2.69154
-0.452883 -0.199316 3.35585
-0.0428652 -0.352083 3.00614
-0.431754 0.0224829 2.66599
0.504332 0.098165 2.77826
-0.227582 -0.156054 2.69936
-0.456725 -0.382951 3.25181
-0.301072 -0.0228303 2.64094
0.140986 0.0525575 2.68852
-0.110347 -0.226135 2.81449
0.246783 -0.160426 2.75881
0.0517889 -0.231523 2.83174
-0.364983 -0.109594 2.67837
0.628505 0.00662574 2.83087
0.469571 0.182447 2.85524
0.431895 -0.232556 2.87919
-0.437923 0.125311 2.87655
0.60335 0.0521496 2.77598
-0.444573 0.166841 2.80288
-0.434137 -0.152082 3.03881
0.322697 -0.243743 2.86959
-0.0403007 -0.294637 2.92943
-0.230709 -0.129213 2.68622
-0.166044 -0.130938 2.71205
-0.135975 -0.142748 2.7343
0.539784 -0.221079 2.85866
-0.31913 -0.214682 2.78495
-0.292962 -0.356328 3.01632
-0.307784 -0.129668 2.71376
0.182164 -0.297203 2.92706
-0.239214 -0.0745766 2.65684
-0.0235215 -0.131557 2.71454
-0.266183 -0.249376 2.83929
0.412662 -0.274168 2.92792
-0.336753 -0.193619 2.77181
-0.270989 -0.440384 3.21228
0.177397 -0.0643315 2.67122
0.429884 -0.31993 2.9826
0.213415 0.113517 2.7607
0.339573 -0.302316 2.93245
0.164137 -0.0455733 2.65641
-0.375579 -0.0992807 2.66956
0.152063 -0.195181 2.79138
-0.0217915 -0.217665 2.81027
0.0844031 0.0200866 2.66467
0.403697 -0.385386 3.0915
0.00172938 -0.284986 2.89791
-0.245185 0.182516 2.78569
-0.429531 0.146488 2.83599
-0.0643935 -0.0950482 2.66912
-0.460949 -0.31405 3.25314
0.23091 0.311184 2.91483
0.114311 -0.405516 3.1218
-0.358744 0.160849 2.7793
0.115461 -0.266004 2.87562
0.178777 0.144568 2.75127
0.16902 -0.132687 2.72684
0.000572612 0.167537 2.79235
0.3059 -0.110985 2.71908
-0.448945 -0.0951528 3.10303
0.587201 0.130927 2.79969
-0.280126 -0.220815 2.79781
-0.144879 -0.228134 2.81736
0.0953397 -0.235352 2.83554
0.221483 0.179806 2.8015
-0.212328 0.386318 2.95501
0.0976257 -0.0828561 2.68074
0.570308 -0.0705048 2.69948
-0.245523 0.388812 2.95825
0.141459 -0.146923 2.73262
0.0366192 -0.0788242 2.67554
0.586987 -0.040685 2.68126
-0.436904 -0.116097 2.79854
0.404248 0.0601443 2.73675
0.285606 -0.0550048 2.67159
-0.217182 -0.0645671 2.64366
-0.457713 -0.363396 3.1656
-0.268898 0.223636 2.81709
0.122111 -0.232223 2.8349
-0.00431605 -0.281859 2.8916
-0.079798 -0.227581 2.80662
0.103417 -0.0652666 2.67885
-0.315667 -0.0650906 2.65019
0.44466 -0.425294 3.15381
0.0734585 -0.332933 2.97605
0.532492 -0.050147 2.69174
0.0698476 -0.228676 2.81531
-0.390263 -0.277985 2.87807
-0.461195 -0.38728 3.15558
-0.273142 -0.278557 3.27966
-0.294373 -0.152045 2.71899
-0.364539 0.29607 2.87665
-0.298828 -0.274584 2.88937
0.0879646 -0.138753 2.71843
-0.0579927 -0.0466658 2.63245
-0.379575 -0.438886 3.16655
-0.00343983 -0.0898016 2.68011
-0.0991598 0.111378 2.75434
0.0129323 -0.320501 2.95366
0.361712 -0.242893 2.86111
0.340238 -0.215893 2.80986
-4.31916e-05 -0.164806 2.74847
0.229861 -0.137912 2.74074
0.248428 -0.142315 2.74266
0.492673 0.181345 2.85447
-0.294852 -0.0839864 2.67845
-0.389901 -0.376574 3.04213
0.603493 0.00330527 2.72674
0.0487548 -0.289187 2.90299
0.370901 -0.184952 2.78855
0.235246 -0.0827693 2.69711
0.134908 -0.00590353 2.67
-0.457411 -0.194919 3.35996
-0.439166 -0.0561232 3.02293
0.57015 -0.086856 2.72998
-0.444038 0.335966 2.97537
-0.441789 0.0344901 2.88916
-0.340524 0.14817 2.77698
0.218353 0.189607 2.81667
0.0856401 -0.00367427 2.66873
-0.437016 0.0688175 2.82755
0.127057 -0.121854 2.70818
-0.436049 0.0401973 2.87941
0.366458 -0.280314 2.91983
0.49561 -0.284462 2.91685
0.310814 -0.280355 2.91221
-0.137528 0.0305312 2.68752
-0.436292 0.0451937 2.67547
0.524581 -0.142031 2.75308
-0.440002 0.0439905 2.77977
0.422407 -0.229967 2.86554
-0.181543 -0.149526 2.72248
0.141233 -0.0860531 2.68459
-0.394425 -0.000634533 2.65043
0.287571 -0.154063 2.76123
-0.444363 -0.169746 3.0441
-0.451489 -0.0301982 2.97903
-0.111276 -0.218656 2.79966
-0.228278 0.144782 2.76835
0.164543 -0.00486981 2.66516
0.0760378 0.117751 2.73057
-0.406985 0.0482682 2.67868
-0.142121 -0.186941 2.73958
-0.385054 -0.293489 2.8898
0.127081 -0.120003 2.70755
-0.187395 -0.13928 2.71685
-0.156607 0.326128 2.9029
0.212075 -0.0373432 2.67005
0.05616 -0.112305 2.70087
0.462711 -0.290226 2.93394
-0.193581 -0.157658 2.73312
0.451847 -0.15238 2.76153
-0.339848 0.0112056 2.66714
0.0519556 -0.27598 2.89094
0.230394 -0.247051 2.86581
-0.437403 -0.042641 2.97182
-0.449205 -0.291742 3.20968
-0.0818909 -0.143159 2.73065
-0.286061 -0.27555 2.84201
-0.157484 -0.142252 2.72039
0.0639887 -0.082574 2.68225
0.188103 -0.2356 2.83042
-0.32835 0.122867 2.74499
0.231263 -0.149125 2.76477
0.106412 -0.170807 2.7577
0.176593 -0.0725089 2.67282
0.0942072 -0.253853 2.8598
-0.409129 0.270093 2.85176
-0.0948326 -0.303474 2.90432
-0.252929 -0.329327 2.97663
0.000787494 -0.0610601 2.66082
0.35397 0.109751 2.7742
0.543644 -0.0448126 2.7128
0.0631432 -0.0826584 2.67556
-0.20424 -0.322127 2.93865
0.293871 0.300763 2.91036
-0.18867 -0.291911 2.91063
-0.246623 -0.15476 2.70499
-0.293486 -0.0820846 2.66422
-0.303736 0.140757 2.76335
0.0885645 -0.288262 2.90596
-0.0109101 -0.236278 2.84219
0.459816 -0.0620164 2.68437
0.507115 -0.241177 2.87228
0.207659 -0.0680163 2.68522
-0.0428177 -0.0734773 2.66139
0.187533 0.0917495 2.72571
-0.442624 -0.0262597 3.24667
