-1.77188 5.73962 -1.49489
1.31034 4.55537 -2.49095
2.19212 4.15825 1.08872
-2.05329 6.77466 -0.467583
0.116057 8.56303 -1.12422
0.0616679 8.81223 -1.223
-1.84049 3.54462 -1.71578
1.11716 4.14037 2.06538
1.78475 8.84444 -0.235422
-0.946145 7.29003 0.89184
0.132543 8.83652 -1.21541
-1.13009 3.84373 -2.3848
-2.04008 3.7733 1.29823
-0.125783 8.70513 -1.19279
-0.317044 7.5975 0.904654
1.45337 4.12073 1.8831
0.823408 3.58017 2.07972
-0.6945 8.71187 1.12936
-0.0564623 4.08512 2.54354
-2.32843 3.13454 1.1248
0.381508 6.64786 2.15974
-0.70248 7.85062 1.47254
-2.1124 6.58614 0.925107
-0.71852 6.45906 2.00435
1.16035 6.21396 1.81122
1.92883 3.63158 1.70947
-2.54482 4.39476 -0.123125
-2.34603 5.47708 0.0804977
1.74007 4.66327 -2.08734
0.559976 9.17801 0.791151
-1.55323 7.57412 -1.34496
-0.0890671 8.93563 -1.24884
-0.731497 5.63722 1.96971
-0.162864 5.23738 -2.54838
-0.670873 7.40549 0.885982
-0.611565 7.3593 0.92319
1.1417 7.71233 0.781584
-0.399582 9.0805 -0.0100962
-0.00335056 5.73245 2.06721
1.73481 6.07309 1.09262
-0.46613 7.38702 0.963845
0.354298 9.1215 -1.19783
0.324455 4.23209 2.60856
-1.93336 7.51351 -0.424948
-1.72081 6.12912 -1.50547
2.15387 6.12411 -0.399233
-1.6163 8.59518 -1.50136
-2.29768 5.39374 -0.865775
0.327155 5.0866 -2.59404
0.0259421 9.02042 -1.24158
1.19776 5.32608 -2.23719
-0.34348 6.41095 -2.6052
-0.534531 5.36809 -2.45435
-0.68206 6.37076 -2.46982
0.803483 6.01806 -2.20022
-0.265865 4.08859 2.51176
-2.06043 7.74299 -0.509251
1.42907 6.39473 -2.14967
-2.3941 7.74933 0.379866
-1.96454 5.31492 1.30947
2.32445 4.49785 -1.05685
0.673098 7.38991 1.58868
1.22358 4.87028 -2.57128
-1.25229 7.04527 1.11399
2.07529 3.4508 0.250754
-1.35561 6.66707 1.78791
1.44137 3.66053 1.97293
-0.783299 5.4226 2.13078
2.06502 4.67618 1.38757
0.586377 9.88622 -1.07129
1.37948 7.01148 1.06884
1.2927 6.32228 1.56412
0.176835 5.38678 2.2398
-0.222872 8.46176 -1.07604
-0.136219 4.12905 2.59195
-1.73696 6.50882 -1.84197
-0.196691 5.91998 2.02411
-1.64968 3.56716 -1.92912
1.08005 7.19662 1.36541
-0.793377 8.09172 1.42025
-1.62584 7.30155 0.492863
-2.14839 6.59954 0.846783
-1.01113 8.30017 -1.14911
-0.239665 4.56297 -2.69242
0.724177 3.55946 -2.57833
1.76795 7.70447 1.60482
-2.41439 3.62752 0.947049
0.337402 8.17227 -0.853926
2.4532 9.05337 0.649641
0.152813 8.95634 -1.22486
0.878932 7.61235 -1.00975
-1.09337 8.03702 -1.30704
-2.34899 4.87249 -1.21245
0.839899 7.74836 -0.925046
1.1917 3.71251 -2.28708
0.901005 4.49043 -2.68025
2.09376 3.7691 -1.35567
-1.86572 7.18928 -0.766721
1.40246 9.2913 -0.619111
-1.26343 6.18001 -1.94237
-1.76656 6.16003 1.02841
-2.50817 4.88052 0.240776
1.49421 8.21376 -0.154386
-1.56573 8.68972 -1.73743
-0.858715 3.67463 -2.43769
-0.488901 3.95954 -2.59123
-0.400061 9.07965 -0.0101807
1.0893 7.50487 -0.919638
1.16572 5.15665 1.98381
1.67299 6.53645 1.40787
-1.21271 7.51431 0.716558
-0.384316 8.98852 1.21495
-0.287195 4.3398 2.70633
2.11422 6.66066 0.762379
-2.38048 3.70622 -0.777647
0.234967 8.67138 -1.17468
1.51919 5.44319 1.60304
1.53138 6.07283 1.62625
-1.34431 5.12887 1.95082
-1.75694 8.82115 -0.668921
0.62641 4.28566 -2.6685
-2.49234 4.70757 1.06426
-0.400767 9.0784 -0.0103055
-1.87903 9.35747 -0.517505
0.487718 4.40328 2.47987
1.24362 8.15684 -0.510199
-0.578472 4.31983 -2.62295
1.44472 7.75493 -0.465617
-0.0791242 4.3475 2.70866
-2.18032 5.9947 0.186594
0.743831 5.94089 -0.448224
1.19964 4.0459 2.01495
2.38653 4.55764 -0.858501
-0.768777 5.88112 1.85418
2.0487 4.3492 1.37887
-0.993648 3.84342 2.11581
-1.19621 3.60336 -2.23787
-0.114843 7.66859 1.76242
0.128351 7.80856 1.84521
1.34409 7.97084 0.733306
-1.48535 5.05376 1.87126
-2.52193 4.62794 -0.281239
1.11171 6.10055 1.90912
0.971832 7.70642 1.90991
2.06701 6.02445 0.304053
0.141517 7.65518 1.76929
-1.59933 8.07096 -1.00333
-1.93432 6.26781 -1.41593
-1.09299 3.54595 1.93021
-0.760327 7.2087 1.09109
-1.53532 5.59766 -1.72644
-0.975619 5.03787 2.29216
2.24499 8.80936 0.22684
2.21731 6.3301 -0.708234
-2.28593 4.43741 1.26256
-1.95223 5.23653 1.35698
0.930306 7.35064 1.48324
2.64179 4.62604 0.269806
0.876807 7.69409 1.90594
2.59851 4.24359 0.637144
1.47678 8.31187 -0.397542
-1.40127 4.61734 2.03192
2.02127 4.78839 -1.6615
-0.439901 6.48088 -2.61397
-1.27366 6.36862 -2.18129
1.35568 6.12408 -1.83004
-2.1504 5.88875 -0.692584
1.69739 7.82197 0.439265
2.20888 5.43533 -1.02183
-0.312943 4.04815 -2.61596
0.295174 8.78117 -1.19576
2.05724 4.16641 -1.55427
-1.22032 6.53834 1.86059
1.55866 4.18398 1.82062
-2.26691 5.41162 0.591119
-0.934311 8.8981 0.817574
-2.35502 3.55154 -0.708306
-0.962582 4.68103 2.58808
-1.74999 5.86673 -1.95356
1.43332 9.09349 -0.609708
-1.70123 4.14751 -2.23431
2.4866 4.41817 -0.408076
2.58013 4.92167 0.513318
0.0343763 8.4603 -1.0804
-2.11315 3.93439 1.27162
0.566835 4.64387 -2.79924
-0.917791 6.50777 2.00231
-0.791614 5.4729 2.09767
-0.973166 7.37299 -1.64063
-2.25058 5.55945 0.0215669
-0.564724 7.47372 0.875676
-0.427114 3.63689 2.20019
2.56004 5.06285 0.343311
1.11718 5.47914 -2.16814
2.28204 3.71123 -0.985616
0.396134 3.95324 -2.59846
0.396866 9.81773 -1.12653
-0.333606 8.41148 -1.02208
-2.01131 6.89718 -0.175489
1.34635 7.00619 1.13966
2.48435 4.53341 -0.383769
-1.54848 3.63614 1.70581
0.653714 8.2714 -0.841078
-2.51414 4.19425 -0.553725
-2.40428 4.80798 -1.10764
-2.40423 4.5277 -1.12343
0.0442024 7.09715 1.58346
-2.66432 8.07569 0.981033
1.19125 3.5576 -2.34503
1.37282 8.63328 -0.8529
1.53748 3.72928 -2.01357
1.5849 6.9505 0.856215
2.38909 5.31288 -0.455977
-1.7541 5.8597 -2.00247
-1.69881 8.01194 -0.967804
1.89063 5.22672 -1.68434
-0.179299 5.10118 2.42589
0.202989 5.8709 -2.32653
1.93507 5.2147 -1.605
-2.40061 4.00408 0.590378
-2.49164 4.064 -0.310602
-2.24179 4.73307 -1.74428
1.90129 9.37594 -0.0905962
-1.53715 7.03161 0.743031
-1.4663 5.9633 1.4813
2.26739 3.53629 0.00573902
0.3909 7.69663 1.8413
-2.08699 6.30503 0.607318
1.3374 8.59233 1.27557
-2.10058 3.6417 -1.39012
0.287055 8.17709 1.86588
1.7279 4.49784 -2.00158
-2.2151 5.55239 -0.638949
-0.545836 3.54787 -2.48412
-1.68742 8.63776 -1.23088
1.39046 4.17707 1.91907
1.94336 3.25404 1.77202
0.505218 8.39273 -0.997101
-1.99484 6.94142 -0.0545391
1.86448 6.07125 0.799155
-0.718144 6.149 -2.23099
1.5756 7.68244 -0.313705
0.450094 8.38838 -1.0053
-2.45143 3.91396 -0.600934
-2.46277 5.25211 0.0510167
2.04726 4.69693 -1.61188
-2.22093 5.44775 0.672667
1.03939 8.92184 -0.863489
2.35131 5.35911 -0.572652
-1.93186 7.5042 -0.503922
-1.0387 4.5598 -2.47014
2.09869 4.5346 -1.51138
-0.147363 8.1317 1.8494
2.09734 4.92658 1.30377
1.77835 6.49235 1.28435
2.19298 5.34044 0.850844
-0.229955 8.52512 -1.12092
-2.52206 4.78259 0.33455
-2.55819 4.47668 -0.373357
1.15286 7.31834 1.07991
0.733079 8.6372 -1.02557
-1.86171 9.13858 -0.338376
-0.13437 4.79058 2.61116
2.19523 4.02667 -1.28225
-0.216588 7.70028 1.79744
-1.91999 6.16385 0.815005
2.30175 4.24857 -1.1244
-0.606132 6.11334 -2.25744
-0.912884 8.05281 1.27992
-0.866408 9.0152 0.885999
-2.55019 7.91176 0.928236
-1.53812 5.49472 1.64119
0.455067 4.74643 2.32062
-1.70951 3.81945 -2.00019
1.40767 7.18227 0.799822
-0.118056 8.80204 -1.22307
-1.70523 5.41447 -1.76119
-0.681009 8.4082 1.33723
-1.08519 4.4 -2.47315
-0.170397 4.26574 -2.76244
-0.070581 5.07365 2.41171
-2.52051 3.47678 0.785902
0.999289 9.29646 -0.91255
1.86385 5.038 -1.93206
1.548 5.71726 -1.67225
-0.0599548 5.42859 2.21927
-1.24999 3.55888 -2.17989
-1.10635 3.64762 -2.31475
2.65093 4.60008 0.493667
1.35324 5.04792 1.87496
0.516309 8.53939 -1.07668
-2.18208 6.17477 0.0940183
1.79813 2.9749 1.95555
-1.26607 7.58922 0.68246
0.677343 5.94758 -0.400218
2.46445 8.75237 0.731535
-1.16652 3.50749 -2.19329
1.78698 6.00488 -1.45272
-0.686019 7.89341 1.79525
-2.36099 3.89865 -1.07386
0.627024 5.06209 -2.54176
2.12824 3.85083 1.1885
-0.334536 3.45291 -2.50212
0.685964 5.39962 -2.35028
1.62238 5.29506 -2.00673
-2.37603 4.2096 0.972813
2.36367 6.44609 -0.382887
-0.3861 8.82577 1.28928
2.45864 5.19261 -0.100593
0.220429 4.05935 2.53256
-0.367785 5.08295 2.42909
1.54836 9.38151 -0.45319
1.44123 4.23371 1.88929
-1.12086 5.68644 -2.01854
-1.67867 4.06687 -2.19084
-0.720333 6.25088 1.81973
2.34219 3.57939 -0.08142
-0.594022 6.43774 -2.54577
-0.470496 6.55981 2.19977
0.35489 8.81815 -1.19147
2.50757 4.24778 -0.237744
-2.02238 6.53563 -1.3765
-0.326051 5.37424 -2.48775
-2.69923 8.07135 0.63735
-2.08928 6.41866 -1.31764
-1.5539 6.87685 -1.48253
-0.0789726 6.15261 -2.34987
-2.45056 5.23241 -0.363278
0.219751 3.47719 -2.71321
-1.68182 3.83745 1.65939
-2.33001 5.19099 0.898893
-2.53836 4.24216 0.191892
1.234 6.34877 1.60382
0.621426 8.19828 -0.825155
0.157507 5.15298 -2.57679
2.17263 9.30518 0.268542
2.48492 4.86971 0.89536
-1.24065 4.41241 -2.4522
-0.178064 7.49894 0.963691
0.541653 8.86627 -1.14129
-2.56508 4.39352 0.316569
1.3006 3.94766 1.96332
-1.61708 5.68841 -1.60431
2.29848 3.49911 -0.198895
1.11221 7.69731 -0.797529
-0.399675 9.08034 -0.0101125
1.30703 6.36713 1.55002
0.722009 7.53673 1.79445
-1.37313 7.77698 0.796711
2.18677 3.38127 0.589109
0.0643133 6.25162 -2.432
-2.54674 7.95809 0.0472787
1.69121 9.16122 -0.365674
1.18259 7.69425 -0.745525
-1.13882 8.29803 -1.13375
-2.56865 4.80308 0.521801
-2.39174 4.36693 -1.14961
1.63349 4.87907 -2.29913
-0.899455 5.77753 1.82781
0.187299 5.38828 -2.49414
2.62197 4.90886 0.346337
-0.756365 6.40384 -2.47771
1.57533 6.65328 1.55292
-1.08907 6.11814 1.67725
2.41664 8.89794 0.444113
1.13867 4.00211 2.03799
0.756223 9.76559 -0.984366
1.18961 7.63731 1.87664
-1.10552 5.48575 1.95298
1.86046 6.52766 -1.7907
-0.813484 4.47641 -2.54013
-0.729785 5.16111 -2.48353
0.994699 5.94607 -2.11272
-1.41544 7.69461 0.315412
1.92 4.93609 -1.85646
1.71136 4.21526 1.71755
-1.31023 6.17335 -1.88414
1.63536 9.38601 -0.362726
-0.650473 9.12124 1.03673
2.15141 6.21288 0.00420667
0.856128 7.17683 1.5408
1.36066 7.22124 0.820182
-1.93065 7.86175 -0.725686
2.38167 5.20179 -0.672703
1.47469 4.9034 -2.38122
1.42237 5.19021 -2.22657
1.31581 7.00149 1.21405
1.5236 6.95303 0.937436
0.221882 5.8002 -2.32104
-2.07199 5.99151 0.620232
-2.24201 3.13403 1.18511
-1.69247 6.16429 1.14784
1.20887 6.3409 -2.2304
2.33392 6.56452 0.0134454
-0.283863 8.8664 -1.24026
-0.254079 8.03988 1.91594
-1.05927 7.94325 1.12097
-0.187296 4.81544 -2.66106
0.773158 9.05963 -1.05847
-0.393952 4.75062 2.60427
0.633935 4.68387 -2.78342
1.28828 8.07972 -0.469503
0.668349 4.19845 -2.58897
2.04432 5.90231 -0.851918
-1.38944 4.39306 -2.42127
0.442704 5.75806 -2.29226
0.186793 2.95911 -2.86202
1.25705 7.53887 -0.740889
-0.789694 4.77857 -2.53943
-0.14338 3.70577 2.26613
-1.83653 3.63754 -1.7904
0.201229 7.97408 -0.999733
1.17631 5.23106 1.95299
-0.763388 4.6308 2.67716
1.60567 7.65023 -0.26431
1.00705 9.44287 -0.880199
-0.357729 7.48097 0.956595
0.733832 8.13585 -0.778546
-1.91244 4.2999 1.55739
0.264848 6.00031 1.94108
-1.65641 4.52301 1.81939
-1.63471 7.56497 -1.26084
0.735912 7.22767 1.54315
0.248366 8.48037 -1.0819
-0.414455 7.43555 0.960159
2.17095 6.59343 0.66488
-1.12382 6.13213 -2.01455
-1.65512 7.99467 -1.03077
-1.44244 5.46644 -1.9443
1.04478 9.33588 -0.86655
-1.67302 4.93423 -2.16539
-0.328648 7.03146 1.66773
2.13867 3.51288 1.48873
0.944906 9.47491 -0.920933
-0.181119 8.60671 1.50835
-0.953632 5.42872 -2.28039
1.08167 6.57979 1.88889
-1.34426 6.56837 -2.20224
0.674251 4.0164 2.29742
-0.722575 9.23567 0.949956
0.391773 2.83132 -2.92964
-1.12755 6.41719 1.8113
0.33402 4.02307 -2.60878
-2.34938 3.83022 -0.995593
0.647164 7.48591 1.70903
-2.29712 4.45402 -1.72022
0.209445 4.87298 2.38769
2.29805 6.36196 -0.482057
1.21689 8.5244 0.816028
-1.39346 3.78459 -2.20771
0.027213 6.66578 2.20306
-1.74872 5.44603 -1.6959
-1.5819 6.50039 1.58123
-0.903431 6.58345 2.04473
-0.846743 6.1181 -2.1671
2.33928 8.42776 0.732424
0.685107 5.4722 2.0884
-0.743599 8.82332 1.06024
1.0562 8.05282 1.9464
0.0141808 5.29079 2.2677
0.698474 5.79753 1.88218
2.07557 6.14707 0.268384
0.709932 8.44161 1.85866
-2.44866 7.78012 0.511511
-0.367147 7.91423 1.966
1.01132 7.83623 -0.755502
1.95981 6.23417 -1.1796
0.789134 4.69207 -2.75047
0.788524 9.39886 -1.01938
-1.64576 3.53564 1.60712
2.26039 5.16364 -1.01748
-0.502782 8.06457 1.93948
-1.02256 6.60685 1.9993
-1.10158 6.19045 1.65082
-0.324465 8.867 1.29883
1.73861 5.83409 1.47859
1.22113 3.62982 -2.28136
0.374612 7.22034 1.50777
-2.33888 6.43104 -0.371984
-0.801925 8.6462 1.11034
-0.145268 8.51194 -1.11508
-0.347874 4.5527 -2.6591
1.31271 7.9067 -0.524838
-1.70666 8.64636 -1.16549
-0.908767 3.61498 -2.39907
-2.5203 4.38773 0.842308
-1.85951 6.77052 -1.1325
1.61673 8.15303 0.422298
0.088251 8.70921 -1.19177
2.25339 3.40405 1.07959
-0.983146 8.21109 1.1837
0.503923 5.12685 2.2424
-0.187685 6.46471 2.11193
1.79681 4.93491 1.55698
1.20703 4.31575 2.02516
1.49082 7.1306 0.73674
0.495736 7.83237 -0.944078
-1.76906 6.82387 -1.19507
-0.218231 9.41555 -0.973994
-1.99209 6.97829 -0.00407838
-2.65101 2.79434 0.82497
1.37078 8.18884 -0.352387
-1.84822 7.64453 -0.962926
-2.74427 8.18807 0.9672
1.57883 6.51431 -2.07451
-0.901912 6.22189 -2.21892
-2.20906 5.52257 0.468846
0.363987 5.61518 -2.32338
0.462023 7.01859 1.63161
0.371034 9.32162 -1.1712
2.29299 3.93947 0.877416
-1.10119 7.82887 1.03734
-0.685447 4.5848 2.69641
0.814314 5.94525 -2.19021
-0.464287 5.96367 1.95889
-1.34667 5.84384 -2.22087
1.75862 5.15397 -2.00666
1.37737 4.66404 -2.49201
0.348781 9.8308 -1.13825
-2.47705 3.91454 -0.300037
-2.54753 4.8611 0.41564
2.41179 8.62056 0.985232
-0.41504 9.12692 1.15014
0.235638 9.38593 -1.16545
0.540068 4.71841 2.30017
-2.01983 6.51025 1.03583
-1.62978 7.17437 0.549104
0.430397 9.02548 -1.19328
-0.603716 6.32621 1.87648
-1.30824 7.40823 0.695976
2.21893 6.51634 0.537769
0.732714 9.38965 -1.04756
-0.0738076 5.55836 -2.3986
1.62978 7.14973 0.427261
0.398738 7.14985 1.53758
1.31729 6.4231 -2.23058
0.207471 9.19996 -1.21167
1.68251 3.10905 1.94755
1.13569 7.67195 0.79382
1.81165 5.96373 -1.41796
-0.658585 9.06391 1.04729
-0.609 7.69783 1.40038
-1.35262 6.16095 1.48831
-1.41739 8.31898 0.89526
-1.22518 4.08007 2.06922
1.83176 5.26985 1.42264
1.31479 8.3883 -1.02903
-2.21728 3.43681 -0.892466
2.29609 5.45722 -0.623622
1.98335 5.91663 -1.03946
1.17062 5.79446 -1.97768
1.33462 7.09299 1.02712
-2.42836 3.73369 -0.544736
-0.42116 8.39239 -1.00829
-1.77361 5.72524 1.10605
2.19624 3.51979 -0.94009
-1.17244 5.3319 -2.24282
1.09089 7.46737 1.47009
-1.74997 8.75927 -1.09803
-0.316442 4.97872 -2.62868
-2.52979 4.53368 0.934843
0.174231 6.0829 1.9509
-1.6064 8.16592 0.783052
0.766369 7.077 1.57884
0.529013 6.07332 1.90981
-1.48705 8.54921 -1.93104
0.972626 5.4868 -2.22383
0.232359 6.17534 -2.3552
2.22191 2.92417 1.5839
1.30066 9.35985 -0.69089
-0.847749 7.07354 1.407
0.431834 8.09628 -0.798908
-1.93416 7.50086 -0.583586
2.23872 5.36064 0.745912
1.77925 4.91328 -2.14033
1.28338 7.72532 0.748122
-2.20068 3.67942 1.17105
-1.82429 7.01031 -0.912479
-0.510167 4.84996 -2.62437
2.21133 3.63561 -1.08908
-1.36997 6.09007 1.50395
2.21265 3.29113 1.177
-0.626015 8.34295 1.41655
0.792053 8.52242 -0.941072
0.118418 6.47568 -2.63076
0.00358989 7.06002 1.64062
0.13391 6.20409 -2.37876
1.03534 4.89641 -2.62819
2.36446 3.89025 -0.78991
1.40691 4.23521 -2.20681
-0.11233 8.41877 -1.06107
-1.48966 4.83221 -2.28404
1.71058 7.06924 0.185398
0.581563 7.6138 1.83722
-2.17334 6.37258 0.568123
-1.58978 8.09488 0.783427
1.63514 8.21386 0.351577
2.23385 3.45613 -0.480712
-2.17557 4.02677 1.18946
1.21368 8.34962 0.706669
1.74599 7.63423 1.61301
1.20158 3.56402 2.04935
0.894564 6.57091 -2.49129
-1.75847 8.77785 -1.02744
2.16052 6.33519 -0.916119
-1.69108 4.29156 -2.29339
0.588092 5.39924 -2.39576
1.88789 9.20195 -0.148304
-2.09545 5.72893 0.524556
-1.49583 5.40251 -1.95181
0.977251 2.99521 -2.72002
-1.8719 7.04198 -0.753476
2.2576 5.49488 -0.701753
2.54704 5.08803 0.262612
-0.581756 7.13322 -1.85005
-2.36501 4.04207 -1.20782
1.43503 3.35918 2.00319
-1.39697 7.51771 -0.00105874
1.07533 7.45572 -0.969708
-0.464744 9.21246 1.11142
-0.999695 8.29122 -1.15176
1.24033 5.14275 1.93709
-0.871162 3.7524 -2.45399
-1.78997 6.52683 -1.75744
1.04644 7.51361 -0.952342
1.4345 7.50744 -0.552669
-2.56155 4.5888 -0.568918
2.35238 3.78787 -0.796099
0.286013 8.15772 -0.870122
0.4744 4.89514 -2.66693
-1.96102 6.98538 -0.285111
2.07744 4.75236 1.37061
1.61543 7.99812 0.519691
-0.39958 9.08051 -0.0100956
-1.96351 4.00693 -2.03284
1.39033 5.27023 -2.18939
0.459909 8.61014 1.75999
0.935246 5.4016 2.02001
0.792711 7.54642 -1.1271
-0.0897949 8.27855 1.75262
-0.949912 6.45376 1.93005
2.26575 4.02491 -1.15136
-2.38714 2.7968 1.17605
1.45853 7.00177 0.966415
1.62861 8.05999 0.110484
0.35658 4.71599 -2.76948
1.50745 7.73788 -0.398108
0.405118 4.40839 2.57099
1.78537 5.85907 -1.4779
2.232 4.29648 -1.26748
1.28515 9.62525 -0.594089
0.940238 9.09522 -0.968778
2.15061 9.16459 0.161966
-0.407088 9.06701 -0.0114373
0.429702 8.31088 -0.968585
0.779132 5.28145 2.11922
-0.170562 5.81858 -2.34825
-1.89376 7.46699 -0.746536
2.5041 5.15516 0.345766
1.17368 9.5852 -0.71261
-0.817113 8.97274 0.954949
1.78088 5.35546 1.42701
0.403864 7.96239 -0.861388
1.81164 5.90052 0.914774
-2.13891 3.57602 -1.24497
0.829484 6.53409 1.98409
0.523902 8.64012 -1.10493
-2.27856 6.60397 -0.341465
-1.92856 7.18473 0.134391
0.208089 7.97846 1.88637
1.61603 6.04756 1.58831
2.53659 4.46653 -0.0621012
2.1798 5.25938 -1.16725
-1.77523 8.86528 -0.626977
-1.57093 4.42799 -2.37219
1.23591 7.28569 0.891757
0.584227 3.64258 2.1725
0.185957 8.84553 -1.20949
2.10787 3.29678 1.59852
1.2009 7.2712 0.989987
-0.33741 8.96528 1.24868
1.14708 5.55643 -2.06265
2.53351 4.83119 0.817696
0.173351 6.06615 -2.33481
-0.142074 5.0138 -2.632
-1.45831 6.61914 1.72392
-2.54517 4.5675 0.343778
2.16957 6.17574 -0.328684
1.04156 4.12584 2.10615
-0.0531432 8.71865 -1.2014
-2.13966 4.45759 1.45362
2.51666 4.52641 -0.140135
-2.37856 4.4559 -1.53899
-1.86963 9.06396 -0.53871
-0.033653 8.56603 1.60637
-1.01276 6.22024 1.70724
-1.95561 4.16152 -2.08596
-0.846678 3.67274 2.11362
2.45353 4.98915 -0.458053
1.50573 5.68653 -1.70703
1.44632 7.64974 -0.484743
-0.379704 7.6208 0.882053
-0.908721 4.43241 -2.50785
-2.02853 6.3448 -1.36179
-1.84162 7.35491 -0.873791
-1.90593 7.44786 -0.666889
-1.18443 4.61722 2.38346
1.61991 5.29721 1.60029
-2.44567 3.75816 -0.468007
-0.0755143 8.86709 -1.24121
0.450492 6.42486 -2.5945
-1.54523 8.22969 0.820791
-0.398453 9.0825 -0.00989741
0.649834 8.25265 1.89553
-0.899081 3.63652 2.07373
1.37688 8.48419 1.25202
0.391444 8.2195 -0.869261
-2.17271 6.24656 0.304836
-2.08884 6.81761 0.195879
-1.75759 3.49905 1.54911
1.94604 5.97356 -1.13824
0.724105 5.91828 1.86624
-2.10542 6.35449 -1.21555
-1.49702 3.7105 -2.09374
2.1336 9.09897 0.123966
2.41578 5.26976 0.389725
-0.399814 9.08009 -0.010137
0.176539 9.85444 -1.15913
-2.54912 4.33354 -0.308925
0.909955 3.30252 -2.59318
-1.95642 7.12753 0.19216
1.57986 7.70598 0.594413
1.59472 7.43123 0.517605
1.55022 8.23721 0.493044
-1.72347 4.22423 -2.25312
-0.90302 6.23421 1.75974
1.42454 3.33155 -2.18485
-1.92971 7.02096 -0.400989
-0.728914 6.37628 1.86738
-1.31559 5.82293 -2.19616
0.185496 8.14793 -0.897731
-2.60568 8.12848 0.0682934
-2.26694 4.94203 -1.52532
-1.9965 3.38712 -1.32366
-2.5344 4.58683 -0.726318
-1.88788 7.28388 -0.702423
0.69954 4.49166 -2.77143
0.593954 8.14151 -0.809343
-2.12226 5.81238 -0.778154
1.63302 8.04351 0.458114
-2.24774 3.95032 -1.3904
1.5918 7.85802 1.83809
-2.26809 6.34173 -0.572198
-0.496451 3.5709 2.14409
1.46852 6.06934 -1.75674
1.53052 6.47594 1.4797
1.15891 5.3192 1.92926
1.17739 8.30019 0.690054
1.612 5.74004 1.50904
2.19285 6.51068 0.59825
0.081838 8.47783 -1.08658
1.09985 3.19503 -2.50874
1.10933 5.7437 -2.00099
-1.19821 7.26321 -1.6365
-1.76325 4.08517 -2.16363
1.74519 9.08439 -0.319196
-0.550731 3.79706 -2.57852
-1.65762 5.49819 1.51613
-1.85435 9.09568 -0.688666
0.717609 6.05589 1.86748
1.71443 3.77561 -1.84962
-0.636169 4.80046 2.53206
0.938411 5.9969 -2.14052
0.515583 8.18165 1.89174
0.643462 6.88762 -2.05577
1.85825 4.21422 1.57931
-0.760537 3.6834 2.15223
2.07856 6.0026 0.239664
0.230727 4.2482 -2.80991
-2.19892 5.43262 0.782575
0.94455 4.37116 2.15581
1.58031 7.86629 -0.182133
1.68214 6.94257 0.685064
0.234438 8.61148 -1.15069
-1.97945 7.62611 -0.498229
-0.218031 3.5678 2.18398
-0.858816 4.46625 2.64147
1.0247 5.64261 -2.05779
1.46868 7.70497 -0.44834
-2.11338 5.75232 0.448907
-1.05481 8.57096 1.01844
-0.953942 7.27241 -1.68671
1.11721 5.66128 -2.00699
0.885406 6.33858 -2.34326
-0.730736 5.07544 2.34793
0.923802 4.56916 2.17089
-0.419364 7.58041 0.882545
-2.59483 7.93452 0.828562
-1.8967 9.23619 -0.466842
-1.41543 8.45515 0.835964
-1.6139 6.11769 -1.60571
0.61618 7.08269 1.58134
0.246469 4.98072 2.32972
0.788859 3.96241 -2.47561
-1.61418 3.92765 -2.13077
1.80523 6.06469 0.961927
0.0593932 3.39867 -2.71908
-2.25968 6.55082 0.534814
2.38576 3.81113 0.386075
1.9301 3.62117 -1.55369
0.984486 4.04856 -2.39838
-1.86051 9.14377 -0.291349
-0.427645 3.83448 2.2831
0.53492 5.56652 2.08109
1.23897 3.88589 1.97989
0.836119 6.53328 -2.51445
0.642092 4.76047 2.2694
1.32978 8.83589 -0.700855
1.07013 8.27357 1.89335
1.8697 9.14687 -0.174985
-1.75235 6.06555 -1.45844
-0.302412 4.48439 -2.6803
-2.12698 6.19089 0.38586
0.143878 4.92719 -2.65137
-0.595279 4.44891 2.70997
2.14223 4.28982 1.24808
1.89252 6.26947 0.717852
2.29268 4.15858 -1.12675
0.683025 5.83743 -2.1931
1.12704 9.21837 -0.822774
-1.41218 3.51569 1.74187
-1.05514 7.14928 1.05214
1.82847 5.34665 1.37294
0.39276 7.89936 -0.915878
0.764651 3.61891 2.10769
2.11954 6.00862 -0.523553
0.38148 4.89322 -2.6663
1.33634 8.09954 1.89885
-2.29419 6.5477 0.323799
-2.42681 5.09626 -0.648048
1.39513 8.23431 -0.336368
0.463741 3.61606 -2.63599
0.858877 5.33084 2.07761
-1.28379 7.29103 0.718183
-2.04764 3.98927 -1.94193
-1.85452 6.61772 1.34246
1.18634 4.25325 2.03214
-1.68624 8.78932 -0.418149
2.31362 5.38803 0.487796
0.703689 8.14608 1.91698
1.51835 4.53321 -2.27377
1.27424 7.93431 1.92497
-0.851845 9.20783 0.841126
2.15369 2.81413 1.73965
0.822022 9.79603 -0.936258
-2.55219 4.21601 0.360377
1.35854 3.56845 2.01988
-1.71654 8.85344 -0.352455
-0.0110473 6.13461 1.96894
-0.702449 4.42939 -2.57738
-2.25898 5.45158 0.507173
-0.100322 6.37621 -2.5921
-0.940476 8.27626 1.19326
1.24449 9.05899 -0.746007
1.39164 6.9463 1.14194
1.28648 5.37643 1.81203
1.88832 3.64433 -1.61745
0.631971 9.16064 0.782706
-0.0673521 8.42741 1.66133
1.89672 6.67407 1.18744
-0.877125 8.198 1.27669
1.61188 8.50256 -0.46246
-0.946859 7.80756 1.14201
-0.809834 4.89949 -2.52933
0.959524 6.51929 1.915
1.3751 5.47951 -2.02096
-0.802181 7.74087 1.20326
-0.885937 5.95321 1.81467
-0.178319 3.19708 -2.66804
-2.4494 2.77854 1.11998
0.566692 8.42392 -1.0011
2.02879 5.80666 0.359949
1.50124 5.60476 1.53846
-2.47824 4.0441 -0.467948
1.8635 6.16737 0.750603
1.22945 6.08217 -1.97345
2.15087 6.36069 -1.10892
-1.20836 5.13639 2.03721
-0.473861 6.68699 2.20826
0.300534 8.90549 -1.21179
2.09195 8.92359 0.082171
0.395864 8.41396 -1.02745
1.57699 7.29822 0.542602
1.08065 8.09936 0.700158
-2.34459 4.59157 -1.61228
-0.402576 5.68164 -2.32414
-0.424182 4.15261 -2.60972
-0.700284 4.02213 -2.5735
-2.40446 5.27108 0.463728
2.04342 6.44416 -1.46283
-1.87467 7.56577 -0.899335
0.965057 7.19002 1.47746
0.653871 8.00682 -0.814748
-0.829936 5.4627 -2.30468
0.773571 5.18137 2.15169
-0.399736 6.4749 2.16523
-1.64503 7.93678 -1.09242
-0.930958 5.54847 1.98063
0.597783 5.94496 -0.50647
0.291381 9.08757 -1.21418
-2.11286 4.15137 -1.93614
2.41335 5.30471 -0.243283
0.395659 8.0126 -0.837264
2.34928 5.446 -0.0699591
-0.772276 7.76304 1.25881
1.60036 3.36989 1.96095
0.461115 6.04454 -2.28708
-2.47433 3.8338 -0.0912036
1.88616 4.42738 -1.78723
1.6186 6.28104 1.20042
2.47138 4.56518 -0.466528
-1.63761 8.67113 -1.46906
0.338587 7.07672 1.58844
-1.24292 7.08966 -1.65814
-0.233382 5.00208 2.47561
-0.851679 7.24069 -1.73163
-0.662189 6.33212 1.86291
-1.25003 7.34422 0.717887
-1.54812 4.20515 -2.33799
1.76258 2.90404 1.96962
-0.679769 4.09216 -2.5892
1.08495 7.65062 1.88807
1.03498 5.41779 -2.24392
1.64153 4.88462 1.68291
2.42433 4.79352 1.01586
0.73996 7.72502 -0.980781
2.20303 3.81852 1.0054
1.22271 6.41939 1.63638
-2.50311 4.88884 -0.489432
1.05348 9.48414 -0.836933
-1.24918 7.69745 0.80242
-0.538776 4.42953 -2.63109
-2.2067 5.5024 0.553899
-0.980923 6.32166 1.76311
2.31791 3.11045 0.99787
0.659538 9.00063 -1.10861
-2.6092 3.42709 0.296798
-2.47484 5.106 -0.308068
0.132076 8.02762 -1.00993
-1.69149 3.70837 -1.9548
1.02393 8.07676 -0.624205
0.434873 3.69755 -2.6248
-1.03838 7.80763 -1.46915
1.36126 7.77377 -0.548534
1.48448 7.6385 -0.442403
2.16379 3.87447 1.0841
1.22189 8.43674 0.759943
-0.0262288 5.4812 2.19524
-1.66748 5.80511 1.27333
0.55057 5.62527 -2.23647
-2.44306 2.94797 1.04893
0.429413 9.70258 -1.10742
1.9131 5.08049 1.42283
-0.291097 5.66032 -2.33731
-1.775 4.26898 1.69912
1.87265 5.80659 -1.31138
-0.0695956 8.00052 1.88343
-0.985119 6.8884 -1.91362
1.87509 4.50358 -1.8216
-2.3543 6.38883 -0.00242046
-2.20551 5.90524 -0.472603
1.95444 3.80222 1.56622
2.12222 3.18091 1.60133
-0.404773 4.99847 -2.61271
0.639651 9.33412 -1.10311
-1.88451 5.41907 -1.58425
-0.186771 5.82423 2.0379
0.788723 6.16856 -2.2365
1.82347 6.00128 0.926246
-0.741724 9.14852 0.955943
-1.33014 6.98753 1.17332
2.28457 3.51711 -0.586913
0.2169 8.05337 -0.930721
2.1788 6.22065 -0.135953
1.30157 8.90351 -0.707214
-0.753778 3.9741 2.25647
1.60644 7.37002 0.491255
1.86284 9.03325 -0.170122
-2.53447 4.25004 -0.302983
1.76985 5.83447 1.38232
-0.933581 4.01762 -2.47207
-1.95977 7.82145 -0.647166
-0.834304 8.12306 1.35865
-0.869399 6.40442 -2.45367
-1.69204 3.91395 1.68305
-0.253224 6.65594 2.2287
1.61269 7.82743 -0.136798
-2.14858 6.19791 0.324756
1.52365 6.69264 1.60215
0.0941763 6.3701 -2.57315
2.47875 4.90039 -0.198631
0.62379 9.39971 -1.10154
-2.16502 6.1904 -0.455427
-2.23499 6.55033 0.632513
1.69703 7.72685 1.7609
0.533663 2.99288 -2.83681
1.28334 7.06783 1.18403
2.19547 6.3991 0.469058
1.45495 7.17825 0.743042
0.713071 4.72454 2.25701
1.07362 5.78333 1.84537
1.96137 5.30885 -1.51972
-0.57471 8.63125 1.26877
0.985043 4.42557 -2.5894
1.82813 6.19184 -1.36103
-0.451501 4.78287 -2.64256
-1.41314 7.96598 0.867745
-1.34971 8.46617 0.885847
2.48614 4.01218 -0.136024
0.825119 5.93385 -0.277789
-1.72654 5.96835 1.13585
1.28487 4.04981 1.97694
1.82584 6.40334 -1.7052
2.05955 5.84493 -0.790979
-2.35235 4.70685 -1.41703
1.95859 6.12482 0.577515
0.435057 8.1411 -0.80503
-1.71303 3.53742 -1.85711
-1.06547 7.53497 0.799209
-1.3293 4.33188 -2.42774
0.241902 6.92883 -2.09575
-2.17693 3.29399 1.25989
-1.50836 7.40099 0.539501
0.70265 8.52272 1.83039
1.40224 8.79721 -0.661385
-2.45762 3.76526 0.615867
-1.47051 7.61392 -0.139805
1.59543 7.21897 0.508377
2.5509 4.41884 0.781989
-2.01727 3.55604 -1.46027
1.65912 8.16204 0.25795
-0.63902 3.77527 -2.54621
-0.309678 4.24657 2.654
-2.20308 6.66218 0.621629
1.03713 6.25735 1.84509
0.0077891 8.88008 -1.24082
0.0475841 8.1387 -0.936083
-1.22378 7.72604 -1.47905
-0.00278873 8.22474 -0.933732
-2.21959 5.89863 -0.357176
1.30972 4.17261 1.96333
-1.58594 7.9138 -1.17577
-0.656276 5.899 -2.26611
-0.952381 8.37964 1.16
1.03584 3.91437 2.07222
-0.0906167 6.1114 1.98001
-1.10516 4.47556 2.4143
-0.895465 8.8238 0.943187
1.44238 9.503 -0.510114
1.66956 7.69478 0.457323
-2.54695 4.48086 -0.0792522
-2.20602 5.60849 -0.536364
0.414607 4.15073 -2.65747
2.25369 6.55304 0.437897
-0.831498 9.17728 0.875186
0.726549 7.62609 1.86154
0.278331 6.43968 -2.61631
-2.16893 3.2497 1.74607
-2.15322 6.07339 0.302758
-1.09368 7.44661 -1.59946
1.90159 4.29122 1.53349
-2.47349 3.78587 0.354144
-1.99061 3.7482 -1.65619
0.179314 5.87463 1.99571
0.877706 8.38385 -0.8284
1.10649 5.84895 -2.03526
0.164714 3.81504 -2.62433
0.272045 5.43572 -2.4602
-0.488367 4.34608 -2.63855
-0.874316 7.73788 1.14276
1.10499 3.83664 2.02133
-1.1623 8.062 -1.27783
1.42106 4.83562 1.86138
2.14572 6.07955 -0.0109983
-1.84717 7.77919 -0.928538
1.69789 4.26719 -1.97152
-2.50337 3.34156 0.89575
1.52211 7.31652 -0.532979
2.13059 3.00036 1.73583
2.21094 5.49423 -0.941568
1.10328 9.43425 -0.808486
2.37885 5.13359 -0.711922
2.31446 2.90018 1.27667
1.65898 8.43331 -0.150487
1.67064 7.63528 1.74517
2.27903 3.63211 0.656769
-1.87692 7.46983 -0.82553
-2.51037 4.18996 -0.647294
1.08927 9.34825 -0.830614
-0.233877 3.90511 -2.64052
0.198147 9.61937 -1.13215
-2.58641 4.4611 0.422008
0.101841 9.4217 -1.15397
2.13128 5.41481 0.878359
-2.16783 6.45892 -1.14525
-0.747494 7.32213 -1.72679
2.41425 3.86918 0.323959
-0.314033 8.42286 1.55572
-1.78581 3.54967 -1.78585
-1.2465 5.6522 -1.92046
-2.53877 4.65311 -0.0316765
0.624455 6.30071 -2.40146
1.71252 6.94681 0.603164
0.700112 3.35064 -2.65967
0.303786 8.29635 -0.978044
2.08559 6.20535 0.237558
-1.92451 6.42323 1.09624
0.354609 4.31431 2.61398
0.905739 4.64276 2.1794
-0.995087 7.64289 0.905652
2.34664 4.43148 -0.995653
-1.73808 8.80942 -0.603615
0.543122 5.03845 2.24224
-1.23571 5.89336 1.61885
2.5085 4.34214 -0.288229
-2.05964 4.4715 -2.02128
0.163142 6.63777 2.19676
-2.7193 8.1239 0.714798
1.68812 5.82517 1.51748
-2.44378 4.70113 -1.02556
1.41703 4.43321 1.90272
-1.69013 7.30384 0.447145
0.436331 3.53257 -2.66371
0.529792 4.57246 -2.81373
-1.60755 8.64557 -1.57328
1.50825 8.48592 -0.801076
0.440226 7.20147 1.53228
0.40185 4.79598 2.33383
-1.47288 8.3747 -1.77931
-2.09138 6.15465 -0.916298
-0.429137 8.7458 1.30424
0.430033 3.87201 -2.60129
-1.64959 8.72443 -0.442722
-2.41693 3.76139 -0.632799
-1.39632 7.30931 0.680855
-1.12082 8.0823 1.1034
0.978091 8.09628 1.94289
2.124 9.01392 0.106657
-1.45289 7.47667 0.547536
-1.65408 7.43979 -1.2336
0.728362 7.82363 1.92415
-1.58999 7.89972 0.732222
0.936527 8.15178 -0.686546
-1.87597 7.10993 -0.733785
2.20411 3.61218 1.05401
-2.49851 4.24513 0.620571
-2.64267 8.06624 0.305851
2.42151 3.69518 -0.33761
1.35865 8.4896 1.27815
2.33529 8.49856 0.561009
-2.30689 4.55702 -1.68922
0.444578 4.93174 2.28661
0.172219 7.87034 1.8673
0.759521 7.99118 1.94144
-1.59812 7.22685 0.546451
-2.42491 3.79625 0.708491
-2.51652 4.18942 0.463001
0.860838 8.01554 -0.73807
2.49183 4.93195 -0.09017
2.26429 5.07312 -1.03004
0.211033 9.10353 -1.22291
-1.54035 8.54289 -1.78827
1.45461 8.22994 0.592929
1.35381 4.16757 -2.22392
-0.915107 3.85211 -2.46138
0.874148 3.68603 2.10274
0.979468 3.62335 -2.47432
2.29347 2.93781 1.36191
-1.44854 8.44368 -1.94586
2.22961 5.04802 -1.11125
0.800713 9.85174 -0.932162
-1.38838 7.60587 -1.45582
0.29574 4.58541 -2.83354
0.196082 9.41382 -1.16367
-0.482922 4.20911 -2.61765
-1.84613 4.48657 1.64033
-1.29013 8.2929 0.987454
-0.00887891 3.7796 -2.64064
-0.892171 7.52864 0.868548
1.03598 3.86177 -2.35347
-2.36658 4.6305 -1.50069
-1.32335 5.44882 -2.05704
0.56732 6.307 1.86249
1.2197 6.98392 1.43365
2.26792 6.4861 0.285873
2.29576 6.56426 0.158477
-1.08221 7.88659 1.07842
-1.46839 7.68308 -0.148496
1.20929 8.3994 0.74192
-1.20886 7.84779 0.957015
0.0868162 5.06027 2.34606
-1.73587 4.89417 1.69388
-2.05597 5.33056 1.21957
0.877457 7.46647 0.210303
-2.25173 5.30932 -1.06431
2.04463 3.57227 -1.32054
-2.31651 5.33275 0.611535
2.07135 5.09315 1.248
-1.06907 3.89928 -2.41787
-0.989497 7.53253 -1.58233
1.6279 7.35332 -0.277595
-0.916233 5.03362 -2.47223
1.3192 6.95205 1.32886
1.66091 9.30486 -0.367351
-0.25446 7.25054 -1.78699
-2.42999 5.29357 -0.417353
-1.63426 7.24071 -1.26855
-0.691255 9.2892 0.960136
0.281019 3.99316 2.4447
1.05887 6.15138 1.89869
1.3195 5.1208 1.88614
-1.6986 8.74814 -1.28879
1.54344 8.01799 0.605252
-2.01494 6.79509 -0.555698
2.03876 6.08892 0.42336
2.23853 5.491 -0.836266
-0.702251 7.46009 -1.66348
-0.00736358 8.58056 -1.13909
2.49542 4.2823 0.838487
-1.22165 5.61852 -1.97406
0.490274 6.38949 1.9236
1.44761 5.55835 1.59042
-2.25592 3.26419 1.17452
0.142828 3.87718 2.33663
-1.00117 7.88966 -1.42831
2.05177 6.29552 -1.15365
-1.26087 3.56666 1.85007
-2.15852 6.37532 0.648469
1.37481 6.39842 -2.18591
-0.226887 8.88244 -1.23907
-1.17781 7.86588 0.992134
-1.23975 7.18441 0.829887
-0.896505 5.39838 -2.32346
0.0777886 4.1974 -2.7902
1.62835 8.42232 -0.197506
-0.448216 8.79461 1.26874
2.48305 4.73872 -0.373633
-0.158224 5.76428 2.05258
-1.35921 5.13552 -2.19776
-0.0425392 8.77029 -1.21954
1.84849 6.31065 -1.51355
2.16355 9.21872 0.201309
-0.961296 4.60815 -2.4879
2.14998 4.08511 -1.37102
0.899948 7.1235 1.54308
0.824958 7.59702 0.295558
-0.634676 3.4675 -2.43288
2.30571 3.64779 0.537439
1.69492 7.18593 0.121703
0.138111 6.2162 1.9325
1.68434 8.09305 1.77592
-2.42836 4.99159 -0.74004
-1.31466 7.71346 -0.00140896
-0.281089 8.48901 -1.09064
1.67403 5.44325 -1.78496
2.23486 2.96695 1.50113
-1.27801 7.81746 -1.40818
2.6209 4.14296 0.446048
2.43783 4.17847 -0.614056
0.917603 7.62597 1.87175
-2.5633 3.57908 0.136931
1.58586 7.49457 -0.326739
-1.25132 5.9822 1.6114
-1.89286 6.12715 -1.28068
-0.216257 8.31368 -0.975425
1.61984 6.1754 1.50729
-0.630719 5.53294 2.12549
-1.87075 5.83692 -1.39482
-1.99902 6.86587 0.430489
2.45911 4.2953 -0.578635
0.498289 9.00366 -1.17282
-1.16691 6.06166 1.64381
-1.83278 8.9941 -0.754475
-2.32539 6.5548 -0.252831
0.893157 9.65208 -0.921941
0.446079 8.02651 -0.81173
0.920807 7.17085 1.5181
1.21623 5.60762 1.73161
-0.30151 9.225 -0.00269923
0.581472 8.24605 -0.861586
-2.28451 2.85561 1.30092
0.150822 9.56608 -1.13327
1.02865 8.85713 -0.872004
2.3639 6.47377 -0.14881
-2.46631 3.89673 -0.378325
1.69091 7.04019 0.366757
-0.0343886 9.4873 -1.0785
1.91018 4.17319 -1.72919
2.34578 3.95031 -0.881602
1.66448 7.56078 -0.112156
-0.628937 6.61731 2.15806
-2.54188 8.11825 -0.309444
-0.389631 9.09759 -0.00838534
-0.868957 8.44123 1.19432
-0.934094 7.19086 1.05038
0.26685 7.74434 1.8331
1.42459 7.6134 -0.524535
0.132881 8.52238 -1.10563
-1.25653 6.26726 1.54515
-1.37025 4.11731 1.97021
1.23394 5.86552 1.81178
0.680613 5.93463 -0.592789
1.17737 6.06703 1.8736
-1.83416 5.42725 1.36945
2.16889 6.08909 -0.19898
0.377368 6.79018 -2.2618
-0.74626 4.74572 2.59487
1.56142 5.99693 1.62683
0.49149 9.87889 -1.11353
-0.562093 4.17367 2.52784
-0.133409 4.88198 -2.65617
-2.17253 6.71205 0.478766
1.31018 3.47754 -2.26356
-1.20508 5.00841 2.12564
2.4071 5.32785 -0.0715712
-0.910149 8.39324 1.18361
-0.293622 3.74525 -2.61136
0.602546 8.76255 -1.09678
1.8719 6.20467 -1.30088
-2.15078 6.11334 -0.412992
-2.47624 4.13215 -0.943397
-0.202021 9.0128 -1.24626
-2.51854 4.57262 -0.80444
0.509156 5.64942 2.03957
0.358599 8.70066 -1.172
-1.26352 5.17138 1.98425
2.03918 3.4788 1.65641
-1.77492 5.89355 1.08157
0.614806 9.81956 -1.05163
0.177512 5.127 2.29733
-2.31315 3.80756 0.953759
1.02328 7.16666 1.44379
-1.8649 5.76264 1.00823
-2.26679 5.26659 0.933926
0.226499 5.06396 -2.60419
1.63229 4.16565 -2.01602
0.683746 5.93507 -0.543751
2.16995 5.93722 -0.0745722
2.47749 5.0568 -0.130495
1.20467 5.08356 -2.39322
-0.193301 5.5059 2.18899
-0.250962 5.3556 -2.50221
-1.11598 3.55146 -2.25156
-0.257904 3.48675 -2.53295
0.458776 3.78312 -2.60394
1.82793 6.362 -1.63752
0.403495 4.62813 2.39671
-0.128888 4.42873 2.7325
1.61606 7.32727 -0.348188
1.72408 9.27635 -0.318161
0.678504 8.43716 -0.961274
2.20209 3.56983 -1.03218
1.1664 3.133 -2.47081
-2.15455 6.08801 -0.495791
1.40846 7.79684 -0.489324
1.15162 5.07828 2.01489
0.534881 7.73336 -1.04041
-2.49861 4.98854 -0.122022
-2.49627 4.32209 -0.883332
1.09306 5.121 -2.40066
1.75089 4.14566 1.682
2.02411 4.47731 1.41653
2.02137 5.90285 -0.933258
1.58971 8.05552 0.530797
2.21072 3.70511 -1.13767
1.71193 7.77645 0.379363
1.20347 7.49364 -0.81077
-0.199433 5.9934 2.00742
-1.51344 5.72459 1.45618
-1.15144 5.77986 1.69621
-0.696231 6.3065 -2.40459
-0.931417 3.70001 2.09326
1.6482 4.74017 -2.28255
-1.21287 6.59804 1.88209
-2.49617 4.12973 -0.484843
2.10099 6.3623 -1.23588
-0.574441 5.07295 -2.53983
-1.00571 5.36905 -2.2948
-0.915069 9.04802 0.735
-1.42735 3.88396 -2.22869
0.515227 8.71774 -1.11568
-2.30807 4.05638 0.932522
-0.383432 3.93632 2.33099
-1.39292 6.95478 -1.58994
-0.507923 8.76574 1.24108
-1.88923 7.0263 -0.674201
-1.80694 8.8937 -0.82865
0.314886 8.49094 -1.07798
1.49996 8.81759 -0.574731
1.60578 6.59074 1.50955
2.34739 5.31456 0.549958
-1.62716 4.62868 -2.31618
-2.47309 3.80675 -0.177441
-2.42816 5.3588 -0.159902
0.189203 8.4483 1.76617
-1.9968 5.55822 -1.2304
0.950348 5.28636 -2.33709
-2.36921 7.91254 -0.575601
-1.31306 3.46759 -2.09515
2.42464 4.8226 -0.692545
0.135038 8.59768 1.67988
2.11227 8.54922 0.107988
-1.7728 7.2196 0.454989
-2.006 4.25214 1.43714
-2.49042 5.05347 0.176159
-2.0368 5.62487 -1.06374
1.8369 3.59407 -1.68548
1.5365 7.80163 -0.336289
-2.01329 5.95289 -1.0792
-2.38239 5.05414 -0.896623
-0.430881 7.3307 1.05161
0.118018 3.80718 2.30599
1.53289 8.29498 0.501062
-0.0431811 5.24048 -2.55693
0.810063 8.46918 -0.900156
1.99698 6.62107 1.02757
0.843603 4.48297 2.19994
-0.394826 3.9772 -2.5911
-1.38706 6.60314 1.77322
-1.90775 3.61751 -1.67114
-2.54513 7.8757 0.341428
2.07378 4.45634 1.35882
0.654164 5.77702 -2.18357
-1.77849 8.93477 -0.376504
1.35838 5.7358 -1.82975
-2.05006 6.43458 -1.38374
2.28335 2.78335 1.42627
1.88794 3.76119 1.68115
-1.62071 6.97035 -1.34171
2.10095 4.43626 -1.5151
1.53993 3.31572 -2.06554
-2.2346 6.29388 -0.428821
-2.23509 6.33153 -0.717877
0.370034 7.64232 1.81212
1.57755 3.96457 1.81814
-0.17239 6.24875 -2.41259
-1.36862 5.61759 -1.86747
-1.48197 6.38232 1.49567
1.13041 7.53821 -0.858341
2.1176 4.52588 1.32285
1.53273 6.01487 -1.72592
0.0953841 5.35849 -2.51037
0.562999 7.1195 1.56612
2.22755 6.50162 -1.02551
-2.15333 4.22806 1.26181
0.464413 6.56992 -2.6126
-2.33843 5.03029 1.0829
-0.578261 7.5116 0.869105
0.974844 4.55806 -2.68389
1.30564 3.751 1.97602
1.50346 7.9475 0.661497
-2.32676 5.11403 -1.04459
2.1837 5.53067 0.620734
0.424881 9.50261 -1.12565
-0.496249 9.17808 1.10365
0.0632526 6.47419 2.10224
-0.607282 4.48784 -2.61035
-2.55686 4.77604 0.790917
-1.07411 6.32179 -2.25098
-1.40534 7.73837 -1.39554
-2.45279 5.28905 -0.227555
1.56067 4.75559 1.76468
-0.335472 4.81644 -2.6521
0.814855 4.51357 -2.73296
-0.0663552 7.58951 1.68594
0.536113 9.87593 -1.09603
-0.639586 7.56054 0.874874
-0.139867 9.40112 -1.03881
-2.00629 6.96592 0.30537
-2.34211 6.48998 0.199531
-1.51051 8.15982 0.843949
2.17503 5.96083 -0.179844
-0.667946 6.43093 -2.51725
0.845822 5.23825 2.10803
-2.02126 6.1202 -1.04089
-1.31883 3.92685 1.9564
1.50976 6.6178 1.60873
2.53141 4.67068 0.866388
-1.81212 9.00624 -0.336004
1.62737 8.35253 -0.0976076
2.36935 5.39942 -0.255007
-0.631596 6.39913 1.91491
0.814554 4.60531 -2.74807
1.26838 9.11524 -0.733989
0.17537 8.90389 -1.21759
1.10905 4.46083 0.140915
0.725789 5.93838 -0.554742
-1.34384 6.78543 -1.75962
0.916745 7.26618 1.49062
0.778092 8.6216 -0.986843
-1.2347 4.72171 2.31761
-1.01348 7.60444 0.858685
-2.425 3.90659 0.47054
-1.5597 7.44556 -1.35438
0.219843 5.25033 -2.54401
-2.31138 3.39055 1.15133
1.69258 7.45742 0.33359
-0.389072 9.09734 1.17077
-0.610118 6.0359 -2.25439
1.35099 6.79421 1.73434
-2.43925 3.95623 0.408958
1.04908 6.50289 -2.37731
1.11529 4.8997 2.05802
2.0158 4.40114 1.42079
0.776741 8.15075 -0.759144
0.537504 6.0185 -2.28054
0.679398 4.7474 -2.75699
1.76396 6.37897 1.12706
0.930711 5.19995 -2.38415
-1.89063 7.33623 -0.622877
-2.41425 7.90266 -0.460692
-0.213293 3.71603 2.26725
2.4965 4.42965 -0.331791
0.590576 8.28771 -0.889032
1.19598 6.18138 -1.99968
0.697341 5.09325 -2.49622
-1.91518 7.15591 -0.000211024
-1.76529 5.87248 -1.97482
1.61008 4.94912 1.69238
-1.34861 7.27619 -1.55214
1.18641 5.41744 -2.18829
-2.45823 4.96048 -0.664913
0.643077 4.59401 -2.79513
1.88521 6.61839 1.2181
-2.16023 5.94618 -0.642129
1.70493 3.83448 1.78175
-0.441891 7.9994 1.96579
1.89011 5.95179 -1.2694
0.651997 9.19799 -1.10221
-1.81856 8.97337 -0.817846
0.559422 4.25228 2.45494
1.14825 4.69711 2.04872
1.21448 7.36831 0.832607
2.36039 5.04044 0.92656
-1.58403 5.43056 1.64066
-2.09948 6.30397 -1.13155
-2.48198 3.999 -0.815009
-0.0482387 3.70995 -2.64244
1.88965 6.37644 -1.58377
-2.32467 2.95142 1.15264
-1.75418 3.46526 -1.76211
0.974454 5.46837 1.96947
0.653336 6.63729 2.08461
1.93957 6.33199 0.73018
-0.0741226 3.83995 -2.65195
-1.0817 4.13416 2.1792
-0.0449002 7.70098 1.78835
1.48719 6.44867 -2.1338
1.36466 8.47107 -0.9662
-2.24954 4.28 -1.76898
0.189702 8.10208 1.87539
-1.01038 3.43293 -2.24162
0.213994 3.93436 2.37493
-0.656113 6.97428 -1.97131
0.444198 8.25843 -0.919168
1.3979 7.39609 -0.661213
1.5282 6.14791 -1.69666
2.4044 3.64319 -0.400795
-1.53452 7.26558 0.582332
-1.30278 6.32373 1.54336
0.82439 6.08744 -2.20825
0.103737 5.2676 2.26699
0.851178 9.722 -0.937743
1.53607 8.71702 -0.585514
-0.168888 5.62487 -2.35276
-1.86387 5.46508 1.30298
-0.099784 7.55984 1.63279
-2.47041 3.82105 -0.315025
2.1368 6.30438 0.237239
1.69948 8.80781 -0.356945
-0.481438 5.44576 -2.42205
1.0012 6.71147 1.98049
2.21286 5.22045 0.942574
-1.95388 5.9929 -1.18114
2.16901 5.57081 -0.901045
2.17316 6.142 -0.24915
0.379945 9.06133 -1.20057
2.4155 4.9814 -0.655913
-1.38402 6.44509 -2.15299
1.64919 7.57785 0.447683
0.819467 4.08469 2.22017
-2.56911 3.28433 0.731491
1.79918 4.67332 -1.99402
-0.284968 3.616 2.20948
-2.54883 4.48982 0.287596
1.34091 8.2188 0.647285
-2.20171 6.21213 -0.0774979
-1.77368 6.61175 1.43423
2.22562 5.54699 0.418608
-1.26494 5.87543 -2.18681
1.34873 4.42618 1.94925
-1.00972 7.77655 1.07574
-1.72887 8.72087 -0.801993
1.47404 3.8099 1.90736
-2.58282 4.64902 0.644762
-2.04441 6.04681 -1.01093
1.76144 6.70605 1.36646
1.35989 4.88787 1.89887
-2.48164 5.11972 0.537826
1.73148 7.81552 0.265023
-1.50626 6.25179 1.37468
2.45534 4.33382 0.9398
-0.915719 4.91568 -2.49081
-0.787138 5.70282 -2.19139
2.53711 4.93849 0.0415799
0.105162 5.07242 -2.61245
1.7831 5.42242 1.37069
-0.846668 6.51079 -2.48563
-2.05754 5.38933 -1.33941
-0.097531 8.54594 -1.13124
2.12241 6.06379 -0.554702
-0.0472661 6.19776 1.95476
2.4323 5.06879 -0.519976
2.21713 3.04374 1.46684
-0.328089 4.44699 2.7305
1.87683 4.48629 1.54678
-1.57382 3.5494 1.65819
1.05862 7.008 1.53611
-2.49547 3.42132 0.872028
-1.64637 6.47273 -1.94242
-2.40318 5.03779 -0.805382
1.81855 3.86064 -1.7512
0.0125253 4.28853 2.66944
-1.45174 3.5709 1.74486
-1.02305 7.20899 -1.69682
-0.62379 4.78761 -2.60051
1.74633 7.70251 0.119292
-2.20248 5.98581 0.0452758
0.75428 5.46874 2.06652
1.30433 3.81304 -2.19724
-2.56954 3.40647 0.0698918
-1.43093 5.87733 1.50682
-0.675413 3.8214 2.23943
-2.46128 3.75932 -0.366344
2.61022 4.83913 0.500498
-1.95152 7.08109 0.339633
-2.58764 3.40255 0.57972
-0.576106 8.44109 1.39463
0.849806 4.5513 2.20131
0.254117 8.23007 -0.905296
1.18096 5.77111 1.78182
0.5366 5.20402 2.2235
2.54066 4.10129 0.0737977
1.68023 8.22092 0.136438
-2.41756 3.60017 -0.418755
1.73016 7.44079 0.14105
2.07904 6.18851 -0.851802
-1.66808 3.62105 1.61046
1.98353 4.86326 -1.73582
-1.71092 8.63745 -1.10485
-0.827286 8.8796 0.979051
0.953363 3.39 -2.53975
-1.24074 8.33112 1.00975
-1.22812 4.63155 2.3075
1.83805 9.05639 -0.208773
0.960964 5.39884 -2.28118
-2.54965 4.46454 0.822014
1.00881 9.73539 -0.777346
1.84564 4.78517 -1.97612
1.44828 3.29168 1.99331
-2.43981 4.24026 0.832656
-0.43193 8.45461 -1.06356
-1.43344 6.97855 1.01683
-0.546881 9.05346 1.10904
1.37908 5.16241 1.83382
0.41236 9.77142 -1.11595
-2.44629 5.24909 0.237327
-2.52375 3.65613 0.580328
1.58333 3.5014 1.96105
-2.59451 4.51174 0.53481
-1.65233 7.97996 0.733844
-0.882355 7.91627 1.24387
1.98716 2.97827 1.88626
-0.908322 5.2261 -2.40111
-1.23004 7.33506 0.726848
-0.763071 6.53315 2.07272
-2.30812 4.8483 -1.50972
-1.76325 8.77754 -0.960688
-1.33945 3.65546 1.85335
1.28007 4.86602 1.95986
0.702527 8.77723 -1.05799
2.11153 6.07554 0.123586
1.49379 7.06127 0.829339
-2.12735 6.45941 -1.24015
1.32634 7.82945 -0.555855
0.767041 5.98995 -0.252057
-2.4255 5.33514 0.13299
-2.36613 6.46625 0.119381
1.81919 5.03409 1.52143
-2.54197 7.86628 0.775519
1.15894 3.75151 2.00638
-1.75117 7.26828 -1.06843
-1.38939 8.37341 -1.00463
-2.01134 6.91179 -0.0145887
-1.88898 7.71278 -0.882505
2.18696 6.45628 -1.1561
-0.53939 7.50421 0.872722
-2.48655 4.36787 0.937727
0.376504 8.28451 -0.960447
-1.89783 6.52298 1.24227
2.27262 4.05758 0.944422
-1.94547 4.86438 -2.03402
-0.881773 6.95847 -1.89917
2.1539 5.14321 1.0985
1.56657 7.55725 -0.350804
-2.52186 4.37399 -0.728203
-0.788329 4.08872 -2.5346
0.980756 8.03673 -0.651923
-0.2556 6.72739 2.21509
2.20768 4.6369 -1.319
-1.66136 4.35152 1.79835
1.55765 7.7111 1.85424
-0.795108 3.5214 -2.39717
0.317326 7.52073 1.7114
1.62883 4.70008 1.72009
1.80093 6.23757 -1.43182
0.794486 4.15993 -2.52087
1.27287 4.28408 1.98704
-2.41844 4.8519 -1.01281
0.217221 3.33161 -2.75339
1.69868 7.70034 0.386312
1.62175 8.16738 1.82464
-2.53849 4.26691 -0.38574
1.43999 3.52507 -2.13144
-2.23195 2.93451 1.36614
0.0630052 8.56266 -1.12651
1.4059 3.8296 -2.12578
-2.20927 5.29859 1.01426
-0.332196 8.00236 1.95015
-1.05317 4.5488 2.53393
-2.37701 4.47698 -1.21329
-0.855185 4.65528 2.6488
0.0460414 8.23502 -0.925296
1.14358 4.33977 2.05782
-2.26762 4.6028 1.37818
1.87824 5.09302 -1.8378
-1.70391 6.4472 1.38142
-0.224034 8.65986 -1.18002
-1.8821 7.3993 -0.754762
-0.185427 8.33884 -0.996921
1.01174 6.02294 -2.09361
-2.47736 5.13904 -0.244435
-1.21598 7.90208 0.970569
1.16337 8.13816 -0.566177
2.33616 4.61647 1.15286
-2.2011 6.02748 -0.0945549
-2.46863 3.8899 0.102995
1.28131 7.00999 1.29318
-2.53631 4.34075 -0.643471
2.47995 4.36857 -0.475208
-1.11543 6.52875 1.92131
-0.235703 8.36023 -1.00201
0.10123 9.00841 -1.23342
0.174279 6.48585 2.11759
2.5728 4.87771 0.587374
0.822574 8.15533 -0.73814
-0.701459 9.19389 0.974908
-2.09333 4.60294 1.53501
2.02865 5.21963 -1.46253
0.54233 9.42501 -1.12739
-1.30129 4.32727 2.05573
1.9407 5.58468 0.984817
-0.503582 7.49697 0.883446
0.564103 6.94433 -1.99449
-2.65774 8.0551 0.386371
0.83416 9.0956 -1.03412
0.117468 8.09699 1.86948
-1.407 7.69417 0.630651
-1.85467 3.85095 1.50184
-2.00354 6.77615 -0.690027
-0.02172 5.98989 2.01603
-2.24629 4.452 -1.79584
-0.896127 7.68615 1.0686
-0.233838 6.31813 -2.53082
-1.06037 7.47823 0.799009
1.26511 6.00285 -1.93943
2.40008 5.31693 -0.344111
0.120022 5.92829 2.00156
-1.41375 7.86977 -1.3222
0.430571 3.44256 -2.69207
-2.58286 8.01516 0.107056
-1.39395 5.35952 1.82091
-0.858312 7.41034 0.863727
2.01741 2.89759 1.88926
1.48373 8.11577 -0.16336
-2.4944 4.93584 -0.386304
-1.92276 7.19836 0.274962
-1.63446 3.74321 -2.00949
-1.68042 6.54978 1.50296
-0.524141 6.23401 1.88873
1.36964 6.38262 1.52331
-0.432746 4.53039 -2.64484
-1.50643 8.39391 -1.69971
0.332551 4.81694 2.35633
2.21466 5.44131 0.688148
-1.9779 3.96483 1.43906
-2.23421 5.6071 -0.139346
-0.749609 4.3648 -2.55936
1.43838 4.1492 -2.1679
-1.06753 4.77152 -2.44331
-1.75889 5.86011 -2.06986
1.10075 7.42502 1.34793
2.14797 4.29294 -1.41621
0.258327 6.75646 2.18896
-1.49112 6.55101 1.69636
-0.413398 9.02456 1.18487
-1.32657 3.85833 1.93519
-0.997185 4.57379 2.59449
0.182086 3.99553 -2.61707
1.17556 5.86847 -2.00322
2.16446 6.25383 -0.694516
1.57755 5.20206 1.66641
-1.14191 5.40816 1.97263
1.05531 4.80731 -2.66632
-1.82941 7.08572 -0.868686
2.28166 4.51284 -1.17548
-1.89868 4.82008 1.5703
1.42959 4.92298 1.83941
-0.510515 4.9585 -2.59912
1.59693 7.49669 0.525104
-1.68173 7.40041 -1.19239
0.632464 5.76838 1.91504
-2.03163 6.89151 0.329297
0.633579 6.0614 -2.25736
-0.944442 8.02111 1.24526
-1.51998 7.81568 -1.29268
1.58178 7.95246 0.577007
-0.16066 3.87752 -2.65049
0.693686 9.21732 -1.08286
2.16476 8.87261 0.133826
-2.02369 6.85222 -0.274195
0.0122351 4.53037 2.71534
0.477834 9.6601 -1.0979
2.31066 2.93183 1.17903
2.49684 4.4059 0.898628
-2.30915 5.0605 -1.14418
-0.438496 4.92097 -2.62635
1.08547 8.10319 -0.594088
-1.55169 8.43224 -1.47588
0.531753 4.18319 2.49156
1.93534 5.05773 -1.72586
-2.1696 3.57197 -1.1701
-0.595544 4.25758 2.60593
1.0589 3.66101 -2.42177
-2.48188 4.25326 0.714446
-1.97855 5.27594 -1.57141
2.30388 4.43707 -1.12182
2.27051 3.56157 0.705634
1.21554 8.12744 -0.527941
-2.05355 4.05634 1.37976
1.94889 6.88621 -0.124403
-1.44141 5.85702 -2.22561
0.768808 5.9688 -0.293154
0.64239 3.60667 -2.59112
1.2856 5.78826 1.73785
-0.536263 8.98476 1.13413
-1.36902 7.8121 -1.37696
0.893878 5.36665 -2.31635
-2.20156 5.68171 0.165525
-0.165151 4.48586 -2.74985
1.50799 5.22915 -2.15071
0.678377 6.94233 1.67501
-0.0417864 3.41157 -2.68028
-1.8887 6.666 -1.35751
0.298029 8.31519 1.83141
-0.622785 3.85676 -2.57207
-0.0449946 2.95925 -2.7992
-0.297563 4.94478 2.49447
0.683661 5.73892 -2.16728
0.716219 6.09431 -2.24614
-1.62473 6.82749 -1.43908
1.27592 5.95306 1.81168
1.12512 7.41209 1.10445
-2.11226 5.57086 0.743371
2.20847 5.30682 -1.09155
-1.85808 6.44464 -1.66481
-1.7768 8.8847 -0.570202
