1.3138 6.93943 1.30466
1.3138 6.92638 1.30466
1.3138 6.91334 1.30466
1.34905 6.89146 1.33966
1.40175 6.86526 1.392
1.40175 6.85226 1.392
1.40175 6.83925 1.392
1.55863 6.78731 1.54779
1.55863 6.77438 1.54779
1.55863 6.76145 1.54779
1.50654 6.76137 1.49606
1.61052 6.72283 1.59932
1.61052 6.70993 1.59932
1.61052 6.69703 1.59932
1.55863 6.69681 1.54779
1.61052 6.67122 1.59932
1.61052 6.65832 1.59932
1.61052 6.64541 1.59932
1.61052 6.63251 1.59932
1.52393 6.64058 1.51333
1.52393 6.62764 1.51333
1.52393 6.61469 1.51333
1.54129 6.59756 1.53057
1.54129 6.58463 1.53057
1.54129 6.57169 1.53057
1.54129 6.55875 1.53057
1.59325 6.5334 1.58216
1.50654 6.54117 1.49606
1.50654 6.52822 1.49606
1.52393 6.51114 1.51333
1.52393 6.49819 1.51333
1.52393 6.48525 1.51333
1.52393 6.4723 1.51333
1.52393 6.45936 1.51333
1.52393 6.44641 1.51333
1.52393 6.43347 1.51333
1.54129 6.41645 1.53057
1.54129 6.40352 1.53057
1.52393 6.39463 1.51333
1.45425 6.39793 1.44413
1.45425 6.38495 1.44413
1.45425 6.37197 1.44413
1.40175 6.37117 1.392
1.40175 6.35817 1.392
1.40175 6.34516 1.392
1.38421 6.33621 1.37458
1.38421 6.32319 1.37458
1.3138 6.32636 1.30466
1.50654 6.26917 1.49606
1.52393 6.25224 1.51333
1.54129 6.23534 1.53057
1.54129 6.22241 1.53057
1.55863 6.20554 1.54779
1.55863 6.19261 1.54779
1.55863 6.17968 1.54779
1.52393 6.17458 1.51333
1.645 6.13442 1.63356
1.645 6.12153 1.63356
1.645 6.10865 1.63356
1.62777 6.0996 1.61645
1.6794 6.07522 1.66771
1.66221 6.06616 1.65065
1.59325 6.06858 1.58216
1.61052 6.05184 1.59932
1.61052 6.03894 1.59932
1.55863 6.03747 1.54779
1.55863 6.02455 1.54779
1.66221 5.98889 1.65065
1.6794 5.97225 1.66771
1.6794 5.95938 1.66771
1.6794 5.9465 1.66771
1.61052 5.94861 1.59932
1.61052 5.93571 1.59932
1.61052 5.9228 1.59932
1.61052 5.9099 1.59932
1.61052 5.897 1.59932
1.6794 5.86928 1.66771
1.6794 5.85641 1.66771
1.61052 5.85828 1.59932
1.59325 5.84907 1.58216
1.59325 5.83616 1.58216
1.59325 5.82325 1.58216
1.59325 5.81034 1.58216
1.645 5.78646 1.63356
1.61052 5.78086 1.59932
1.61052 5.76796 1.59932
1.61052 5.75506 1.59932
1.61052 5.74215 1.59932
1.55863 5.74013 1.54779
1.55863 5.7272 1.54779
1.48913 5.72878 1.47877
1.50654 5.71219 1.49606
1.4717 5.70649 1.46146
1.4717 5.69352 1.46146
1.4717 5.68055 1.46146
1.4717 5.66758 1.46146
1.4717 5.65461 1.46146
1.52393 5.6309 1.51333
1.54129 5.6144 1.53057
1.54129 5.60146 1.53057
1.61052 5.5744 1.59932
1.61052 5.5615 1.59932
1.4717 5.5768 1.46146
1.55863 5.5462 1.54779
1.55863 5.53327 1.54779
1.59325 5.51337 1.58216
1.59325 5.50045 1.58216
1.52393 5.50146 1.51333
1.54129 5.48503 1.53057
1.54129 5.4721 1.53057
1.55863 5.4557 1.54779
1.57595 5.43933 1.56499
1.59325 5.42298 1.58216
1.59325 5.41007 1.58216
1.61052 5.39375 1.59932
1.55863 5.39106 1.54779
1.55863 5.37814 1.54779
1.55863 5.36521 1.54779
1.61052 5.34214 1.59932
1.61052 5.32923 1.59932
1.61052 5.31633 1.59932
1.61052 5.30343 1.59932
1.55863 5.30057 1.54779
1.55863 5.28764 1.54779
1.55863 5.27471 1.54779
1.55863 5.26178 1.54779
1.62777 5.2356 1.61645
1.6794 5.21284 1.66771
1.6794 5.19997 1.66771
1.69656 5.18384 1.68476
1.59325 5.19057 1.58216
1.59325 5.17766 1.58216
1.61052 5.16148 1.59932
1.61052 5.14858 1.59932
1.61052 5.13568 1.59932
1.61052 5.12277 1.59932
1.62777 5.10665 1.61645
1.62777 5.09375 1.61645
1.62777 5.08085 1.61645
1.62777 5.06796 1.61645
1.61052 5.05825 1.59932
1.61052 5.04535 1.59932
1.61052 5.03245 1.59932
1.62777 5.01638 1.61645
1.61052 5.00664 1.59932
1.62777 4.99059 1.61645
1.645 4.97455 1.63356
1.66221 4.95854 1.65065
1.6794 4.94255 1.66771
1.6794 4.92968 1.66771
1.6794 4.91681 1.66771
1.6794 4.90394 1.66771
1.69656 4.88799 1.68476
1.6794 4.87819 1.66771
1.69656 4.86226 1.68476
1.69656 4.8494 1.68476
1.73082 4.83047 1.71878
1.645 4.83279 1.63356
1.645 4.8199 1.63356
1.645 4.80702 1.63356
1.73082 4.77908 1.71878
1.7137 4.76922 1.70178
1.7137 4.75637 1.70178
1.69656 4.7465 1.68476
1.76499 4.72177 1.75271
1.76499 4.70894 1.75271
1.76499 4.69611 1.75271
1.76499 4.68327 1.75271
1.74792 4.67337 1.73576
1.66221 4.6752 1.65065
1.66221 4.66232 1.65065
1.66221 4.64944 1.65065
1.6794 4.63364 1.66771
1.6794 4.62077 1.66771
1.6794 4.6079 1.66771
1.6794 4.59503 1.66771
1.6794 4.58215 1.66771
1.6794 4.56928 1.66771
1.6794 4.55641 1.66771
1.69656 4.54069 1.68476
1.73082 4.52214 1.71878
1.73082 4.50929 1.71878
1.73082 4.49644 1.71878
1.73082 4.4836 1.71878
1.73082 4.47075 1.71878
1.6794 4.46631 1.66771
1.6794 4.45344 1.66771
1.6794 4.44057 1.66771
1.6794 4.4277 1.66771
1.6794 4.41483 1.66771
1.6794 4.40196 1.66771
1.6794 4.38909 1.66771
1.74792 4.36524 1.73576
1.74792 4.3524 1.73576
1.73082 4.34228 1.71878
1.73082 4.32943 1.71878
1.74792 4.31388 1.73576
1.74792 4.30104 1.73576
1.74792 4.2882 1.73576
1.74792 4.27536 1.73576
1.74792 4.26252 1.73576
1.74792 4.24969 1.73576
1.76499 4.23419 1.75271
1.76499 4.22136 1.75271
1.76499 4.20853 1.75271
1.76499 4.1957 1.75271
1.76499 4.18287 1.75271
1.76499 4.17004 1.75271
1.74792 4.15981 1.73576
1.6794 4.1574 1.66771
1.6794 4.14453 1.66771
1.6794 4.13166 1.66771
1.69656 4.1162 1.68476
1.76499 4.09305 1.75271
1.76499 4.08022 1.75271
1.76499 4.06739 1.75271
1.69656 4.06475 1.68476
1.69656 4.05189 1.68476
1.74792 4.03142 1.73576
1.74792 4.01859 1.73576
1.74792 4.00575 1.73576
1.7137 3.99792 1.70178
1.78204 3.97509 1.76965
1.74792 3.96723 1.73576
1.74792 3.95439 1.73576
1.74792 3.94155 1.73576
1.74792 3.92871 1.73576
1.74792 3.91587 1.73576
1.76499 3.90059 1.75271
1.73082 3.89264 1.71878
1.73082 3.87979 1.71878
1.76499 3.8621 1.75271
1.74792 3.85168 1.73576
1.76499 3.83644 1.75271
1.76499 3.8236 1.75271
1.76499 3.81077 1.75271
1.73082 3.80271 1.71878
1.76499 3.78511 1.75271
1.79908 3.76756 1.78656
1.81609 3.7524 1.80345
1.79908 3.74193 1.78656
1.83307 3.72446 1.82032
1.83307 3.71166 1.82032
1.85004 3.69656 1.83717
1.78204 3.69298 1.76965
1.86699 3.66869 1.854
1.79908 3.66504 1.78656
1.81609 3.64995 1.80345
1.83307 3.63487 1.82032
1.83307 3.62207 1.82032
1.83307 3.60927 1.82032
1.85004 3.59423 1.83717
1.79908 3.58816 1.78656
1.79908 3.57534 1.78656
1.88391 3.55143 1.8708
1.88391 3.53866 1.8708
1.78204 3.53911 1.76965
1.78204 3.52629 1.76965
1.79908 3.51127 1.78656
1.79908 3.49845 1.78656
1.79908 3.48564 1.78656
1.79908 3.47282 1.78656
1.81609 3.45785 1.80345
1.83307 3.44289 1.82032
1.83307 3.43009 1.82032
1.83307 3.41729 1.82032
1.86699 3.40025 1.854
1.86699 3.38747 1.854
1.88391 3.37258 1.8708
1.88391 3.35981 1.8708
1.88391 3.34703 1.8708
1.88391 3.33426 1.8708
1.88391 3.32148 1.8708
1.91769 3.3046 1.90435
1.91769 3.29184 1.90435
1.88391 3.28316 1.8708
1.83307 3.2765 1.82032
1.83307 3.2637 1.82032
1.83307 3.25091 1.82032
1.79908 3.24215 1.78656
1.86699 3.22129 1.854
1.85004 3.21051 1.83717
1.83307 3.19971 1.82032
1.83307 3.18691 1.82032
1.81609 3.1761 1.80345
1.83307 3.16131 1.82032
1.81609 3.15048 1.80345
1.86699 3.13181 1.854
1.86699 3.11903 1.854
1.90081 3.10238 1.88758
1.90081 3.08961 1.88758
1.88391 3.07876 1.8708
1.95138 3.05837 1.93781
1.95138 3.04563 1.93781
1.95138 3.03289 1.93781
1.95138 3.02014 1.93781
1.86699 3.01676 1.854
1.93455 2.99652 1.92109
1.91769 2.98562 1.90435
1.91769 2.97286 1.90435
1.9682 2.9546 1.95451
1.9682 2.94186 1.95451
1.9682 2.92913 1.95451
1.9682 2.91639 1.95451
1.9682 2.90366 1.95451
1.9682 2.89092 1.95451
1.9682 2.87818 1.95451
1.91769 2.87079 1.90435
1.91769 2.85803 1.90435
1.95138 2.84174 1.93781
1.95138 2.829 1.93781
1.95138 2.81625 1.93781
1.98499 2.80004 1.97118
1.88391 2.79771 1.8708
1.88391 2.78494 1.8708
1.93455 2.767 1.92109
2.00177 2.74743 1.98784
2.00177 2.73471 1.98784
1.95138 2.72705 1.93781
1.95138 2.71431 1.93781
1.95138 2.70156 1.93781
1.93455 2.69049 1.92109
1.93455 2.67774 1.92109
1.91769 2.66664 1.90435
0.682903 9.27572 0.747874
0.665375 9.26852 0.728679
0.665375 9.25518 0.728679
0.665375 9.24185 0.728679
0.665375 9.22851 0.728679
0.665375 9.21517 0.728679
0.665375 9.20184 0.728679
0.665375 9.1885 0.728679
0.717889 9.15701 0.786188
0.735346 9.13768 0.805307
0.752781 9.11837 0.8244
0.752781 9.10508 0.8244
0.735346 9.09778 0.805307
0.717889 9.09046 0.786188
0.717889 9.07715 0.786188
0.700407 9.06982 0.767044
0.770193 9.03267 0.843468
0.770193 9.01939 0.843468
0.770193 9.00611 0.843468
0.700407 9.01655 0.767044
0.717889 8.9973 0.786188
1.38197 8.51327 1.51345
1.39855 8.49489 1.53161
1.39855 8.48192 1.53161
1.38197 8.47434 1.51345
1.38197 8.46136 1.51345
1.38197 8.44838 1.51345
1.66104 8.26827 1.81907
1.66104 8.25543 1.81907
1.66104 8.24259 1.81907
1.64479 8.23492 1.80128
1.72582 8.19637 1.89001
1.70966 8.18868 1.87231
1.69347 8.18098 1.85459
1.69347 8.16816 1.85459
1.62852 8.17581 1.78346
1.62852 8.16296 1.78346
1.64479 8.14499 1.80128
1.64479 8.13214 1.80128
1.64479 8.11929 1.80128
1.64479 8.10645 1.80128
1.64479 8.0936 1.80128
1.64479 8.08075 1.80128
1.64479 8.06791 1.80128
1.64479 8.05506 1.80128
1.64479 8.04221 1.80128
1.64479 8.02937 1.80128
1.67726 8.00647 1.83684
1.67726 7.99364 1.83684
1.67726 7.98081 1.83684
1.67726 7.96798 1.83684
1.67726 7.95515 1.83684
1.67726 7.94232 1.83684
1.67726 7.92949 1.83684
1.67726 7.91666 1.83684
1.62852 7.91871 1.78346
1.62852 7.90586 1.78346
1.66104 7.8831 1.81907
1.66104 7.87026 1.81907
1.64479 7.86235 1.80128
1.64479 7.84951 1.80128
1.69347 7.82194 1.85459
1.69347 7.80912 1.85459
1.61223 7.82078 1.76562
1.59592 7.81283 1.74776
1.59592 7.79996 1.74776
1.66104 7.76755 1.81907
1.66104 7.75471 1.81907
1.67726 7.73703 1.83684
1.69347 7.71936 1.85459
1.69347 7.70654 1.85459
1.67726 7.69853 1.83684
1.67726 7.6857 1.83684
1.67726 7.67287 1.83684
1.66104 7.66484 1.81907
1.66104 7.652 1.81907
1.66104 7.63916 1.81907
1.67726 7.62155 1.83684
1.69347 7.60395 1.85459
1.64479 7.60541 1.80128
1.64479 7.59257 1.80128
1.66104 7.57497 1.81907
1.66104 7.56213 1.81907
1.57959 7.57304 1.72987
1.53047 7.57448 1.67608
1.53047 7.56157 1.67608
1.53047 7.54867 1.67608
1.54687 7.53101 1.69404
1.56324 7.51338 1.71197
1.57959 7.49577 1.72987
1.46468 7.51605 1.60403
1.44818 7.50787 1.58596
1.44818 7.49493 1.58596
1.26526 7.53462 1.38563
1.26526 7.52159 1.38563
1.26526 7.50855 1.38563
1.26526 7.49552 1.38563
1.2485 7.48728 1.36728
1.26526 7.46945 1.38563
1.26526 7.45641 1.38563
1.26526 7.44337 1.38563
1.23172 7.43987 1.3489
1.26526 7.4173 1.38563
1.2485 7.40901 1.36728
1.26526 7.39123 1.38563
1.13057 7.41624 1.23813
1.13057 7.40314 1.23813
1.13057 7.39003 1.23813
1.11363 7.38169 1.21958
1.16437 7.35434 1.27515
1.16437 7.34125 1.27515
1.16437 7.32817 1.27515
1.16437 7.31508 1.27515
1.09667 7.32086 1.20101
1.07969 7.31247 1.18241
1.07969 7.29934 1.18241
1.09667 7.28151 1.20101
1.09667 7.26838 1.20101
1.11363 7.25058 1.21958
1.09667 7.24215 1.20101
1.13057 7.2197 1.23813
1.13057 7.20659 1.23813
1.18124 7.1796 1.29362
1.18124 7.16652 1.29362
1.18124 7.15344 1.29362
1.18124 7.14037 1.29362
1.18124 7.12729 1.29362
1.2485 7.09596 1.36728
1.18124 7.10113 1.29362
1.18124 7.08806 1.29362
1.18124 7.07498 1.29362
1.19809 7.05736 1.31207
1.2485 7.03074 1.36728
1.2485 7.01769 1.36728
1.26526 7.00016 1.38563
1.26526 6.98713 1.38563
1.26526 6.97409 1.38563
1.26526 6.96105 1.38563
1.26526 6.94802 1.38563
1.2485 6.93943 1.36728
1.2485 6.92638 1.36728
1.2485 6.91334 1.36728
1.33208 6.87826 1.45881
1.34873 6.86088 1.47705
1.34873 6.84789 1.47705
1.34873 6.83489 1.47705
1.34873 6.8219 1.47705
1.44818 6.78297 1.58596
1.41512 6.77863 1.54975
1.48116 6.74853 1.62208
1.48116 6.7356 1.62208
1.48116 6.72267 1.62208
1.48116 6.70974 1.62208
1.53047 6.68412 1.67608
1.53047 6.67122 1.67608
1.53047 6.65832 1.67608
1.53047 6.64541 1.67608
1.51406 6.6367 1.6581
1.51406 6.62379 1.6581
1.48116 6.61924 1.62208
1.53047 6.5938 1.67608
1.53047 6.58089 1.67608
1.53047 6.56799 1.67608
1.53047 6.55509 1.67608
1.53047 6.54218 1.67608
1.53047 6.52928 1.67608
1.48116 6.52875 1.62208
1.48116 6.51582 1.62208
1.46468 6.50701 1.60403
1.43166 6.50232 1.56787
1.43166 6.48936 1.56787
1.43166 6.47641 1.56787
1.43166 6.46346 1.56787
1.39855 6.45871 1.53161
1.39855 6.44574 1.53161
1.39855 6.43277 1.53161
1.39855 6.4198 1.53161
1.41512 6.40276 1.54975
1.36536 6.40201 1.49526
1.36536 6.38902 1.49526
1.34873 6.3801 1.47705
1.34873 6.36711 1.47705
1.34873 6.35411 1.47705
1.31541 6.34922 1.44055
1.38197 6.32006 1.51345
1.34873 6.31513 1.47705
1.34873 6.30213 1.47705
1.34873 6.28914 1.47705
1.41512 6.26019 1.54975
1.39855 6.2512 1.53161
1.39855 6.23823 1.53161
1.46468 6.20947 1.60403
1.46468 6.19654 1.60403
1.44818 6.18752 1.58596
1.44818 6.17458 1.58596
1.43166 6.16554 1.56787
1.53047 6.12926 1.67608
1.53047 6.11636 1.67608
1.53047 6.10346 1.67608
1.53047 6.09055 1.67608
1.51406 6.08149 1.6581
1.51406 6.06858 1.6581
1.57959 6.0404 1.72987
1.46468 6.05424 1.60403
1.46468 6.0413 1.60403
1.53047 6.01313 1.67608
1.51406 6.00402 1.6581
1.51406 5.99111 1.6581
1.49762 5.98197 1.6401
1.46468 5.97662 1.60403
1.46468 5.96368 1.60403
1.46468 5.95074 1.60403
1.49762 5.93029 1.6401
1.39855 5.93994 1.53161
1.44818 5.91568 1.58596
1.44818 5.90274 1.58596
1.48116 5.88234 1.62208
1.48116 5.86941 1.62208
1.43166 5.86763 1.56787
1.44818 5.85096 1.58596
1.53047 5.81957 1.67608
1.53047 5.80667 1.67608
1.48116 5.80477 1.62208
1.48116 5.79184 1.62208
1.46468 5.78257 1.60403
1.48116 5.76598 1.62208
1.49762 5.74941 1.6401
1.49762 5.73649 1.6401
1.49762 5.72357 1.6401
1.49762 5.71065 1.6401
1.53047 5.69054 1.67608
1.56324 5.67047 1.71197
1.56324 5.65759 1.71197
1.39855 5.68055 1.53161
1.39855 5.66758 1.53161
1.39855 5.65461 1.53161
1.46468 5.62733 1.60403
1.46468 5.6144 1.60403
1.46468 5.60146 1.60403
1.39855 5.60273 1.53161
1.39855 5.58976 1.53161
1.44818 5.56618 1.58596
1.44818 5.55324 1.58596
1.44818 5.54029 1.58596
1.46468 5.52384 1.60403
1.44818 5.5144 1.58596
1.51406 5.48754 1.6581
1.48116 5.48156 1.62208
1.48116 5.46863 1.62208
1.48116 5.4557 1.62208
1.48116 5.44278 1.62208
1.48116 5.42985 1.62208
1.48116 5.41692 1.62208
1.48116 5.40399 1.62208
1.56324 5.37406 1.71197
1.53047 5.36794 1.67608
1.53047 5.35504 1.67608
1.56324 5.3354 1.71197
1.57959 5.31916 1.72987
1.57959 5.30628 1.72987
1.56324 5.29674 1.71197
1.53047 5.29052 1.67608
1.53047 5.27762 1.67608
1.53047 5.26471 1.67608
1.57959 5.24189 1.72987
1.57959 5.22901 1.72987
1.57959 5.21613 1.72987
1.57959 5.20325 1.72987
1.59592 5.1871 1.74776
1.59592 5.17423 1.74776
1.54687 5.17112 1.69404
1.61223 5.14525 1.76562
1.53047 5.14858 1.67608
1.54687 5.13244 1.69404
1.54687 5.11954 1.69404
1.54687 5.10665 1.69404
1.54687 5.09375 1.69404
1.56324 5.07765 1.71197
1.56324 5.06476 1.71197
1.57959 5.0487 1.72987
1.59592 5.03265 1.74776
1.59592 5.01978 1.74776
1.59592 5.00691 1.74776
1.57959 4.99718 1.72987
1.57959 4.9843 1.72987
1.59592 4.96829 1.74776
1.59592 4.95542 1.74776
1.59592 4.94255 1.74776
1.59592 4.92968 1.74776
1.59592 4.91681 1.74776
1.59592 4.90394 1.74776
1.59592 4.89106 1.74776
1.56324 4.88434 1.71197
1.57959 4.86838 1.72987
1.56324 4.85857 1.71197
1.56324 4.84568 1.71197
1.57959 4.82975 1.72987
1.57959 4.81687 1.72987
1.57959 4.80399 1.72987
1.57959 4.79111 1.72987
1.59592 4.77522 1.74776
1.59592 4.76235 1.74776
1.57959 4.75247 1.72987
1.57959 4.73959 1.72987
1.57959 4.72671 1.72987
1.62852 4.70495 1.78346
1.64479 4.68915 1.80128
1.64479 4.6763 1.80128
1.61223 4.66932 1.76562
1.59592 4.65938 1.74776
1.59592 4.64651 1.74776
1.59592 4.63364 1.74776
1.59592 4.62077 1.74776
1.59592 4.6079 1.74776
1.59592 4.59503 1.74776
1.59592 4.58215 1.74776
1.57959 4.57216 1.72987
1.57959 4.55928 1.72987
1.57959 4.5464 1.72987
1.59592 4.53067 1.74776
1.59592 4.5178 1.74776
1.61223 4.5021 1.76562
1.61223 4.48923 1.76562
1.61223 4.47637 1.76562
1.62852 4.4607 1.78346
1.64479 4.44506 1.80128
1.62852 4.43499 1.78346
1.64479 4.41936 1.80128
1.62852 4.40928 1.78346
1.64479 4.39367 1.80128
1.64479 4.38082 1.80128
1.64479 4.36797 1.80128
1.66104 4.3524 1.81907
1.66104 4.33956 1.81907
1.66104 4.32672 1.81907
1.66104 4.31388 1.81907
1.62852 4.30644 1.78346
1.61223 4.29629 1.76562
1.61223 4.28342 1.76562
1.61223 4.27056 1.76562
1.61223 4.2577 1.76562
1.61223 4.24483 1.76562
1.61223 4.23197 1.76562
1.61223 4.21911 1.76562
1.59592 4.20889 1.74776
1.57959 4.19866 1.72987
1.57959 4.18578 1.72987
1.57959 4.1729 1.72987
1.64479 4.14958 1.80128
1.66104 4.13414 1.81907
1.66104 4.1213 1.81907
1.64479 4.11103 1.80128
1.64479 4.09819 1.80128
1.66104 4.08278 1.81907
1.66104 4.06994 1.81907
1.62852 4.0622 1.78346
1.59592 4.05443 1.74776
1.59592 4.04156 1.74776
1.59592 4.02869 1.74776
1.61223 4.0133 1.76562
1.61223 4.00043 1.76562
1.59592 3.99008 1.74776
1.66104 3.96723 1.81907
1.66104 3.95439 1.81907
1.66104 3.94155 1.81907
1.66104 3.92871 1.81907
1.66104 3.91587 1.81907
1.66104 3.90303 1.81907
1.66104 3.8902 1.81907
1.61223 3.88467 1.76562
1.61223 3.8718 1.76562
1.66104 3.85168 1.81907
1.66104 3.83884 1.81907
1.64479 3.8284 1.80128
1.64479 3.81555 1.80128
1.66104 3.80032 1.81907
1.66104 3.78748 1.81907
1.70966 3.76756 1.87231
1.70966 3.75475 1.87231
1.69347 3.74427 1.85459
1.69347 3.73145 1.85459
1.67726 3.72096 1.83684
1.66104 3.71045 1.81907
1.72582 3.68837 1.89001
1.72582 3.67556 1.89001
1.72582 3.66275 1.89001
1.70966 3.65223 1.87231
1.69347 3.64169 1.85459
1.69347 3.62887 1.85459
1.70966 3.61379 1.87231
1.70966 3.60097 1.87231
1.70966 3.58816 1.87231
1.70966 3.57534 1.87231
1.70966 3.56253 1.87231
1.70966 3.54971 1.87231
1.70966 3.5369 1.87231
1.70966 3.52408 1.87231
1.70966 3.51127 1.87231
1.70966 3.49845 1.87231
1.72582 3.48346 1.89001
1.72582 3.47065 1.89001
1.74196 3.45569 1.90769
1.74196 3.44289 1.90769
1.72582 3.43223 1.89001
1.72582 3.41942 1.89001
1.72582 3.40662 1.89001
1.72582 3.39381 1.89001
1.72582 3.381 1.89001
1.72582 3.3682 1.89001
1.77419 3.34912 1.94298
1.77419 3.33633 1.94298
1.77419 3.32355 1.94298
1.77419 3.31077 1.94298
1.79027 3.29593 1.9606
1.74196 3.2893 1.90769
1.74196 3.2765 1.90769
1.74196 3.2637 1.90769
1.74196 3.25091 1.90769
1.74196 3.23811 1.90769
1.75809 3.2233 1.92535
1.69347 3.21854 1.85459
1.69347 3.20571 1.85459
1.69347 3.19289 1.85459
1.72582 3.1761 1.89001
1.72582 3.16329 1.89001
1.74196 3.14851 1.90769
1.75809 3.13376 1.92535
1.77419 3.11903 1.94298
1.75809 3.10818 1.92535
1.72582 3.09925 1.89001
1.72582 3.08645 1.89001
1.82237 3.06217 1.99575
1.82237 3.04941 1.99575
1.82237 3.03666 1.99575
1.82237 3.0239 1.99575
1.82237 3.01114 1.99575
1.82237 2.99838 1.99575
1.82237 2.98562 1.99575
1.82237 2.97286 1.99575
1.75809 2.96748 1.92535
1.75809 2.95469 1.92535
1.75809 2.9419 1.92535
1.79027 2.92546 1.9606
1.79027 2.91268 1.9606
1.80633 2.89811 1.97819
1.80633 2.88534 1.97819
1.82237 2.87079 1.99575
1.75809 2.86515 1.92535
1.75809 2.85236 1.92535
1.75809 2.83957 1.92535
1.85439 2.81625 2.03082
1.85439 2.80351 2.03082
1.77419 2.79945 1.94298
1.77419 2.78667 1.94298
1.77419 2.77389 1.94298
1.75809 2.76283 1.92535
1.74196 2.75175 1.90769
1.79027 2.73384 1.9606
1.77419 2.72276 1.94298
1.77419 2.70997 1.94298
0.612394 9.2613 0.740257
0.59578 9.25408 0.720174
0.69513 9.20418 0.840267
0.69513 9.19088 0.840267
0.612394 9.20792 0.740257
0.612394 9.19458 0.740257
0.612394 9.18124 0.740257
0.612394 9.16789 0.740257
0.612394 9.15455 0.740257
0.612394 9.1412 0.740257
0.628985 9.12182 0.760312
0.711611 9.0785 0.860189
0.645554 9.08914 0.780341
0.678626 9.06384 0.820318
0.612394 9.07448 0.740257
0.612394 9.06113 0.740257
1.32206 8.49489 1.5981
1.32206 8.48192 1.5981
1.53946 8.2658 1.86088
1.57019 8.24259 1.89804
1.57019 8.22975 1.89804
1.52406 8.2324 1.84227
1.52406 8.21954 1.84227
1.55484 8.19638 1.87947
1.55484 8.18353 1.87947
1.55484 8.17068 1.87947
1.57019 8.15272 1.89804
1.57019 8.13988 1.89804
1.57019 8.12704 1.89804
1.57019 8.1142 1.89804
1.57019 8.10137 1.89804
1.57019 8.08853 1.89804
1.57019 8.07569 1.89804
1.57019 8.06285 1.89804
1.53946 8.06012 1.86088
1.50864 8.05738 1.82363
1.50864 8.04451 1.82363
1.52406 8.02659 1.84227
1.4932 8.02382 1.80497
1.4932 8.01094 1.80497
1.4932 7.99806 1.80497
1.52406 7.97514 1.84227
1.52406 7.96228 1.84227
1.52406 7.94941 1.84227
1.4932 7.94654 1.80497
1.53946 7.91871 1.86088
1.52406 7.91083 1.84227
1.52406 7.89796 1.84227
1.52406 7.8851 1.84227
1.55484 7.86235 1.87947
1.55484 7.84951 1.87947
1.55484 7.83666 1.87947
1.52406 7.83365 1.84227
1.55484 7.81097 1.87947
1.52406 7.80792 1.84227
1.52406 7.79506 1.84227
1.52406 7.78219 1.84227
1.52406 7.76933 1.84227
1.52406 7.75647 1.84227
1.52406 7.7436 1.84227
1.52406 7.73074 1.84227
1.57019 7.70336 1.89804
1.57019 7.69052 1.89804
1.57019 7.67768 1.89804
1.57019 7.66484 1.89804
1.55484 7.6568 1.87947
1.55484 7.64396 1.87947
1.55484 7.63111 1.87947
1.50864 7.63263 1.82363
1.58553 7.59589 1.91658
1.58553 7.58305 1.91658
1.57019 7.57497 1.89804
1.57019 7.56213 1.89804
1.57019 7.54929 1.89804
1.4932 7.56016 1.80497
1.50864 7.54254 1.82363
1.44677 7.54867 1.74884
1.43125 7.54053 1.73009
1.44677 7.52286 1.74884
1.44677 7.50996 1.74884
1.24347 7.55921 1.50309
1.24347 7.5462 1.50309
1.27497 7.52358 1.54117
1.27497 7.51058 1.54117
1.08472 7.5555 1.31121
1.19606 7.50855 1.44579
1.19606 7.49552 1.44579
1.14847 7.49689 1.38826
1.13256 7.48864 1.36903
1.13256 7.47557 1.36903
1.11664 7.46731 1.34978
1.11664 7.45423 1.34978
1.11664 7.44115 1.34978
1.11664 7.42807 1.34978
1.11664 7.415 1.34978
1.11664 7.40192 1.34978
1.06874 7.40314 1.29188
1.05273 7.3948 1.27253
1.05273 7.38169 1.27253
1.05273 7.36858 1.27253
1.0367 7.36022 1.25315
1.11664 7.32345 1.34978
1.10069 7.31508 1.33051
1.11664 7.2973 1.34978
1.11664 7.28422 1.34978
1.13256 7.26647 1.36903
1.13256 7.2534 1.36903
1.13256 7.24033 1.36903
1.13256 7.22726 1.36903
1.10069 7.22348 1.33051
1.11664 7.20575 1.34978
1.11664 7.19268 1.34978
1.11664 7.1796 1.34978
1.18022 7.14813 1.42664
1.18022 7.13509 1.42664
1.11664 7.14037 1.34978
1.10069 7.13188 1.33051
1.18022 7.09596 1.42664
1.18022 7.08291 1.42664
1.21188 7.06082 1.46491
1.21188 7.04779 1.46491
1.21188 7.03476 1.46491
1.21188 7.02174 1.46491
1.21188 7.00871 1.46491
1.25923 6.98228 1.52214
1.25923 6.96928 1.52214
1.24347 6.96072 1.50309
1.24347 6.94771 1.50309
1.25923 6.93027 1.52214
1.25923 6.91727 1.52214
1.19606 6.92195 1.44579
1.22768 6.90007 1.48401
1.22768 6.88705 1.48401
1.18022 6.88725 1.42664
1.18022 6.87421 1.42664
1.18022 6.86116 1.42664
1.38458 6.79161 1.67367
1.30639 6.80023 1.57915
1.35336 6.77433 1.63593
1.35336 6.76137 1.63593
1.35336 6.74842 1.63593
1.38458 6.72693 1.67367
1.38458 6.71399 1.67367
1.40016 6.69681 1.6925
1.43125 6.67543 1.73009
1.43125 6.66252 1.73009
1.43125 6.64961 1.73009
1.43125 6.6367 1.73009
1.44677 6.6196 1.74884
1.44677 6.6067 1.74884
1.44677 6.5938 1.74884
1.44677 6.58089 1.74884
1.40016 6.58046 1.6925
1.40016 6.56753 1.6925
1.40016 6.5546 1.6925
1.35336 6.55413 1.63593
1.35336 6.54117 1.63593
1.35336 6.52822 1.63593
1.35336 6.51527 1.63593
1.35336 6.50232 1.63593
1.35336 6.48936 1.63593
1.36898 6.4723 1.65481
1.36898 6.45936 1.65481
1.36898 6.44641 1.65481
1.32206 6.44574 1.5981
1.30639 6.43686 1.57915
1.33772 6.41572 1.61703
1.33772 6.40276 1.61703
1.27497 6.40609 1.54117
1.27497 6.39309 1.54117
1.27497 6.3801 1.54117
1.27497 6.36711 1.54117
1.27497 6.35411 1.54117
1.22768 6.35328 1.48401
1.24347 6.33621 1.50309
1.25923 6.31916 1.52214
1.25923 6.30616 1.52214
1.24347 6.29717 1.50309
1.30639 6.26815 1.57915
1.27497 6.26315 1.54117
1.27497 6.25016 1.54117
1.27497 6.23716 1.54117
1.27497 6.22417 1.54117
1.40016 6.17968 1.6925
1.41571 6.16285 1.7113
1.44677 6.14217 1.74884
1.44677 6.12926 1.74884
1.38458 6.13185 1.67367
1.38458 6.11892 1.67367
1.40016 6.10211 1.6925
1.41571 6.08533 1.7113
1.44677 6.06474 1.74884
1.46227 6.04802 1.76758
1.46227 6.03513 1.76758
1.44677 6.02603 1.74884
1.44677 6.01313 1.74884
1.41571 6.00781 1.7113
1.41571 5.99489 1.7113
1.44677 5.97442 1.74884
1.41571 5.96905 1.7113
1.40016 5.9599 1.6925
1.41571 5.94321 1.7113
1.40016 5.93405 1.6925
1.36898 5.92863 1.65481
1.40016 5.90819 1.6925
1.38458 5.899 1.67367
1.38458 5.88606 1.67367
1.43125 5.86199 1.73009
1.43125 5.84907 1.73009
1.43125 5.83616 1.73009
1.44677 5.81957 1.74884
1.40016 5.81769 1.6925
1.38458 5.80844 1.67367
1.38458 5.79551 1.67367
1.38458 5.78257 1.67367
1.38458 5.76963 1.67367
1.40016 5.75305 1.6925
1.40016 5.74013 1.6925
1.32206 5.7454 1.5981
1.32206 5.73243 1.5981
1.32206 5.71946 1.5981
1.35336 5.69924 1.63593
1.35336 5.68629 1.63593
1.35336 5.67334 1.63593
1.33772 5.66398 1.61703
1.32206 5.65461 1.5981
1.32206 5.64164 1.5981
1.40016 5.61084 1.6925
1.40016 5.59791 1.6925
1.35336 5.59562 1.63593
1.35336 5.58267 1.63593
1.35336 5.56971 1.63593
1.35336 5.55676 1.63593
1.35336 5.54381 1.63593
1.35336 5.53085 1.63593
1.36898 5.5144 1.65481
1.38458 5.49797 1.67367
1.38458 5.48503 1.67367
1.38458 5.4721 1.67367
1.38458 5.45916 1.67367
1.40016 5.44278 1.6925
1.40016 5.42985 1.6925
1.40016 5.41692 1.6925
1.40016 5.40399 1.6925
1.38458 5.39448 1.67367
1.38458 5.38154 1.67367
1.44677 5.35504 1.74884
1.43125 5.34551 1.73009
1.43125 5.3326 1.73009
1.43125 5.31969 1.73009
1.44677 5.30343 1.74884
1.44677 5.29052 1.74884
1.43125 5.28095 1.73009
1.47774 5.25808 1.78629
1.46227 5.2485 1.76758
1.46227 5.2356 1.76758
1.46227 5.22271 1.76758
1.43125 5.21639 1.73009
1.43125 5.20348 1.73009
1.43125 5.19057 1.73009
1.41571 5.18093 1.7113
1.47774 5.15498 1.78629
1.47774 5.14209 1.78629
1.47774 5.1292 1.78629
1.46227 5.11954 1.76758
1.43125 5.1131 1.73009
1.43125 5.10019 1.73009
1.44677 5.08406 1.74884
1.44677 5.07116 1.74884
1.44677 5.05825 1.74884
1.44677 5.04535 1.74884
1.47774 5.0261 1.78629
1.4932 5.01006 1.80497
1.47774 5.00033 1.78629
1.47774 4.98744 1.78629
1.4932 4.97142 1.80497
1.47774 4.96167 1.78629
1.46227 4.9519 1.76758
1.4932 4.93278 1.80497
1.4932 4.9199 1.80497
1.44677 4.91631 1.74884
1.44677 4.90341 1.74884
1.44677 4.89051 1.74884
1.44677 4.8776 1.74884
1.44677 4.8647 1.74884
1.47774 4.84568 1.78629
1.47774 4.83279 1.78629
1.47774 4.8199 1.78629
1.52406 4.79795 1.84227
1.4932 4.79111 1.80497
1.52406 4.77222 1.84227
1.52406 4.75936 1.84227
1.52406 4.7465 1.84227
1.50864 4.73661 1.82363
1.50864 4.72374 1.82363
1.4932 4.71383 1.80497
1.4932 4.70095 1.80497
1.47774 4.69103 1.78629
1.47774 4.67814 1.78629
1.46227 4.6682 1.76758
1.46227 4.6553 1.76758
1.47774 4.63948 1.78629
1.4932 4.62368 1.80497
1.50864 4.6079 1.82363
1.50864 4.59503 1.82363
1.52406 4.57927 1.84227
1.50864 4.56928 1.82363
1.50864 4.55641 1.82363
1.50864 4.54354 1.82363
1.50864 4.53067 1.82363
1.50864 4.5178 1.82363
1.52406 4.5021 1.84227
1.52406 4.48923 1.84227
1.50864 4.47919 1.82363
1.52406 4.46351 1.84227
1.4932 4.45625 1.80497
1.4932 4.44337 1.80497
1.50864 4.4277 1.82363
1.50864 4.41483 1.82363
1.50864 4.40196 1.82363
1.52406 4.38633 1.84227
1.53946 4.37072 1.86088
1.55484 4.35513 1.87947
1.55484 4.34228 1.87947
1.55484 4.32943 1.87947
1.4932 4.32745 1.80497
1.4932 4.31457 1.80497
1.4932 4.30169 1.80497
1.50864 4.28612 1.82363
1.50864 4.27325 1.82363
1.52406 4.2577 1.84227
1.50864 4.2475 1.82363
1.50864 4.23463 1.82363
1.52406 4.21911 1.84227
1.52406 4.20624 1.84227
1.50864 4.19602 1.82363
1.50864 4.18315 1.82363
1.57019 4.15981 1.89804
1.57019 4.14697 1.89804
1.57019 4.13414 1.89804
1.55484 4.12388 1.87947
1.52406 4.1162 1.84227
1.52406 4.10334 1.84227
1.52406 4.09048 1.84227
1.52406 4.07761 1.84227
1.50864 4.06731 1.82363
1.50864 4.05443 1.82363
1.4932 4.04411 1.80497
1.4932 4.03123 1.80497
1.52406 4.0133 1.84227
1.47774 4.00799 1.78629
1.4932 3.99259 1.80497
1.4932 3.97971 1.80497
1.50864 3.96434 1.82363
1.50864 3.95147 1.82363
1.52406 3.93612 1.84227
1.4932 3.92819 1.80497
1.4932 3.91531 1.80497
1.50864 3.89998 1.82363
1.52406 3.88467 1.84227
1.52406 3.8718 1.84227
1.52406 3.85894 1.84227
1.52406 3.84608 1.84227
1.50864 3.83562 1.82363
1.4932 3.82516 1.80497
1.4932 3.81228 1.80497
1.50864 3.79701 1.82363
1.55484 3.77701 1.87947
1.55484 3.76417 1.87947
1.44677 3.76788 1.74884
1.58553 3.73379 1.91658
1.58553 3.72096 1.91658
1.55484 3.71278 1.87947
1.55484 3.69993 1.87947
1.55484 3.68708 1.87947
1.61615 3.66504 1.95359
1.63143 3.64995 1.97206
1.63143 3.63714 1.97206
1.63143 3.62433 1.97206
1.63143 3.61153 1.97206
1.63143 3.59872 1.97206
1.61615 3.58816 1.95359
1.58553 3.57982 1.91658
1.58553 3.56699 1.91658
1.57019 3.55638 1.89804
1.57019 3.54354 1.89804
1.57019 3.53071 1.89804
1.67716 3.50251 2.02733
1.67716 3.48973 2.02733
1.64669 3.48128 1.99051
1.64669 3.46849 1.99051
1.64669 3.45569 1.99051
1.64669 3.44289 1.99051
1.64669 3.43009 1.99051
1.64669 3.41729 1.99051
1.64669 3.40449 1.99051
1.55484 3.40445 1.87947
1.63143 3.381 1.97206
1.63143 3.3682 1.97206
1.63143 3.35539 1.97206
1.63143 3.34258 1.97206
1.63143 3.32978 1.97206
1.63143 3.31697 1.97206
1.63143 3.30416 1.97206
1.63143 3.29136 1.97206
1.69236 3.27038 2.04571
1.64669 3.2637 1.99051
1.64669 3.25091 1.99051
1.63143 3.24013 1.97206
1.57019 3.23541 1.89804
1.64669 3.21251 1.99051
1.55484 3.21175 1.87947
1.55484 3.1989 1.87947
1.55484 3.18605 1.87947
1.60085 3.16725 1.9351
1.61615 3.15245 1.95359
1.63143 3.13767 1.97206
1.63143 3.12487 1.97206
1.63143 3.11206 1.97206
1.61615 3.10119 1.95359
1.61615 3.08838 1.95359
1.66193 3.06981 2.00893
1.64669 3.05892 1.99051
1.64669 3.04612 1.99051
1.64669 3.03333 1.99051
1.64669 3.02053 1.99051
1.64669 3.00773 1.99051
1.64669 2.99493 1.99051
1.64669 2.98213 1.99051
1.66193 2.96748 2.00893
1.60085 2.96208 1.9351
1.60085 2.94926 1.9351
1.69236 2.92546 2.04571
1.66193 2.91632 2.00893
1.66193 2.90353 2.00893
1.66193 2.89073 2.00893
1.69236 2.87436 2.04571
1.63143 2.86873 1.97206
1.63143 2.85592 1.97206
1.63143 2.84312 1.97206
0.575501 9.30134 0.769288
0.591093 9.28185 0.79013
0.591093 9.26852 0.79013
0.591093 9.25518 0.79013
0.591093 9.24185 0.79013
0.575501 9.23461 0.769288
0.575501 9.22127 0.769288
0.622214 9.18969 0.831731
0.653253 9.16428 0.873221
0.622214 9.16305 0.831731
0.637744 9.1437 0.852489
0.575501 9.15455 0.769288
0.575501 9.1412 0.769288
0.637744 9.10377 0.852489
0.637744 9.09046 0.852489
0.544255 9.11323 0.727521
0.544255 9.09987 0.727521
1.40325 8.24277 1.87576
1.40325 8.22989 1.87576
1.40325 8.21701 1.87576
1.41776 8.19897 1.89515
1.34503 8.21195 1.79794
1.35961 8.19386 1.81743
1.37418 8.17579 1.8369
1.41776 8.14748 1.89515
1.43224 8.1295 1.91452
1.46117 8.10645 1.95318
1.46117 8.0936 1.95318
1.40325 8.1011 1.87576
1.38872 8.09331 1.85634
1.38872 8.08043 1.85634
1.38872 8.06754 1.85634
1.38872 8.05465 1.85634
1.40325 8.0367 1.87576
1.40325 8.02382 1.87576
1.40325 8.01094 1.87576
1.40325 7.99806 1.87576
1.38872 7.99021 1.85634
1.38872 7.97733 1.85634
1.40325 7.95942 1.87576
1.43224 7.93655 1.91452
1.43224 7.92369 1.91452
1.43224 7.91083 1.91452
1.4756 7.8831 1.97248
1.44672 7.88015 1.93386
1.44672 7.86729 1.93386
1.43224 7.85937 1.91452
1.43224 7.84651 1.91452
1.43224 7.83365 1.91452
1.40325 7.83063 1.87576
1.40325 7.81775 1.87576
1.41776 7.79996 1.89515
1.41776 7.78709 1.89515
1.41776 7.77422 1.89515
1.43224 7.75647 1.91452
1.38872 7.75824 1.85634
1.38872 7.74535 1.85634
1.40325 7.7276 1.87576
1.40325 7.71472 1.87576
1.40325 7.70184 1.87576
1.40325 7.68896 1.87576
1.35961 7.69061 1.81743
1.35961 7.67771 1.81743
1.35961 7.6648 1.81743
1.35961 7.6519 1.81743
1.35961 7.639 1.81743
1.37418 7.62128 1.8369
1.46117 7.57972 1.95318
1.35961 7.60029 1.81743
1.35961 7.58738 1.81743
1.35961 7.57448 1.81743
1.35961 7.56157 1.81743
1.37418 7.54391 1.8369
1.35961 7.53577 1.81743
1.35961 7.52286 1.81743
1.10912 7.59163 1.48259
1.10912 7.57859 1.48259
1.03438 7.58989 1.38269
1.04937 7.57193 1.40272
1.07928 7.54914 1.44271
1.10912 7.52641 1.48259
1.12401 7.50855 1.50249
1.10912 7.50032 1.48259
1.09421 7.49208 1.46266
1.07928 7.48383 1.44271
1.06433 7.47557 1.42273
1.06433 7.4625 1.42273
1.06433 7.44944 1.42273
1.03438 7.44594 1.38269
0.989306 7.44725 1.32243
1.00435 7.42934 1.34254
1.00435 7.41624 1.34254
1.00435 7.40314 1.34254
1.03438 7.38051 1.38269
0.989306 7.38169 1.32243
0.989306 7.36858 1.32243
0.989306 7.35547 1.32243
1.00435 7.33762 1.34254
1.00435 7.32452 1.34254
1.00435 7.31142 1.34254
1.00435 7.29831 1.34254
1.03438 7.27582 1.38269
0.989306 7.2768 1.32243
0.989306 7.26369 1.32243
1.03438 7.23657 1.38269
1.04937 7.21883 1.40272
1.04937 7.20575 1.40272
1.03438 7.19731 1.38269
1.00435 7.19349 1.34254
1.00435 7.18039 1.34254
1.00435 7.16728 1.34254
1.00435 7.15418 1.34254
1.00435 7.14108 1.34254
1.12401 7.09141 1.50249
1.12401 7.07837 1.50249
1.12401 7.06534 1.50249
1.12401 7.0523 1.50249
1.12401 7.03927 1.50249
1.10912 7.03074 1.48259
1.12401 7.0132 1.50249
1.12401 7.00016 1.50249
1.18337 6.96928 1.58184
1.18337 6.95628 1.58184
1.12401 6.96105 1.50249
1.19816 6.92585 1.60161
1.19816 6.91286 1.60161
1.19816 6.89986 1.60161
1.19816 6.88687 1.60161
1.19816 6.87387 1.60161
1.16856 6.86964 1.56204
1.16856 6.85663 1.56204
1.27183 6.81318 1.70009
1.31581 6.78731 1.75887
1.31581 6.77438 1.75887
1.31581 6.76145 1.75887
1.31581 6.74853 1.75887
1.31581 6.7356 1.75887
1.35961 6.70993 1.81743
1.37418 6.6928 1.8369
1.34503 6.68835 1.79794
1.34503 6.67543 1.79794
1.37418 6.65411 1.8369
1.37418 6.64122 1.8369
1.37418 6.62832 1.8369
1.38872 6.61126 1.85634
1.34503 6.61087 1.79794
1.35961 6.5938 1.81743
1.35961 6.58089 1.81743
1.24242 6.60137 1.66078
1.25714 6.58421 1.68045
1.27183 6.56708 1.70009
1.27183 6.55413 1.70009
1.27183 6.54117 1.70009
1.22769 6.54068 1.64108
1.22769 6.52771 1.64108
1.27183 6.50232 1.70009
1.28651 6.48525 1.71971
1.27183 6.47641 1.70009
1.27183 6.46346 1.70009
1.27183 6.4505 1.70009
1.27183 6.43755 1.70009
1.19816 6.44507 1.60161
1.19816 6.43208 1.60161
1.19816 6.41908 1.60161
1.22769 6.39793 1.64108
1.22769 6.38495 1.64108
1.24242 6.36792 1.66078
1.19816 6.36711 1.60161
1.19816 6.35411 1.60161
1.12401 6.36141 1.50249
1.15372 6.34026 1.54222
1.16856 6.32319 1.56204
1.16856 6.31018 1.56204
1.10912 6.31331 1.48259
1.12401 6.29623 1.50249
1.19816 6.26315 1.60161
1.19816 6.25016 1.60161
1.31581 6.20554 1.75887
1.31581 6.19261 1.75887
1.25714 6.19538 1.68045
1.27183 6.1785 1.70009
1.27183 6.16554 1.70009
1.28651 6.14869 1.71971
1.28651 6.13574 1.71971
1.30117 6.11892 1.73931
1.30117 6.10598 1.73931
1.30117 6.09304 1.73931
1.30117 6.08011 1.73931
1.30117 6.06717 1.73931
1.30117 6.05424 1.73931
1.30117 6.0413 1.73931
1.28651 6.03219 1.71971
1.28651 6.01924 1.71971
1.28651 6.0063 1.71971
1.28651 5.99335 1.71971
1.33043 5.96905 1.77842
1.33043 5.95613 1.77842
1.40325 5.92449 1.87576
1.41776 5.90789 1.89515
1.41776 5.89502 1.89515
1.41776 5.88215 1.89515
1.41776 5.86928 1.89515
1.30117 5.88606 1.73931
1.31581 5.86941 1.75887
0.355011 6.10182 0.474553
0.370898 6.08428 0.49579
0.370898 6.07082 0.49579
0.355011 6.06141 0.474553
0.355011 6.04794 0.474553
1.27183 5.80286 1.70009
1.27183 5.78991 1.70009
1.31581 5.76598 1.75887
1.31581 5.75305 1.75887
1.31581 5.74013 1.75887
1.31581 5.7272 1.75887
1.27183 5.72515 1.70009
1.27183 5.71219 1.70009
1.25714 5.70286 1.68045
1.24242 5.69352 1.66078
1.24242 5.68055 1.66078
1.24242 5.66758 1.66078
1.24242 5.65461 1.66078
1.24242 5.64164 1.66078
1.27183 5.62152 1.70009
1.31581 5.59791 1.75887
1.27183 5.59562 1.70009
1.27183 5.58267 1.70009
1.27183 5.56971 1.70009
1.27183 5.55676 1.70009
1.27183 5.54381 1.70009
1.27183 5.53085 1.70009
1.27183 5.5179 1.70009
1.31581 5.49449 1.75887
1.30117 5.48503 1.73931
1.30117 5.4721 1.73931
1.30117 5.45916 1.73931
1.30117 5.44622 1.73931
1.30117 5.43329 1.73931
1.28651 5.42379 1.71971
1.30117 5.40742 1.73931
1.28651 5.3979 1.71971
1.34503 5.37134 1.79794
1.34503 5.35842 1.79794
1.37418 5.33877 1.8369
1.37418 5.32587 1.8369
1.37418 5.31297 1.8369
1.37418 5.30008 1.8369
1.35961 5.29052 1.81743
1.35961 5.27762 1.81743
1.38872 5.25808 1.85634
1.40325 5.24189 1.87576
1.40325 5.22901 1.87576
1.40325 5.21613 1.87576
1.40325 5.20325 1.87576
1.38872 5.19364 1.85634
1.35961 5.18729 1.81743
1.35961 5.17439 1.81743
1.34503 5.16475 1.79794
1.34503 5.15183 1.79794
1.38872 5.1292 1.85634
1.41776 5.10988 1.89515
1.43224 5.0938 1.91452
1.43224 5.08094 1.91452
1.43224 5.06807 1.91452
1.43224 5.05521 1.91452
1.43224 5.04235 1.91452
1.38872 5.03899 1.85634
1.38872 5.0261 1.85634
1.38872 5.01321 1.85634
1.38872 5.00033 1.85634
1.38872 4.98744 1.85634
1.40325 4.97142 1.87576
1.40325 4.95854 1.87576
1.40325 4.94566 1.87576
1.40325 4.93278 1.87576
1.40325 4.9199 1.87576
1.40325 4.90702 1.87576
1.40325 4.89414 1.87576
1.40325 4.88126 1.87576
1.40325 4.86838 1.87576
1.40325 4.85551 1.87576
1.41776 4.83958 1.89515
1.40325 4.82975 1.87576
1.38872 4.8199 1.85634
1.38872 4.80702 1.85634
1.40325 4.79111 1.87576
1.41776 4.77522 1.89515
1.43224 4.75936 1.91452
1.43224 4.7465 1.91452
1.43224 4.73363 1.91452
1.43224 4.72077 1.91452
1.43224 4.70791 1.91452
1.43224 4.69504 1.91452
1.41776 4.68512 1.89515
1.44672 4.66638 1.93386
1.46117 4.65061 1.95318
1.46117 4.63776 1.95318
1.43224 4.63073 1.91452
1.43224 4.61786 1.91452
1.43224 4.605 1.91452
1.43224 4.59214 1.91452
1.43224 4.57927 1.91452
1.41776 4.56928 1.89515
1.41776 4.55641 1.89515
1.41776 4.54354 1.89515
1.40325 4.53352 1.87576
1.40325 4.52064 1.87576
1.40325 4.50776 1.87576
1.41776 4.49206 1.89515
1.41776 4.47919 1.89515
1.40325 4.46913 1.87576
1.40325 4.45625 1.87576
1.41776 4.44057 1.89515
1.43224 4.42492 1.91452
1.43224 4.41205 1.91452
1.43224 4.39919 1.91452
1.4756 4.37808 1.97248
1.40325 4.37897 1.87576
1.40325 4.36609 1.87576
1.40325 4.35321 1.87576
1.40325 4.34033 1.87576
1.46117 4.31659 1.95318
1.38872 4.31729 1.85634
1.41776 4.29899 1.89515
1.41776 4.28612 1.89515
1.43224 4.27056 1.91452
1.43224 4.2577 1.91452
1.43224 4.24483 1.91452
1.43224 4.23197 1.91452
1.43224 4.21911 1.91452
1.43224 4.20624 1.91452
1.41776 4.19602 1.89515
1.41776 4.18315 1.89515
1.41776 4.17028 1.89515
1.43224 4.15479 1.91452
1.43224 4.14193 1.91452
1.43224 4.12906 1.91452
1.43224 4.1162 1.91452
1.43224 4.10334 1.91452
1.43224 4.09048 1.91452
1.43224 4.07761 1.91452
1.43224 4.06475 1.91452
1.43224 4.05189 1.91452
1.44672 4.03649 1.93386
1.44672 4.02363 1.93386
1.43224 4.0133 1.91452
1.43224 4.00043 1.91452
1.43224 3.98757 1.91452
1.43224 3.97471 1.91452
1.41776 3.96434 1.89515
1.41776 3.95147 1.89515
1.43224 3.93612 1.91452
1.43224 3.92325 1.91452
1.49002 3.90059 1.99174
1.49002 3.88776 1.99174
1.49002 3.87493 1.99174
1.4756 3.86452 1.97248
1.4756 3.85168 1.97248
1.4756 3.83884 1.97248
1.4756 3.826 1.97248
1.43224 3.82035 1.91452
1.46117 3.80271 1.95318
1.46117 3.78986 1.95318
1.4756 3.77465 1.97248
1.4756 3.76181 1.97248
1.4756 3.74897 1.97248
1.46117 3.73847 1.95318
1.46117 3.72563 1.95318
1.46117 3.71278 1.95318
1.43224 3.70458 1.91452
1.43224 3.69172 1.91452
1.4756 3.67193 1.97248
1.51879 3.65223 2.03021
1.51879 3.63941 2.03021
1.51879 3.6266 2.03021
1.46117 3.62285 1.95318
1.44672 3.61227 1.93386
1.43224 3.60168 1.91452
1.43224 3.58881 1.91452
1.50441 3.56475 2.01099
1.50441 3.55193 2.01099
1.4756 3.54354 1.97248
1.4756 3.53071 1.97248
1.4756 3.51787 1.97248
1.4756 3.50503 1.97248
1.41776 3.50097 1.89515
1.41776 3.4881 1.89515
1.49002 3.46434 1.99174
1.50441 3.44935 2.01099
1.53315 3.43223 2.0494
1.53315 3.41942 2.0494
1.44672 3.41944 1.93386
1.44672 3.40659 1.93386
1.46117 3.3916 1.95318
1.4756 3.37664 1.97248
1.4756 3.3638 1.97248
1.46117 3.35306 1.95318
1.46117 3.34022 1.95318
1.46117 3.32737 1.95318
1.49002 3.31037 1.99174
1.4756 3.2996 1.97248
1.4756 3.28677 1.97248
1.4756 3.27393 1.97248
1.4756 3.26109 1.97248
1.4756 3.24825 1.97248
1.46117 3.23744 1.95318
1.46117 3.22459 1.95318
1.44672 3.21376 1.93386
1.43224 3.20292 1.91452
1.43224 3.19006 1.91452
1.44672 3.1752 1.93386
1.44672 3.16234 1.93386
1.44672 3.14949 1.93386
1.44672 3.13663 1.93386
1.51879 3.11401 2.03021
1.50441 3.10313 2.01099
1.50441 3.09031 2.01099
1.46117 3.08328 1.95318
1.46117 3.07043 1.95318
1.46117 3.05758 1.95318
1.49002 3.04092 1.99174
1.49002 3.02809 1.99174
1.49002 3.01526 1.99174
1.50441 3.00055 2.01099
1.40325 3.00088 1.87576
1.40325 2.988 1.87576
1.46117 2.96765 1.95318
1.46117 2.95481 1.95318
0.52266 9.29414 0.774875
0.52266 9.28079 0.774875
0.52266 9.26744 0.774875
0.52266 9.25408 0.774875
0.52266 9.24073 0.774875
0.52266 9.22738 0.774875
0.52266 9.21402 0.774875
0.595339 9.17032 0.882625
0.580842 9.16305 0.861133
0.537235 9.16789 0.796483
0.537235 9.15455 0.796483
0.537235 9.1412 0.796483
0.55179 9.12182 0.818061
0.55179 9.10849 0.818061
1.29638 8.23507 1.92196
1.29638 8.22219 1.92196
1.29638 8.2093 1.92196
1.26921 8.20676 1.88168
1.25559 8.19903 1.86149
1.25559 8.18612 1.86149
1.26921 8.16805 1.88168
1.25559 8.1603 1.86149
1.26921 8.14224 1.88168
1.26921 8.12934 1.88168
1.33701 8.09091 1.9822
1.33701 8.07805 1.9822
1.29638 8.08043 1.92196
1.2828 8.07263 1.90183
1.2828 8.05973 1.90183
1.25559 8.057 1.86149
1.26921 8.03901 1.88168
1.26921 8.02611 1.88168
1.26921 8.0132 1.88168
1.32349 7.98016 1.96215
1.32349 7.96729 1.96215
1.26921 7.97449 1.88168
1.26921 7.96159 1.88168
1.29638 7.93866 1.92196
1.2828 7.93078 1.90183
1.2828 7.91788 1.90183
1.2828 7.90498 1.90183
1.2828 7.89209 1.90183
1.29638 7.87423 1.92196
1.29638 7.86134 1.92196
1.29638 7.84845 1.92196
1.32349 7.8257 1.96215
1.32349 7.81283 1.96215
1.32349 7.79996 1.96215
1.33701 7.78219 1.9822
1.33701 7.76933 1.9822
1.33701 7.75647 1.9822
1.33701 7.7436 1.9822
1.33701 7.73074 1.9822
1.33701 7.71788 1.9822
1.33701 7.70502 1.9822
1.2828 7.71155 1.90183
1.2828 7.69866 1.90183
1.2828 7.68576 1.90183
1.26921 7.67771 1.88168
1.26921 7.6648 1.88168
1.25559 7.65674 1.86149
1.22832 7.6535 1.82105
1.26921 7.62609 1.88168
1.26921 7.61319 1.88168
1.22832 7.61472 1.82105
1.22832 7.60179 1.82105
1.22832 7.58886 1.82105
1.22832 7.57593 1.82105
1.26921 7.54867 1.88168
1.25559 7.54053 1.86149
1.22832 7.53715 1.82105
1.22832 7.52422 1.82105
1.22832 7.51129 1.82105
1.21465 7.50311 1.80079
1.18726 7.49968 1.76019
1.15981 7.49625 1.71949
1.10468 7.50238 1.63776
1.04927 7.50855 1.5556
1.04927 7.49552 1.5556
0.965603 7.51137 1.43157
1.03537 7.47423 1.535
1.03537 7.46119 1.535
1.03537 7.44815 1.535
0.965603 7.45903 1.43157
0.979593 7.44115 1.45231
0.993564 7.4233 1.47302
0.993564 7.41023 1.47302
0.937569 7.41624 1.39
0.937569 7.40314 1.39
0.937569 7.39003 1.39
0.937569 7.37693 1.39
0.937569 7.36383 1.39
0.937569 7.35072 1.39
0.937569 7.33762 1.39
0.937569 7.32452 1.39
0.937569 7.31142 1.39
0.937569 7.29831 1.39
0.993564 7.26647 1.47302
0.993564 7.2534 1.47302
0.993564 7.24033 1.47302
0.993564 7.22726 1.47302
0.979593 7.21883 1.45231
0.979593 7.20575 1.45231
0.979593 7.19268 1.45231
0.979593 7.1796 1.45231
1.03537 7.14813 1.535
1.03537 7.13509 1.535
0.993564 7.13577 1.47302
0.993564 7.12271 1.47302
0.993564 7.10964 1.47302
0.993564 7.09657 1.47302
0.979593 7.08806 1.45231
0.979593 7.07498 1.45231
1.03537 7.04378 1.535
1.03537 7.03074 1.535
1.03537 7.01769 1.535
0.979593 7.02267 1.45231
1.00752 7.00058 1.49371
1.00752 6.98752 1.49371
1.02145 6.96999 1.51436
1.04927 6.94802 1.5556
1.04927 6.93498 1.5556
1.06315 6.91752 1.57618
1.07701 6.90007 1.59673
1.09086 6.88265 1.61726
1.13228 6.85651 1.67867
1.11849 6.84789 1.65823
1.20097 6.80886 1.7805
1.21465 6.79161 1.80079
1.22832 6.77438 1.82105
1.25559 6.75291 1.86149
1.25559 6.73999 1.86149
1.25559 6.72708 1.86149
1.22832 6.72267 1.82105
1.22832 6.70974 1.82105
1.22832 6.69681 1.82105
1.29638 6.66281 1.92196
1.2828 6.65411 1.90183
1.26921 6.64541 1.88168
1.26921 6.63251 1.88168
1.26921 6.6196 1.88168
1.24196 6.61506 1.84129
1.22832 6.60632 1.82105
1.22832 6.59339 1.82105
1.22832 6.58046 1.82105
1.18726 6.58003 1.76019
1.18726 6.56708 1.76019
1.18726 6.55413 1.76019
1.22832 6.52875 1.82105
1.20097 6.52408 1.7805
1.14605 6.52771 1.69909
1.14605 6.51473 1.69909
1.14605 6.50175 1.69909
1.14605 6.48877 1.69909
1.13228 6.47992 1.67867
1.13228 6.46693 1.67867
1.14605 6.44984 1.69909
1.15981 6.43277 1.71949
1.15981 6.4198 1.71949
1.15981 6.40683 1.71949
1.15981 6.39386 1.71949
1.10468 6.39717 1.63776
1.10468 6.38417 1.63776
1.10468 6.37117 1.63776
1.09086 6.36223 1.61726
1.09086 6.34922 1.61726
1.09086 6.33621 1.61726
1.03537 6.3394 1.535
1.21465 6.27415 1.80079
1.20097 6.26519 1.7805
1.21465 6.24828 1.80079
1.26921 6.21959 1.88168
1.26921 6.20669 1.88168
1.20097 6.21341 1.7805
1.18726 6.2044 1.76019
1.18726 6.19145 1.76019
1.18726 6.1785 1.76019
1.20097 6.16163 1.7805
1.20097 6.14869 1.7805
1.20097 6.13574 1.7805
1.20097 6.1228 1.7805
1.18726 6.11373 1.76019
1.24196 6.08533 1.84129
1.24196 6.07241 1.84129
1.24196 6.05949 1.84129
1.24196 6.04657 1.84129
1.24196 6.03365 1.84129
1.24196 6.02073 1.84129
1.22832 6.01162 1.82105
1.22832 5.99869 1.82105
1.22832 5.98576 1.82105
1.21465 5.97662 1.80079
1.25559 5.95237 1.86149
1.29638 5.92822 1.92196
1.29638 5.91534 1.92196
1.26921 5.9099 1.88168
1.26921 5.897 1.88168
1.26921 5.88409 1.88168
1.26921 5.87119 1.88168
1.25559 5.86199 1.86149
1.25559 5.84907 1.86149
1.25559 5.83616 1.86149
1.26921 5.81957 1.88168
1.26921 5.80667 1.88168
1.30994 5.78282 1.94207
1.30994 5.76994 1.94207
1.20097 5.78624 1.7805
1.20097 5.77329 1.7805
1.20097 5.76035 1.7805
1.20097 5.7474 1.7805
1.30994 5.70554 1.94207
1.30994 5.69266 1.94207
1.15981 5.71946 1.71949
1.15981 5.70649 1.71949
1.15981 5.69352 1.71949
1.18726 5.67334 1.76019
1.20097 5.65679 1.7805
1.14605 5.65821 1.69909
1.15981 5.64164 1.71949
1.15981 5.62867 1.71949
1.14605 5.61928 1.69909
1.22832 5.58499 1.82105
1.22832 5.57206 1.82105
1.17354 5.57325 1.73985
1.15981 5.56383 1.71949
1.15981 5.55086 1.71949
1.20097 5.52735 1.7805
1.20097 5.5144 1.7805
1.20097 5.50146 1.7805
1.20097 5.48851 1.7805
1.20097 5.47557 1.7805
1.20097 5.46262 1.7805
1.2828 5.42904 1.90183
1.2828 5.41614 1.90183
1.24196 5.41349 1.84129
1.22832 5.40399 1.82105
1.22832 5.39106 1.82105
1.24196 5.37473 1.84129
1.24196 5.36181 1.84129
1.24196 5.34889 1.84129
1.25559 5.3326 1.86149
1.25559 5.31969 1.86149
1.25559 5.30678 1.86149
1.25559 5.29386 1.86149
1.26921 5.27762 1.88168
1.2828 5.26139 1.90183
1.2828 5.2485 1.90183
1.2828 5.2356 1.90183
1.29638 5.21941 1.92196
1.25559 5.21639 1.86149
1.25559 5.20348 1.86149
1.2828 5.18402 1.90183
1.25559 5.17766 1.86149
1.2828 5.15823 1.90183
1.2828 5.14533 1.90183
1.2828 5.13244 1.90183
1.2828 5.11954 1.90183
1.25559 5.1131 1.86149
1.24196 5.10341 1.84129
1.24196 5.09049 1.84129
1.2828 5.06796 1.90183
1.29638 5.05188 1.92196
1.2828 5.04217 1.90183
1.2828 5.02927 1.90183
1.2828 5.01638 1.90183
1.2828 5.00348 1.90183
1.2828 4.99059 1.90183
1.33701 4.96517 1.9822
1.33701 4.95231 1.9822
1.36401 4.93324 2.02223
1.36401 4.92039 2.02223
1.36401 4.90755 2.02223
1.36401 4.8947 2.02223
1.26921 4.90341 1.88168
1.26921 4.89051 1.88168
1.26921 4.8776 1.88168
1.26921 4.8647 1.88168
1.2828 4.84873 1.90183
1.25559 4.84195 1.86149
1.25559 4.82904 1.86149
1.30994 4.80399 1.94207
1.30994 4.79111 1.94207
1.30994 4.77823 1.94207
1.30994 4.76535 1.94207
1.29638 4.75547 1.92196
1.33701 4.73363 1.9822
1.33701 4.72077 1.9822
1.33701 4.70791 1.9822
1.33701 4.69504 1.9822
1.33701 4.68218 1.9822
1.33701 4.66932 1.9822
1.33701 4.65645 1.9822
1.33701 4.64359 1.9822
1.32349 4.63364 1.96215
1.32349 4.62077 1.96215
1.32349 4.6079 1.96215
1.32349 4.59503 1.96215
1.29638 4.58793 1.92196
1.30994 4.57216 1.94207
1.32349 4.55641 1.96215
1.32349 4.54354 1.96215
1.33701 4.52782 1.9822
1.32349 4.5178 1.96215
1.32349 4.50493 1.96215
1.32349 4.49206 1.96215
1.32349 4.47919 1.96215
1.32349 4.46631 1.96215
1.33701 4.45064 1.9822
1.36401 4.43221 2.02223
1.32349 4.4277 1.96215
1.32349 4.41483 1.96215
1.32349 4.40196 1.96215
1.33701 4.38633 1.9822
1.33701 4.37346 1.9822
1.33701 4.3606 1.9822
1.32349 4.35047 1.96215
1.35052 4.33215 2.00223
1.33701 4.32201 1.9822
1.33701 4.30915 1.9822
1.32349 4.29899 1.96215
1.33701 4.28342 1.9822
1.32349 4.27325 1.96215
1.32349 4.26037 1.96215
1.32349 4.2475 1.96215
1.32349 4.23463 1.96215
1.33701 4.21911 1.9822
1.29638 4.21419 1.92196
1.29638 4.20131 1.92196
1.29638 4.18842 1.92196
1.29638 4.17553 1.92196
1.29638 4.16264 1.92196
1.29638 4.14976 1.92196
1.29638 4.13687 1.92196
1.30994 4.12138 1.94207
1.29638 4.11109 1.92196
1.30994 4.09563 1.94207
1.29638 4.08532 1.92196
1.30994 4.06987 1.94207
1.30994 4.05699 1.94207
1.32349 4.04156 1.96215
1.32349 4.02869 1.96215
1.35052 4.01078 2.00223
1.33701 4.00043 1.9822
1.35052 3.98507 2.00223
1.35052 3.97221 2.00223
1.33701 3.96184 1.9822
1.32349 3.95147 1.96215
1.32349 3.93859 1.96215
1.32349 3.92572 1.96215
1.32349 3.91285 1.96215
1.32349 3.89998 1.96215
1.32349 3.88711 1.96215
1.32349 3.87424 1.96215
1.30994 3.8638 1.94207
1.30994 3.85092 1.94207
1.30994 3.83804 1.94207
1.30994 3.82516 1.94207
1.32349 3.80988 1.96215
1.32349 3.79701 1.96215
1.30994 3.78652 1.94207
1.30994 3.77364 1.94207
1.29638 3.76313 1.92196
1.29638 3.75025 1.92196
1.2828 3.73972 1.90183
1.2828 3.72682 1.90183
1.35052 3.70225 2.00223
