0.173089 4.59038 2.63331
1.07018 4.82154 2.08234
-1.5494 6.89003 -1.48076
1.34504 7.47629 -0.680079
-2.10658 3.80859 -1.53856
1.24274 4.75498 -2.58505
-1.54067 5.68229 -1.67698
2.32461 4.87442 1.09141
-1.76582 4.42829 -2.26425
-0.525067 8.44337 -1.06938
1.40094 7.54705 -0.582192
1.14381 9.39231 -0.785804
2.1767 6.14326 -0.230494
-0.760805 6.55998 2.06589
-2.29305 4.971 -1.30341
0.248712 3.95635 -2.61864
-2.34491 4.22001 -1.32678
0.512393 5.94551 -2.27784
0.111407 7.25282 1.43756
-1.1228 7.75467 -1.47997
2.26334 5.4765 -0.719529
-2.39039 5.37095 -0.428015
-2.48193 4.3284 0.864519
-2.42064 5.05023 -0.732676
1.42574 6.46031 1.54711
-2.32603 5.36977 -0.768371
-1.93674 7.07397 -0.126118
1.32671 3.82425 1.96137
2.10813 3.96775 -1.41421
-0.892091 3.41327 -2.29008
0.0238642 8.61385 -1.15232
2.08648 5.89898 0.195127
0.300361 8.77237 -1.18629
0.040104 4.20619 2.63135
-2.10478 5.46121 0.942718
2.35245 3.57707 -0.147712
0.224341 9.5527 -1.13293
-1.42291 6.90634 -1.59356
2.27027 3.37409 1.04992
-0.72836 3.52223 2.05393
-1.89832 6.93327 -0.748035
-1.01388 4.22732 2.27743
1.46634 3.47239 -2.11169
-1.49818 4.55136 1.95184
-0.112999 8.81954 -1.22325
-0.630286 7.04335 1.59718
-1.57082 4.86124 1.85201
-2.35728 5.43301 0.182261
0.172521 3.77987 2.28467
-2.13781 6.02015 -0.72988
-1.77843 6.58055 1.42473
-1.81797 7.09125 -0.905568
-1.41599 6.4347 1.61551
-2.36402 5.43931 -0.156576
0.699639 8.52923 -0.99128
2.48397 3.99375 -0.16684
-0.350774 4.65949 -2.66046
1.16013 7.56282 0.806851
1.07921 9.17802 -0.859171
-1.70074 5.4691 1.47956
-1.57476 5.92007 1.37542
-2.5352 4.61684 -0.338546
2.18009 3.48146 1.31648
-2.54853 4.26896 0.285252
2.28807 4.35766 -1.15385
0.32414 5.86825 -2.30828
0.346489 9.60862 -1.12003
-0.744963 7.48528 -1.64545
0.808052 8.0076 -0.770014
-2.231 4.66377 -1.78395
-0.506203 4.90008 2.48168
-1.05679 4.87992 -2.42546
-1.19226 6.6034 1.89342
-0.269561 8.97477 1.27391
0.0357927 5.90661 2.01854
1.52768 7.8738 1.85808
1.49181 9.45699 -0.480629
-1.493 8.45863 0.775311
0.38759 8.15367 -0.855034
-2.45974 7.93209 -0.346266
0.572753 4.26606 -2.68895
0.33035 9.78226 -1.13318
1.6361 7.82147 1.23561
-2.65303 8.01006 0.750124
-1.41662 8.33482 -0.99593
2.43032 4.66398 1.02262
-1.59475 4.00648 1.79974
-1.96529 7.83419 -0.636589
-1.46637 4.33841 -2.38806
0.00726801 6.48788 2.10969
1.12428 4.49981 -2.57231
1.64308 4.19246 -2.01475
2.22931 2.99672 1.48088
1.95491 6.0316 -1.09446
1.02496 9.61673 -0.81666
-0.94083 4.53208 -2.49831
-0.184405 8.07661 1.87828
0.245908 6.38357 1.99161
1.95668 3.24275 1.77255
-0.875059 4.62102 2.63212
1.65598 8.38082 -0.0903992
1.1806 7.37533 0.895663
-2.49806 4.13059 -0.592043
-0.166003 6.04489 -2.35042
2.45784 9.03203 0.680717
2.50195 4.25655 -0.253607
0.537144 9.64942 -1.08151
-0.390921 9.0916 -0.00984897
-1.58542 7.44151 -0.0725238
0.945497 3.88449 -2.41199
0.671948 9.51399 -1.05385
-2.39452 3.95807 -1.05137
-2.18919 5.8183 0.0959234
1.52286 8.33276 -0.39262
0.310532 5.67123 2.07061
-1.02388 6.45539 -2.38231
-0.50008 5.10086 2.39033
2.08651 6.24173 0.354583
1.31719 5.60095 1.68682
2.10698 5.46529 0.857608
-2.56388 8.07537 -0.11097
-1.39643 3.45538 -2.03215
-2.16255 5.10526 1.23409
0.882479 5.69644 -2.1142
0.481082 3.48724 -2.66744
-0.832323 7.23291 1.02452
-0.766294 5.03234 2.35901
-1.27544 6.9768 -1.67761
0.53379 8.18071 -0.836117
1.7072 7.41268 0.239771
-2.51982 4.73845 -0.652147
0.738898 5.96542 -0.272559
1.36707 8.33079 1.05092
0.283391 9.81777 -1.14563
1.56654 8.71537 -0.55088
0.630718 3.59564 2.1322
-1.89069 7.26611 -0.436525
2.4708 4.64033 -0.475292
-1.63459 8.00486 -1.02968
-0.366937 7.86123 1.92569
2.17923 6.32303 -0.791879
1.90609 6.39469 -1.57878
0.435785 7.2336 1.53603
-0.53098 4.16365 2.52185
-1.69743 8.69377 -0.709791
-0.0177017 8.41866 1.69078
-2.11392 6.77263 -0.0739089
-2.12408 5.60722 0.624432
-0.391021 9.09143 -0.0098566
2.23079 6.62337 0.343617
-1.49722 5.33509 1.75752
1.59136 8.04461 0.524952
1.4571 9.05057 -0.589538
1.87621 5.25728 1.36962
0.227085 3.61014 2.19395
-1.80992 3.9777 1.58907
-2.45595 3.75199 -0.325464
0.665672 7.87987 1.92208
2.08854 4.90865 -1.51889
-1.03368 3.68101 -2.36614
-1.47902 5.44529 -1.92842
1.007 7.21545 1.427
2.16411 6.17351 -0.0421839
1.9346 5.92818 0.654625
-1.74345 6.9349 -1.14477
-0.83975 3.89499 2.19877
-2.17046 4.64769 1.45563
-0.566493 5.70728 -2.29365
-0.752626 7.61164 0.908897
-2.58214 4.54087 0.594122
-0.494421 3.91508 -2.58913
2.11581 3.56261 1.48633
0.187242 9.62399 -1.12909
-2.48511 4.20037 0.572504
1.61315 7.8288 -0.142072
0.165157 5.4827 -2.44361
2.19066 2.89494 1.62334
-0.694592 9.27869 0.963476
0.883383 5.61311 1.93034
-2.43224 4.41703 1.06476
-2.43126 5.17903 -0.537778
2.45063 3.9422 0.438834
-0.137039 5.45698 2.21428
-1.65567 3.81473 1.68263
2.15052 5.6094 -0.86268
1.33684 9.57144 -0.572525
-2.56536 4.36137 0.356862
0.572566 9.106 -1.13559
1.5234 5.06183 -2.26537
0.0715161 5.42795 2.22111
-1.66448 7.78699 0.554833
0.196282 6.29616 1.9501
1.60925 8.38066 -0.173724
-2.10932 3.25578 1.49385
2.29847 4.82279 -1.04892
-0.931585 8.49947 1.12439
1.05527 5.136 2.04825
-2.45764 7.97374 -0.431686
1.84875 6.2905 -1.48019
0.18244 9.24147 -1.20024
-0.326449 6.12155 1.9432
1.36825 8.00603 -0.412288
1.35192 4.87001 1.90203
-1.11146 3.596 1.94332
-1.30844 8.18165 -1.11347
1.423 6.37206 -2.09077
1.05502 7.5835 -0.899778
-1.97512 7.04558 0.117573
-1.97283 5.78338 -1.17747
0.112526 8.72763 -1.19104
-2.52944 4.98198 0.615792
1.27819 7.33649 0.808924
-2.17273 6.22591 0.314203
1.23707 7.63904 -0.719164
0.269461 5.04625 2.30616
0.963945 8.09032 -0.673015
-2.21378 3.92258 1.10485
1.79365 6.33971 -1.62543
0.0811511 3.63203 2.21849
0.918909 8.95106 -0.953718
-0.940695 4.67413 -2.49398
1.47121 8.28339 0.569422
2.3046 4.11702 0.948683
2.08852 5.47922 -1.2207
0.194989 6.91939 -2.10727
1.50768 7.0505 0.815644
-1.99804 6.94712 -0.0757767
1.15984 5.76485 1.79322
1.098 5.5423 1.847
0.130406 5.6428 -2.36024
1.85026 4.9578 -1.97722
2.38405 4.91332 -0.780239
0.751044 5.99366 -0.197466
-1.17471 8.21104 1.05401
1.56046 9.03646 -0.496957
-1.95875 7.60025 -0.522778
-1.70264 5.72393 1.25252
0.545347 8.50438 -1.04442
-1.32994 8.33531 0.942932
1.67393 7.59977 0.406649
1.42337 5.06712 1.81707
-0.601583 4.87734 -2.59085
-1.89241 4.74222 -2.1295
1.69515 6.23966 1.12918
2.17166 9.19393 0.207076
-2.48125 4.91379 -0.60577
0.707107 9.39104 -1.0592
1.06381 3.15907 -2.55697
-0.875741 4.24011 -2.50636
-1.52958 6.12153 -1.6874
0.150699 4.14414 2.59355
0.44538 6.15334 -2.32381
0.926673 6.31561 -2.29994
-2.30436 4.83017 -1.51004
-1.04519 3.83951 -2.41017
0.524652 9.19655 0.818412
-1.52627 5.213 -2.05826
1.55127 8.34728 -0.287654
1.98545 6.21364 0.560954
1.09305 8.05239 1.93685
-2.54116 4.46012 -0.187984
-1.38852 7.54676 0.584584
-0.856871 9.00635 0.889418
-0.0841361 7.00317 -2.02716
-2.42459 5.26921 -0.456911
0.7675 5.95766 -0.236383
-2.1868 5.33157 0.998281
-1.53454 8.5839 -1.78983
-0.715011 8.78667 1.09356
-0.556077 9.17351 1.07569
0.646018 4.57214 -2.78758
-2.58636 8.09358 -0.00890623
0.913657 9.67209 -0.894093
-0.7793 9.23376 0.906324
0.088956 6.7023 2.20361
-2.47652 3.94853 0.186378
-2.04645 4.2837 -2.01996
-0.811686 9.04533 0.925052
-0.840752 7.45085 -1.63989
1.46745 6.13702 -1.7672
-1.61771 7.38679 -1.28036
0.420537 8.99796 -1.18656
0.451005 6.29882 -2.46112
1.0473 4.4378 2.10676
1.64579 9.34617 -0.36864
-0.388843 9.09499 -0.00968713
-2.22521 5.64873 -0.0905905
2.2122 4.89622 1.20088
0.329721 9.31605 -1.17314
1.2468 8.90598 -0.750788
-2.26364 3.96552 -1.35875
-1.72951 8.81461 -1.1778
-0.930302 7.43717 0.850372
1.51715 4.99225 1.75966
0.774203 3.01927 -2.77799
-0.628019 8.99813 1.07999
-2.10872 6.04884 0.462132
0.0496658 8.48389 -1.09059
2.29849 8.66238 0.349084
1.62781 3.52552 1.93225
-0.173714 7.57501 1.61767
1.3881 8.93397 -0.647275
1.61861 7.65257 -0.221727
-2.1695 5.71538 0.332348
-2.47995 3.85976 -0.160947
-2.3897 4.97466 -0.961144
-2.11163 6.40413 0.759804
0.952194 7.41881 0.164674
0.67069 4.88845 2.2438
-1.01617 5.30872 -2.32082
-2.60875 3.38819 0.405048
-1.26425 6.60094 1.84853
1.37416 7.38014 -0.697464
0.429761 8.08855 -0.832185
2.38851 5.27574 0.509957
1.52164 7.4762 -0.44307
-1.58139 6.03689 1.34602
-1.84007 7.44135 -0.902798
1.90177 6.1982 0.709351
1.62937 8.43534 -0.234812
1.23442 5.32536 1.87075
1.85285 3.75159 -1.6855
-0.107333 4.3156 2.69569
-1.73908 5.81565 1.15242
-2.46088 3.94612 0.356183
0.112943 6.17589 1.94672
1.52261 4.83092 -2.37521
0.123611 8.37951 -1.03361
-2.69506 8.08219 0.758649
-1.61326 4.20859 1.82542
0.769627 7.78424 -0.911104
0.598447 7.98748 1.9208
2.3849 5.17254 -0.664881
1.76585 5.4704 -1.66431
-2.1391 5.00099 1.30438
-2.30004 4.37635 -1.70931
-0.674273 3.87937 2.24762
-2.62218 3.31238 0.504018
0.768295 4.97996 2.19552
-1.67274 7.68285 -1.19627
-0.660951 4.12324 2.4137
0.859319 4.31273 2.19734
0.546752 7.1173 1.57174
-2.2141 5.86225 -0.305121
0.303627 8.16457 -0.886066
2.22225 3.59892 1.03754
1.89894 5.11441 -1.76759
-0.748816 5.94131 1.85766
1.99769 3.59792 -1.42361
-2.3003 3.85691 0.947769
1.97324 4.1117 -1.646
-0.537011 4.38092 -2.6278
-1.5954 6.27412 1.33045
-0.58124 7.92184 1.90136
2.56949 4.39387 0.740146
-2.39477 7.95231 -0.534787
-0.932718 6.25701 -2.26148
0.832129 5.26858 2.10527
-1.47057 5.60947 -1.79954
-1.1161 5.1687 -2.32399
2.1071 4.89581 1.30217
-1.78181 5.47296 1.39044
-1.43041 7.34142 0.628674
2.24258 5.00994 -1.10799
-0.736329 8.39314 1.30377
-1.76249 7.83313 -1.01995
-0.0538387 6.14416 -2.37573
2.24589 5.50109 0.447246
-1.57142 4.56469 1.89023
2.26766 4.04449 -1.14259
-0.580902 5.77621 1.95511
0.94524 9.56477 -0.896469
-1.21362 5.05697 -2.30702
-2.10609 3.70841 -1.43544
2.18627 3.26694 1.369
0.0475518 8.2461 -0.951771
-2.32447 4.85205 -1.36255
-2.52411 7.86699 0.326035
2.27149 5.26796 -0.962858
0.627231 8.39658 -0.9448
-1.83724 7.58992 -0.961415
0.308252 7.8533 1.87202
-2.24716 4.53059 -1.78964
-0.852462 7.43106 0.86861
-2.2004 6.03438 -0.137127
-1.45167 8.23719 0.873876
-1.84299 6.39135 -1.65091
1.95894 3.73687 1.60533
-2.53934 4.54189 -0.0943617
-2.59618 3.45376 0.285158
-1.99767 4.03795 -1.9957
1.84003 6.22344 0.844718
-2.20629 5.16513 1.14477
2.10283 4.75867 -1.5083
1.19458 7.3072 0.966755
-1.90082 6.09459 -1.29842
0.272411 7.04257 1.62645
-1.83666 6.30989 -1.57744
-2.47953 3.91491 0.0884424
1.70613 7.09781 0.218641
-1.78901 8.96818 -0.339501
0.744918 8.08328 1.92757
-1.70098 8.77219 -0.512886
2.48317 4.82318 -0.239037
1.91101 4.61762 1.51515
1.84071 3.28672 1.84347
1.77394 5.89553 -1.47276
1.16362 8.95101 -0.800127
-2.4372 5.29086 -0.298905
-1.13755 6.22122 1.64386
1.08742 6.00638 -2.05112
0.0274086 3.77464 -2.63775
-2.47079 3.73605 -0.212922
1.36243 5.35388 1.76359
-0.369408 5.42257 2.24406
1.62379 7.8666 0.531614
-1.25329 6.39688 -2.19591
0.0136826 4.66087 2.65412
0.695524 8.17494 -0.796991
-1.58024 4.25458 -2.32694
-1.94178 5.22936 -1.67914
2.17427 9.20931 0.21681
-2.71033 8.11743 0.546397
-2.47657 3.93893 -0.326868
-0.598413 4.26946 -2.60841
1.96327 6.56495 1.05337
2.46474 3.90517 -0.24441
-1.94353 7.08989 -0.0213811
2.06382 6.41349 0.694927
1.44461 4.95751 -2.36679
0.779778 5.10444 2.16619
-2.13845 6.13017 -0.770176
-2.45154 3.4077 -0.17203
1.90637 5.99388 -1.19653
-0.628332 7.46442 0.883645
-2.52247 3.27656 0.85759
-0.655537 6.40636 -2.50057
1.28104 5.18686 -2.28914
-2.21038 5.78716 -0.130016
2.25037 5.18847 -1.03728
-0.54527 5.41645 2.21794
-0.479383 3.70009 2.22048
0.889244 9.29073 -0.981168
1.57759 7.24275 0.545063
0.644626 5.04499 -2.5538
-2.63963 3.24724 0.360536
0.922694 7.8727 -0.781835
1.27499 9.03387 -0.72189
-2.55483 4.41235 -0.465939
-1.26285 6.4898 -2.24341
1.5806 5.18597 1.66856
-0.250276 4.98886 2.48209
1.57602 7.52339 -0.336524
-2.59765 8.06138 0.107115
1.21172 7.92543 -0.589926
-2.2258 4.53587 1.38959
-0.0386639 2.83822 -2.81664
1.87272 5.64719 -1.41424
-2.21292 6.20482 -0.248615
-1.55607 4.11346 -2.28093
-0.506659 8.67839 1.29049
-2.25955 6.63525 0.301152
-0.423638 8.6712 1.34773
2.35015 5.21873 -0.760148
1.53764 8.45051 -0.674356
1.68414 5.15888 1.59536
1.27798 6.1644 -1.94363
-1.18057 4.71126 -2.42039
-1.25191 7.82524 0.905237
2.14315 4.10038 1.1769
-1.20446 7.58592 0.750613
-1.68717 8.65551 -0.781353
-1.9257 4.99602 1.48095
0.635216 4.9118 -2.64905
0.4808 8.86144 -1.15737
1.4949 7.847 -0.363336
-1.81931 8.99988 -0.779096
-2.52275 3.05518 0.914972
-0.776391 9.08778 0.945686
2.19056 3.80863 -1.21641
0.13959 3.97734 -2.63925
2.37962 4.08322 -0.841221
-1.11995 8.03486 1.08485
1.80266 5.56701 1.19189
-2.52337 4.69518 -0.209566
0.176012 8.23079 -0.939425
1.54679 8.40146 -0.592883
0.527664 4.60391 -2.80958
-1.84781 6.12172 -1.38417
1.76051 5.73287 1.13056
-0.464053 4.2598 2.63041
0.768357 4.49606 2.23038
0.469544 3.35059 -2.71133
1.26132 5.68126 1.71831
0.665404 9.32041 -1.08772
-0.0284233 6.68868 2.20932
1.68643 3.98245 -1.9255
1.10459 9.28894 -0.829225
-1.67338 7.23304 -1.20525
-2.15634 5.90062 0.315751
-0.929028 4.80167 -2.48936
-2.03773 4.77032 1.5052
0.529006 8.73273 -1.11828
1.98448 5.95955 0.530265
1.96034 4.98326 -1.72942
1.64268 7.94066 0.482323
1.58363 4.70164 1.75468
-1.05566 3.90149 2.10387
2.24027 3.55881 0.375882
1.28726 8.37965 0.74575
-0.225702 4.17927 2.61252
2.24867 5.45323 -0.843255
-0.391751 6.14449 -2.33455
1.72923 7.62567 0.0806299
-2.4655 3.81146 0.36955
1.32502 3.46551 -2.25291
-2.15587 5.2687 1.12644
-1.21725 3.85657 -2.33611
1.01622 7.6599 1.88404
-0.391021 9.09143 -0.0098566
-2.57692 4.68281 0.714645
-0.865569 7.80049 1.20375
-0.775498 6.20287 1.81118
1.87043 5.99035 0.774743
-2.31732 4.50801 -1.67748
2.64619 4.48419 0.520387
1.73697 7.57397 0.170773
2.47654 4.72505 -0.425185
-0.0740549 8.48371 -1.09238
-1.1067 7.91268 1.06302
1.80435 4.63778 1.59342
1.53341 3.3421 -2.05458
-2.34851 6.49588 -0.00995668
0.632992 2.82467 -2.90731
0.847293 6.44602 1.89929
2.28518 5.56685 -0.32351
-2.37535 3.97132 0.704355
-0.0931881 3.70478 2.26004
0.970898 9.28998 -0.927663
-0.237972 4.852 2.55363
-1.35424 7.81922 0.826902
-2.57181 3.53984 0.38543
0.995355 9.72409 -0.80317
-2.36193 4.34147 -1.39903
-1.93175 6.69842 -1.17428
0.603801 6.6496 2.09544
-2.14293 4.01043 -1.75139
-0.754963 6.0816 1.83544
1.1905 3.87836 -2.27912
-2.01545 5.9544 0.708637
-1.44463 8.10626 -1.07148
-2.56322 4.49212 0.348254
-2.49238 3.20484 0.939758
-2.54394 4.44766 0.798136
-0.919315 3.82042 2.13929
2.18633 3.69622 -1.16129
-0.0796628 3.79327 2.29954
-2.36344 4.1636 -1.22881
-2.12767 6.78424 0.230848
-1.35747 4.45141 2.0498
-0.68113 4.7734 -2.57892
-1.33742 6.19042 -1.89874
-0.75043 8.71886 1.10093
-2.11789 3.24346 1.62456
-2.51165 7.90131 0.0939962
-2.51873 4.18191 -0.341526
-1.18593 7.88791 -1.38688
2.37835 3.8411 0.50056
-2.52147 4.63607 -0.740374
1.19805 5.82438 -1.97131
-1.35078 8.32199 -1.02915
-0.65014 5.4109 2.18977
1.4293 7.63566 -0.516215
1.05125 6.40479 -2.31542
0.162688 9.68688 -1.12975
-0.86401 7.94051 1.28566
-0.680212 4.38706 -2.58601
-1.81861 8.99815 -0.426228
1.38724 9.13993 -0.641103
-0.935128 4.103 2.24767
-1.85094 5.11243 1.5115
-2.00739 5.09312 -1.74679
2.36389 5.14574 0.792662
-1.37237 3.82843 -2.23691
-2.09622 6.19167 -0.983381
0.982654 5.99236 -2.10882
2.61392 4.67305 0.634284
-0.351246 6.03048 -2.33474
2.29012 5.57917 -0.17772
0.2838 9.12478 -1.20788
-0.811747 9.11045 0.905716
-1.052 4.69246 2.51076
-1.49627 3.84501 -2.16114
0.646745 3.93537 2.27459
2.18083 3.6861 1.12313
-1.56026 7.13907 -1.36515
1.49832 8.02998 -0.200216
2.39681 8.81789 0.460008
0.119425 5.83743 2.024
1.10883 7.94831 1.94175
1.29738 6.02207 1.78306
0.163363 9.44997 -1.1483
1.56744 7.72179 -0.302385
0.151398 8.28876 1.81138
-0.800725 6.83361 -2.06455
-1.98177 6.41542 0.989876
-1.41384 7.66664 -0.0777438
-1.77186 8.82609 -0.86596
-0.60708 8.80363 1.15546
-1.89241 7.21578 -0.553458
0.288776 7.22046 1.49948
-2.16062 4.92382 -1.73437
-0.868764 6.89953 -1.96241
0.280479 7.55261 1.72676
-2.20733 5.30011 -1.14867
-2.19236 5.93938 0.0835547
-0.736127 3.63031 -2.46627
-1.76302 4.47589 1.7239
-2.55024 4.39824 -0.591907
2.32556 3.69349 -0.799621
-0.863088 7.52004 -1.60923
-0.0384355 8.92759 -1.2382
1.95801 3.59209 1.69104
-1.51641 7.48443 0.447774
-1.42536 8.2255 -0.994422
-2.48724 3.70816 -0.0571761
-0.737644 5.61434 1.99351
-1.8236 4.09163 1.61366
-0.132632 3.58597 2.19455
-0.774652 7.08558 1.42089
-2.43243 5.31683 0.0820311
1.55485 4.45017 -2.17004
2.12509 5.6704 0.305419
2.15202 3.98481 1.12683
1.2514 7.73396 -0.661134
0.378509 7.77976 1.86103
-1.83085 9.01396 -0.694328
2.30389 6.43474 -0.641892
0.565385 5.7279 -2.23617
-1.26713 6.40328 1.68096
-0.840319 6.34588 1.83034
-0.62097 7.87974 1.84794
-0.248645 6.55132 2.18671
1.29757 8.03397 0.716852
-0.233447 4.37682 2.71695
1.21527 4.31497 2.02032
0.578771 6.1612 1.87304
1.81192 4.4127 1.60925
2.2625 5.24126 0.846346
-1.5059 4.18485 1.90063
0.99649 9.01678 -0.911948
-0.392212 4.11748 2.50763
-1.94912 3.76522 1.38871
1.28836 7.46562 -0.748836
-1.9065 6.85647 -0.839655
-2.01497 3.77517 -1.66048
1.81549 5.70446 1.01466
-0.6338 6.48468 -2.54614
1.71072 8.4873 -0.128842
-2.41744 4.60698 -1.11526
-0.661655 9.09798 1.03119
-2.54214 4.25933 0.48153
2.34969 4.01232 0.809648
-1.89047 5.27913 1.3993
2.27919 5.5346 -0.453414
1.16258 7.28718 1.15779
0.353932 7.62085 1.79005
2.5448 5.04737 0.442331
-2.49038 4.0163 -0.25228
1.73286 3.88578 -1.85713
2.05692 3.7029 -1.38242
2.21127 4.42846 1.21897
-2.47117 7.79982 0.452757
1.90642 6.04869 0.692967
1.75367 6.02749 1.45056
-1.98821 5.42768 1.18507
2.1107 3.94301 1.23089
-0.910266 6.37079 -2.39033
0.395461 4.68689 -2.79104
0.717281 9.26802 -1.06896
-1.08107 4.35027 2.31332
-1.89569 9.30943 -0.351297
-2.67154 8.02603 0.663729
-0.810193 9.18844 0.887183
-0.00482058 6.84592 -2.20767
0.74227 8.28597 -0.812929
-0.926143 7.12745 1.18807
-0.666988 5.99302 1.87815
-0.197359 6.85212 -2.18689
-0.529606 7.07733 1.5479
2.20997 4.60882 -1.31186
0.841001 4.27235 -2.56537
2.04302 3.61177 1.58193
-0.747973 7.02772 1.54564
-1.88001 9.27707 -0.539516
-1.60034 7.05164 -1.33551
2.27043 5.51432 0.237487
0.248409 8.10086 -0.8978
2.11304 4.35693 -1.47949
0.22464 3.53003 -2.692
-2.17909 3.83728 -1.41992
1.86443 4.10992 -1.77696
1.09345 7.73328 -0.782222
1.72002 6.46664 -1.89576
-2.019 3.86605 1.3599
-1.02727 3.63558 2.00995
0.580187 5.59461 -2.25469
-1.80348 8.96888 -0.853465
-0.465561 5.90562 1.96018
-1.37479 8.32559 -1.00909
-1.2809 4.63337 2.19355
-2.55166 7.86407 0.536329
-1.8832 5.84711 0.958686
-1.79615 5.91172 1.05238
0.280718 6.44998 -2.60509
0.119982 6.40379 2.02861
2.08639 4.04624 1.28717
-1.09698 5.80429 -2.1444
-0.720015 7.14482 -1.81958
0.306356 6.92775 -2.08305
-0.923526 7.81175 1.15939
-0.815696 5.73725 1.885
-1.76007 8.80931 -1.01268
2.36086 4.14739 -0.928723
2.28258 3.1053 1.13451
0.808696 7.76323 1.91475
2.40845 5.29345 0.34461
0.242512 4.94115 -2.64942
1.87017 3.88664 1.61055
2.48014 4.8816 0.865745
-2.05952 5.16188 -1.58775
-0.207747 8.36399 1.64297
0.789443 7.6429 -1.03442
1.71057 6.39782 -1.80768
-2.45951 4.07359 -0.954871
0.271393 6.17152 -2.36351
-2.44559 5.03542 -0.623705
1.8919 5.44177 1.19541
-0.681762 6.55798 -2.54527
-0.706788 4.91907 -2.55232
1.7167 8.24871 0.257899
-1.66688 5.27498 1.64234
-2.36979 3.69435 -0.77915
0.605964 8.20915 -0.833394
-1.10714 3.94965 -2.40514
1.72384 7.47618 0.123103
0.446174 5.64496 -2.29253
-0.904524 7.89055 1.22096
-0.976295 3.94521 -2.45117
-0.391129 9.09126 -0.00986489
2.27693 3.60528 0.244524
0.399878 4.1078 2.52404
2.35999 3.67673 -0.659432
-1.8337 4.37497 1.65104
-0.262739 6.64392 2.21917
1.128 5.31202 1.94898
-1.25507 5.37471 -2.15807
-2.45491 3.7492 0.649437
-2.52639 4.23508 -0.0879712
-0.576282 5.05666 -2.55187
0.452375 9.07747 -1.17571
-1.06048 8.26432 -1.16145
-1.2961 4.02168 2.00058
-2.37739 3.4788 -0.461158
0.538887 4.63694 2.31908
-1.67447 6.87922 0.80536
0.803463 5.06829 -2.49945
0.177191 5.62101 2.12351
-1.30284 6.99958 1.14747
-0.704683 3.89985 -2.55043
0.506661 2.77779 -2.93262
0.839425 7.55546 1.79879
-2.32721 3.528 1.12092
2.4318 4.10411 -0.631806
-1.53179 7.79964 -1.28159
-2.54538 3.52175 0.0499207
2.26126 5.52388 -0.584063
-0.868442 7.51459 0.871926
-1.31718 8.23979 0.960475
0.607997 3.67273 -2.58873
1.22158 7.70201 0.756748
-1.59626 7.2137 0.560849
1.95266 5.47255 1.08152
-0.527269 8.83138 1.19694
-0.0152873 8.44129 -1.06851
2.10614 6.22814 -0.851683
1.8199 8.75464 -0.152931
-1.27524 3.60133 -2.18978
1.00552 8.93393 -0.896506
1.59487 8.26002 0.437062
0.580694 8.31218 -0.905764
1.36465 8.48376 1.23727
-0.167044 5.94192 2.01508
-1.20187 5.3225 1.96704
-0.393404 3.61743 -2.54473
1.10273 3.41284 -2.45472
0.465236 8.37996 -0.993511
1.11458 7.6098 -0.835843
-2.46728 4.31157 -0.96975
1.51814 8.43281 -0.730266
0.565233 8.43023 -0.995102
1.03716 3.67009 -2.41315
0.432613 8.47931 -1.05781
0.435175 8.01938 -0.839919
-2.16899 6.50135 0.737373
2.07658 4.26512 -1.53199
2.13008 6.34046 0.452976
0.740323 5.66166 1.93799
1.27688 4.76849 1.97003
-0.471932 5.71175 2.02624
-2.56652 3.55219 0.237363
-0.527035 5.89155 -2.30196
0.669416 6.29621 1.86497
0.659241 8.53739 1.81836
-0.524577 5.99697 -2.28734
-0.245044 3.07605 -2.66834
-0.746904 6.44561 -2.49191
-2.62288 7.9745 0.821771
2.11599 5.94672 -0.542615
-0.392286 8.47531 1.48324
1.67396 4.69234 -2.19433
-2.53838 4.54304 0.222048
-2.19101 6.07869 -0.243833
0.241449 5.77523 2.02657
0.279495 3.71948 2.24029
-2.07345 4.42568 -2.00355
-2.53528 4.62807 0.0098589
1.45496 3.34757 1.99828
1.34488 3.82066 -2.1762
0.9554 7.06819 1.53685
0.0822074 5.24183 -2.55368
2.06273 5.94245 0.276089
0.22757 9.48275 -1.14419
1.68578 7.7111 1.74268
2.16324 6.19507 -0.556325
0.427914 5.16211 2.2549
-0.102704 7.67301 1.76593
1.36358 3.61714 1.99813
1.23361 5.20972 1.91946
1.546 4.11156 -2.0763
-1.72135 8.73268 -1.17002
-0.079032 4.42553 2.72212
-0.197019 4.0977 -2.67505
-0.503731 9.20552 1.0942
0.233751 6.01792 1.95061
-1.19178 8.07288 1.0322
1.47456 9.27096 -0.552965
2.34871 4.6383 1.12419
1.6674 2.97635 1.96957
1.28753 7.56126 -0.703011
-1.1066 4.48249 2.4055
-0.334615 4.89643 -2.637
0.0530555 2.8924 -2.84775
0.861902 9.01553 -0.999975
-0.205819 4.65382 -2.69018
2.14339 3.442 1.48423
1.51476 5.7547 1.56795
1.7689 5.84091 1.05026
0.308967 5.41033 2.21657
2.25255 4.25604 -1.21938
-1.98931 6.00173 -1.11425
-0.0257817 8.67211 -1.17822
2.29307 3.91245 -1.04078
-1.82176 3.91003 -2.0176
-0.821029 3.6942 2.13025
-1.05939 7.57396 0.830188
0.727273 9.66217 -1.00996
1.717 7.85485 0.227834
-2.43584 5.19675 0.528016
0.645937 9.84356 -1.03675
0.327514 6.51864 -2.62678
1.76194 9.20113 -0.286296
-0.233535 5.11204 2.41765
-1.21341 3.69975 1.94205
-0.200235 5.60881 -2.37215
1.59083 8.17536 0.451871
1.78096 5.35916 -1.74634
2.43965 8.87403 0.538534
-0.377216 7.52342 0.919855
-0.390528 9.09224 -0.00981864
2.54402 4.11591 0.112922
2.45806 4.0996 0.736835
2.42484 3.73711 -0.138037
2.4383 3.77473 -0.246879
2.24045 5.35487 -0.990107
1.53904 7.9114 0.62528
-0.616318 7.78508 1.75113
1.88658 3.63541 -1.61752
0.781587 8.27354 1.89667
-0.659584 5.62176 -2.27934
1.29073 6.273 -2.0406
0.49468 9.20698 0.832382
-0.112035 8.91259 -1.23864
1.06781 6.25303 -2.19361
0.0010741 6.58128 2.1725
0.256591 8.17956 -0.905201
-0.612134 7.13078 -1.85272
-2.46882 3.9508 -0.43344
-2.04039 6.0832 0.632822
-0.590061 3.55087 2.11016
2.63779 4.68011 0.23902
-1.38786 5.21559 -2.15095
0.364842 7.46039 1.64672
1.42285 4.95318 1.83787
-1.28348 7.63429 -1.49122
-0.361867 3.3957 -2.52066
-2.14453 3.67628 1.22079
-0.290894 5.31687 -2.51219
2.59836 4.94528 0.378468
2.4201 3.70135 -0.337892
1.28346 3.72121 1.99566
2.27228 3.75984 0.777985
-0.0984535 4.92076 -2.65032
0.276335 4.14738 2.57551
-2.54898 4.48112 -0.340599
0.310153 9.52308 -1.13226
1.87068 5.5644 1.08686
2.39619 4.01985 -0.74203
-1.95317 5.39612 -1.50294
-2.22105 3.75084 -1.21196
-1.06258 7.96817 1.11964
2.14278 3.78364 1.18972
-1.27509 5.24778 -2.2069
-1.58852 3.85835 1.76038
-1.84473 3.58231 1.47045
0.863381 3.68662 -2.49562
-1.50913 7.58169 -0.125077
1.82927 6.08503 0.864369
2.42756 4.81411 -0.674429
2.49466 4.15201 -0.23973
-0.164112 6.5875 2.19226
1.13676 3.51936 2.03807
-0.963783 8.24962 1.19185
-1.72614 6.79401 -1.33926
1.75484 5.11874 -2.03453
2.30767 5.09871 0.938646
2.51322 4.20993 -0.142383
1.00511 9.38082 -0.888873
-2.50511 4.18201 -0.711795
1.75019 5.86626 1.24211
-1.78803 5.05558 1.60642
-1.91164 6.64758 -1.36851
0.684405 4.02093 -2.53757
2.59514 4.12476 0.409201
0.997032 8.02872 -0.663941
-0.390978 9.0915 -0.00985329
2.52285 4.44968 -0.127792
-0.445815 8.97207 1.18931
1.41385 8.14662 1.88269
-0.590712 6.05364 -2.26321
2.30907 3.8859 0.774114
-1.58436 6.48027 -1.98495
-0.183763 5.24309 -2.5499
2.14636 6.02931 -0.357631
0.932041 8.85541 -0.9318
1.50186 7.56212 1.78204
0.180026 8.56257 1.70997
0.540733 5.2145 2.21688
-1.85729 9.21404 -0.652272
-1.68577 3.68007 -1.95178
0.539106 4.06527 -2.59427
1.37748 9.02467 -0.649813
-1.77439 8.90353 -0.996615
-0.197029 8.60715 -1.15661
0.748893 9.4839 -1.02624
0.026761 8.6011 1.62094
0.555332 4.95594 2.25924
-2.2044 6.57371 -0.686327
0.730524 3.14132 -2.73847
-1.00955 5.86644 1.76267
-2.2953 6.44842 0.241077
1.85052 3.16413 1.87114
-1.2183 4.63148 2.31085
1.11329 9.47463 -0.790158
1.28043 4.18324 1.98093
1.09937 6.51065 -2.36489
-2.2553 4.02304 1.03378
-1.81728 6.01154 -1.39988
-1.48735 7.5985 -1.3849
0.389588 6.66149 2.15455
2.02442 4.11016 1.40276
2.17892 9.23374 0.236998
2.52073 4.44736 0.85083
-2.47795 8.0924 -0.509505
0.0900253 4.0509 2.50243
0.772448 5.94275 -0.410916
-0.0625116 7.31825 1.54253
0.654391 4.72786 2.26671
-0.598472 7.52107 0.879338
-1.96479 3.94334 1.43496
-2.21531 4.27476 1.23326
1.68421 7.67159 0.406487
-1.16024 7.74539 0.912558
2.08812 5.79624 0.218087
-1.94775 3.6492 -1.65077
-2.45961 7.8218 0.17321
2.12521 6.06467 -0.550195
-2.53934 4.30268 0.168696
-1.57255 6.14585 1.32783
1.61371 6.51254 1.41756
0.90591 7.78398 1.92291
1.88169 4.01043 1.56549
-0.289686 4.77788 -2.659
0.29083 4.22921 -2.76006
-2.5071 4.11261 -0.209593
-2.36477 4.45821 1.18746
-1.74168 3.61142 -1.86408
-2.44587 4.49967 -1.03597
-2.05125 5.32541 -1.4077
-1.28382 6.04306 1.5685
-0.456909 4.10305 -2.6146
2.50076 4.33789 -0.309483
-1.18294 5.97844 1.63787
1.51859 7.63985 0.636916
1.36146 8.16775 0.658869
0.534239 7.50908 1.72385
-1.89015 5.09777 -1.8751
-2.44956 3.11797 1.00872
1.61818 5.32996 -1.97086
1.63809 5.55848 -1.7021
-2.34604 7.7215 0.290804
-0.760968 7.39814 -1.68297
-2.35471 4.71725 -1.36652
1.62224 5.99919 -1.63495
-2.03646 3.7393 1.30351
-2.21092 5.90922 -0.127459
2.07926 4.57389 1.36721
0.744331 4.7951 2.23342
1.29665 4.4078 1.9774
-0.841249 8.22891 1.29934
0.0511438 7.02625 1.66901
-0.710106 3.70306 2.17314
1.19399 4.93623 2.00023
2.33307 5.47294 -0.238931
-0.256681 7.31929 1.13617
0.421719 6.86892 -2.13482
-0.584544 5.2737 -2.47248
1.42747 5.166 -2.24098
0.398862 5.95196 -2.30277
2.06868 4.1508 -1.52363
-0.682103 6.04191 -2.23224
-1.56962 5.36159 -1.92078
0.175537 8.68924 -1.17589
-0.906554 6.43487 1.90378
-0.595297 6.58571 2.14886
-2.4871 4.74566 -0.792204
1.82633 6.16566 -1.38542
-2.15303 4.16174 -1.86885
1.41473 3.48742 2.00696
1.11407 4.53493 2.07486
-2.55659 4.34347 0.591826
1.21726 3.48198 -2.34312
-2.11689 5.68951 0.534538
-1.68314 5.15841 1.67845
2.60428 4.83715 0.518699
1.7373 4.10741 -1.90869
-1.86964 7.1838 -0.742302
-1.14967 5.23245 2.04153
-0.66981 9.15708 1.01005
-2.22583 6.45196 -0.832051
2.25849 8.55073 0.362744
0.201539 6.38117 -2.56216
2.52293 4.98305 0.644752
-0.461439 6.0964 1.9318
-2.06542 4.70562 -1.98074
2.4564 4.59603 -0.566402
-2.52209 3.46894 0.779762
2.39552 3.65094 -0.450895
-0.697991 5.05206 -2.52322
-2.52572 4.31134 -0.681856
0.507277 4.83616 -2.71311
1.72664 7.76896 0.258793
2.11375 3.23706 1.59849
2.07956 5.18081 -1.39981
-1.19117 4.13227 -2.40305
0.959423 4.79 2.14128
-0.749405 7.86492 1.39685
-2.56943 4.59259 0.455631
1.67218 8.65966 -0.369992
-0.47714 5.63947 -2.3291
-1.50699 6.81841 -1.58432
-2.21821 5.75066 -0.390526
0.0830759 8.18022 -0.939742
-2.55641 7.89044 0.784427
2.17228 6.53381 0.611561
-0.394384 6.63483 2.21445
-0.0600887 5.23636 2.31175
-1.53077 6.41859 1.49486
-0.391016 9.09144 -0.00985627
1.70979 4.91761 1.62524
1.89141 6.17147 -1.28687
-2.23299 6.27239 -0.363633
1.85434 4.81626 -1.97009
2.06347 6.11708 -0.850751
1.22584 9.40951 -0.725889
1.72515 7.56862 0.261996
2.13644 6.20241 0.104799
-1.82343 4.15857 -2.16401
-1.36334 7.02975 -1.59221
-2.49927 4.94317 -0.169672
1.32366 6.41566 1.5873
-1.5939 5.14057 1.76009
-0.791009 5.67758 -2.2072
-0.443468 4.033 2.39685
-2.23361 4.40598 -1.8091
1.86025 6.97479 -0.174191
0.384478 7.17839 1.53625
-0.452848 3.53874 2.12804
-1.93406 6.95215 -0.550158
-1.22002 8.23215 -1.13356
-2.17125 6.46554 -1.05354
0.337844 3.7327 -2.62755
0.976367 6.39796 1.85138
-0.887343 8.80732 0.960968
-1.44783 7.5598 0.0192654
1.3611 8.17526 -0.388304
0.21231 6.26536 -2.45858
-0.0801073 5.90742 -2.35768
-0.474713 5.99891 1.94269
0.912124 5.34499 2.04821
-0.286271 6.10334 -2.3397
0.494203 6.526 -2.60817
-1.99937 6.89425 0.397335
1.47949 8.32875 -0.511151
0.974497 3.56256 -2.48653
0.00357337 4.53418 2.70205
-0.764989 4.35097 2.61123
-1.23937 5.59337 1.78468
-1.0137 5.34526 2.06559
2.44344 4.67751 -0.634079
-1.73624 8.77374 -0.679011
0.403301 2.8854 -2.89688
-1.6882 8.63094 -0.90544
-2.55332 4.51273 -0.595966
0.399291 8.61272 -1.12446
1.18059 8.05407 -0.558163
-1.64067 8.63828 -0.630775
-0.319741 8.42776 -1.04766
1.18213 6.05781 -2.00859
0.106015 5.3672 -2.50337
-1.84945 9.0979 -0.665207
-1.45192 6.94654 1.08068
-0.654604 6.11329 1.87078
-2.52871 4.18791 0.388153
1.64448 5.20924 -2.06662
1.0164 5.33786 -2.29371
2.33127 3.68953 0.42361
1.4556 7.54239 -0.512942
1.62053 3.55362 -1.9265
-0.050377 9.39568 -1.09787
0.373241 4.94734 2.30685
-0.535951 9.12525 1.09718
2.46708 8.93533 0.672703
2.43743 4.99074 -0.545528
-0.0912566 4.20065 2.63715
-2.00478 4.04362 1.42092
2.31417 3.61841 0.0966478
2.47391 5.18426 0.400436
-1.41638 7.71748 -1.39152
-1.76866 7.0036 -1.05521
2.16926 8.57814 0.193461
-2.43877 4.94106 -0.7733
-1.89683 4.00632 1.51691
-1.23175 4.81148 -2.37622
-0.885372 7.59854 0.910999
-1.30686 4.21992 2.04154
0.514419 8.07116 -0.816915
1.59444 6.52475 -2.0612
-2.45003 4.73574 -0.963421
-0.334647 3.71819 -2.59446
2.39547 4.23945 -0.835102
2.54169 5.03375 0.111015
-0.94447 7.08294 -1.78336
2.48755 5.18405 0.248881
-1.71503 4.94085 1.70283
2.17385 4.31656 -1.37278
-2.52296 4.19074 0.133659
0.47024 3.7529 2.21789
-0.419326 5.75801 -2.32956
-1.87929 9.19279 -0.454151
1.14643 4.39009 2.05814
-0.952201 7.35388 -1.65509
-2.46365 5.21419 -0.225856
2.3369 3.58931 -0.574837
0.674536 5.67646 -2.19556
1.16548 3.09717 -2.4853
-1.48892 7.68349 0.528228
1.12957 5.3631 -2.24288
-1.50002 5.18926 1.81426
2.26718 4.77193 1.1937
-2.48965 5.06886 -0.146724
1.63276 7.78169 0.52231
2.38062 5.02016 -0.750294
0.161261 7.89821 1.8695
0.0224596 3.0281 -2.802
-2.37443 3.14741 1.09343
-0.31225 8.53277 -1.12046
-0.730886 6.13106 -2.23324
-2.50142 5.07995 0.495816
-0.168307 8.42014 -1.05074
-1.06651 3.42098 -2.20269
-0.0881824 7.0253 1.69602
0.0771005 8.51662 1.68774
-0.54913 9.05557 1.10873
2.23691 5.38773 0.711693
-0.887293 8.39107 1.19872
-0.374477 4.43122 2.71761
-0.170471 4.43079 -2.74944
-1.58562 7.89797 -1.17734
-2.24792 3.18961 1.20995
1.49755 4.76265 1.81322
-2.22502 4.27824 -1.7991
-1.56497 5.79611 1.40259
-0.0775981 5.88893 2.02983
1.34032 8.4918 1.32197
1.27315 9.30544 -0.712266
-2.05254 6.06706 -0.986658
0.909478 9.74801 -0.875625
0.63069 8.67171 -1.07012
-0.589683 7.21793 -1.80222
0.507553 6.2668 1.88618
2.31103 4.02391 -1.03097
1.24504 5.87679 1.78349
1.01015 9.17061 -0.910835
0.706831 7.77648 1.91067
0.605021 9.68754 -1.05733
1.0749 9.55642 -0.795148
-0.856233 8.89289 0.941111
-0.888321 5.74784 -2.16131
-1.1022 7.77982 0.987743
-0.746659 7.76087 1.29574
0.734319 6.60416 2.03838
0.061501 2.75054 -2.87811
0.651649 8.25666 -0.840229
1.54488 4.60169 1.79809
-1.44775 8.40721 -1.90135
-1.83205 7.83059 -0.923716
1.66318 8.16563 0.293881
1.2839 3.93285 1.96719
-1.73973 4.60044 1.74508
0.560991 9.73045 -1.07173
-1.86405 6.23091 -1.44894
-0.303824 6.89156 -2.135
-0.00804372 8.53149 -1.11627
1.16346 6.70751 1.85691
-2.23924 4.89979 -1.61926
-0.849941 3.5391 -2.38004
-1.69133 8.71324 -0.625886
0.0830011 3.88517 -2.63673
1.9542 5.28473 1.24876
-1.25019 4.78588 2.24596
0.417094 4.85546 2.31448
0.497494 7.96686 -0.843453
1.40986 3.37047 -2.18529
0.344712 7.989 -0.887093
-2.18946 6.14844 0.125013
-2.28194 3.67489 -0.980416
-0.634993 8.34285 1.40681
0.613779 9.04117 -1.12126
-0.881611 6.25915 1.7822
1.68472 8.13487 1.77068
1.55354 5.65938 1.51755
2.48678 4.71587 0.924034
-1.62422 4.9272 1.78915
2.29548 3.71215 -0.921099
-0.932459 7.98334 1.2323
1.3375 7.77359 1.89983
-0.735002 5.18219 2.29097
-2.49911 3.55254 -0.0768224
0.0162076 7.55692 1.66003
1.31106 3.32663 -2.29463
1.21744 7.86689 0.748409
0.863443 9.38175 -0.982115
-2.10674 3.89459 -1.64791
1.71344 6.10589 -1.54003
-2.31145 4.5256 1.28305
2.10226 4.47123 -1.50367
0.661262 5.78347 -2.19685
-1.89602 5.66512 -1.37348
0.936327 7.6499 -0.940542
1.55748 7.89024 -0.215346
0.049964 4.73982 -2.72237
1.43505 7.68056 1.86021
-2.33626 4.05732 -1.25079
-1.37808 4.44165 -2.41645
-0.83349 5.49724 2.05644
-0.993595 7.82902 -1.46238
0.112545 8.87766 -1.22204
2.14482 6.1135 -0.474242
-1.25415 5.90415 0.498605
-2.51147 7.99913 -0.274853
-2.03184 3.70089 -1.56074
-1.43611 4.83369 1.98236
-0.318014 5.68007 2.07473
0.717285 8.94127 -1.0709
1.50478 5.13008 1.74272
1.56124 5.44891 -1.87618
-0.287362 8.50157 1.52015
-0.284171 7.11716 -1.90486
-1.34818 6.94198 -1.63693
-1.44841 4.57207 -2.39215
0.829892 7.63478 0.312849
2.14198 4.83024 -1.42618
-1.64601 5.65757 -1.60677
-0.0808372 7.60152 1.6905
1.32883 8.60111 -0.894564
-2.42856 4.3925 -1.07604
1.60099 3.32141 1.95398
0.0173759 4.32579 2.68644
0.479001 8.62604 1.76036
-1.06198 7.89085 -1.41581
0.640234 2.94257 -2.84612
2.14355 4.34752 1.26746
-2.52648 4.75814 0.319936
1.91059 8.52235 0.00349456
-1.1276 6.18938 -2.063
-2.41653 5.15335 -0.650117
-2.05842 6.28525 0.706969
0.605672 6.5753 2.06279
1.93722 4.46499 1.4969
-2.34359 4.93467 -1.17408
-2.48081 3.73918 0.500822
0.58819 5.64017 2.01207
-1.15361 6.41963 1.77866
1.32309 9.10325 -0.690703
2.42095 3.97974 -0.622294
1.94517 5.89211 -1.14225
-0.405926 4.61106 2.70565
-1.62506 4.80725 -2.25259
-1.46856 6.40521 -2.05067
-0.910735 8.17199 1.25604
-0.650085 7.28657 1.01968
1.61824 7.37289 -0.306045
0.578194 9.52906 -1.08482
-0.0729295 8.34136 -1.0054
2.18932 4.05406 -1.29743
-1.18212 8.39697 1.02043
1.5704 3.18626 -2.01313
-0.817541 4.87376 -2.52342
-1.1356 7.28862 -1.639
-1.05507 4.75904 -2.44755
-1.85766 6.99107 -0.834067
-0.627495 6.14016 -2.26616
-2.31621 6.38166 -0.277988
-0.298606 7.47023 0.972785
-1.216 6.93267 -1.73856
2.38026 4.51872 1.07757
0.319514 5.9398 1.95402
-2.11371 5.92304 0.467377
1.28581 8.0511 1.91196
-0.885156 9.0667 0.831586
1.92413 4.79524 1.48441
1.4358 3.8436 1.91749
-1.69223 3.64568 1.59916
-0.309589 8.76478 1.35801
-2.38968 4.8425 -1.10458
2.18386 5.40633 -1.08209
1.16551 8.18148 -0.585424
-2.57173 4.44207 0.665207
1.41491 8.65704 -0.764272
2.27633 3.99357 0.91839
-2.21735 3.33452 1.2361
1.50902 4.33883 -2.16032
0.751533 6.04069 -0.207476
0.0828343 6.40181 -2.58707
1.07862 3.62957 2.04489
-0.391021 9.09143 -0.0098566
1.55499 7.96072 -0.136134
0.0248878 8.01576 1.87195
-0.365292 5.15739 2.39055
-0.351521 5.39887 -2.4619
-0.445716 6.57071 2.1856
-0.497887 9.12171 1.11677
0.706753 4.3645 2.27855
-2.45701 5.1223 -0.457045
1.37196 6.4481 -2.19926
1.49633 7.94392 -0.279778
1.49612 8.35116 -0.669747
2.18276 5.2375 0.96775
0.839929 8.83791 -0.981274
-0.630845 9.22289 1.01926
-2.40229 5.26815 -0.591305
-2.33774 6.48499 0.0890783
-1.18136 7.10173 -1.68085
-2.25644 4.9329 1.24595
-1.84889 6.55711 1.31519
1.9581 4.46034 -1.71283
-0.494802 3.73022 -2.56142
-1.09735 6.85416 -1.87576
-0.210959 7.64472 1.72426
-2.08641 6.13142 0.521535
0.507407 9.57103 -1.09756
-2.54563 4.6296 -0.60669
-0.792079 9.00235 0.959913
-1.08063 7.66033 0.880552
0.939581 7.19734 1.48845
-1.07003 4.07872 -2.42993
0.341169 6.18459 1.90711
-0.984459 8.0539 1.20335
-1.41959 6.19724 1.45193
-0.79569 8.93417 0.980445
-0.989133 5.47454 2.00288
-1.57745 5.46619 -1.82266
-0.317052 6.99702 1.7001
-1.68122 7.875 -1.09603
1.95461 4.34295 -1.7027
-1.91688 7.08068 0.37335
2.41446 5.16458 0.651544
-1.87777 7.21514 -0.333242
0.650726 6.91974 -2.01517
0.603877 6.01906 -2.25548
1.12528 7.38963 1.16789
-2.08841 4.27214 1.35879
1.17193 7.97711 0.73776
-1.91124 6.77056 -1.0056
0.237984 8.32541 1.81863
1.08397 4.94191 2.06484
2.15966 3.66081 1.24724
-1.3203 5.10816 -2.2335
-1.4195 5.28674 1.83232
2.19184 5.62901 0.151302
-1.82923 3.88017 1.5381
-0.525094 3.97345 2.33257
-1.43085 7.05491 -1.52421
1.48001 3.27031 -2.12285
2.64003 4.6067 0.52727
1.30559 4.33446 -2.31127
-1.87447 5.55212 1.16032
-1.13081 8.13046 1.08675
-0.342317 4.31367 2.68572
1.11252 9.03404 -0.832165
-2.14835 5.03343 -1.62515
-1.25719 5.18313 1.98603
2.52685 4.01569 0.309323
-0.410484 8.43949 -1.0579
0.957137 7.75677 -0.848962
-2.25674 4.1283 -1.65229
2.46007 4.94891 -0.426591
1.29617 5.83499 -1.89963
-0.158197 8.6563 1.49413
-0.351777 8.55238 1.45867
1.93132 3.35855 1.76938
0.528065 6.07237 1.89734
0.526018 9.19628 0.817694
0.278318 9.43106 -1.15238
-0.817879 8.45226 1.2154
-1.29806 3.93856 -2.31405
-0.24016 6.32811 -2.52271
0.355285 9.39672 -1.15322
-2.33648 4.28041 -1.55263
1.11028 4.1214 2.06555
1.5902 4.1628 1.80221
1.45053 5.97035 1.67612
2.0527 3.83757 -1.45042
-2.53045 4.61256 0.126556
-1.73196 8.79666 -0.59173
1.56259 5.30702 1.63863
-1.14146 7.5179 0.765987
2.44209 4.41099 0.967144
-2.27631 5.52222 -0.538561
-1.20133 7.68593 0.831913
-2.34412 6.4933 -0.121851
-0.960563 3.53094 -2.32462
-1.89381 9.31573 -0.438031
-2.44497 3.65643 -0.321831
-0.717145 9.22629 0.958176
1.33226 8.42274 -0.992538
2.03354 6.11014 0.405585
-0.00095738 3.15086 -2.76696
-2.43503 4.10971 -1.04768
-2.25046 6.41418 0.365028
-2.38144 3.5882 -0.617353
-0.345132 6.98623 -2.02665
0.248203 9.2856 -1.18694
-2.35643 5.333 0.488213
0.452512 7.11894 1.56694
1.31089 8.26802 -0.576656
1.2405 7.68948 1.88983
0.738009 8.82407 -1.04126
0.764625 6.34671 1.86599
-1.53472 5.03655 1.83889
1.9463 5.26385 -1.57264
-2.26396 3.65714 1.12356
2.54015 4.87195 0.722665
0.648472 8.45489 -0.976682
1.64777 8.08969 0.361619
-2.55404 4.71778 0.441422
1.4922 4.63169 -2.35784
2.24587 3.72682 -1.0657
2.2274 3.53487 -0.827821
-0.0140653 6.3525 -2.5467
1.63591 6.3041 1.29738
-1.12831 5.88698 1.6899
1.04283 6.12333 -2.10519
-0.609429 6.25992 1.87128
-0.203476 7.02646 1.71795
-1.08591 8.36185 1.08639
0.128838 4.87334 -2.67377
-1.643 5.82251 1.30533
-2.21116 5.95011 -0.230146
0.148257 8.57341 -1.13115
-1.17557 6.40827 -2.25688
-1.79847 7.05093 0.498488
0.314261 8.56265 1.75138
-2.43142 7.78386 0.281883
0.731326 3.66874 2.13593
-0.807966 7.47677 0.872912
1.33914 7.90654 0.727659
-2.51113 5.02493 0.358325
-1.96024 7.62956 -0.61643
2.2446 3.7474 0.890362
-1.39236 8.37084 -1.02131
0.283675 4.25209 2.61854
0.550826 8.51513 1.81406
-1.79373 5.37151 1.45106
-1.33548 7.04222 0.993439
-1.69662 4.25573 1.7606
-2.05325 3.44748 -1.29201
-1.30655 8.27644 -1.06726
-2.17392 5.82002 0.237102
0.00148724 3.95498 2.40424
-1.63945 6.18861 1.25345
-1.36492 8.45567 0.876454
1.97741 3.84842 1.51084
-2.42387 3.76984 -0.617535
2.32394 5.42501 0.294384
2.16253 5.88816 -0.310897
1.76081 7.00901 0.225023
-0.228805 8.5451 -1.12665
-1.16047 3.92789 2.05577
-2.06754 5.77473 0.648032
-0.393886 9.08665 -0.0100728
-2.12365 5.75066 0.461909
-1.88688 9.23423 -0.394169
1.04482 9.46135 -0.845242
0.646066 8.25909 1.8915
-0.253146 8.69428 -1.19143
1.76234 6.64059 1.36042
-0.364619 7.57912 0.895881
-2.25871 5.47457 0.446226
2.27729 3.01989 1.22694
1.96359 3.96418 1.47994
0.0880294 9.5821 -1.11467
0.561189 9.19498 -1.13571
0.896162 4.19291 -2.48898
2.4588 5.02906 -0.333133
0.559696 9.86655 -1.08006
0.331679 8.24955 -0.924851
1.37622 7.47908 0.702965
1.24499 8.4768 0.821278
-1.86966 9.15744 -0.369045
2.1553 4.69264 -1.41195
-1.64656 4.4698 -2.32986
-2.46458 5.20599 0.121476
1.57369 3.44634 -1.99047
0.496317 6.35656 1.92531
1.55618 8.12587 0.536411
-2.21119 6.35053 -0.738352
1.60621 8.09353 0.455213
2.0087 2.7915 1.87482
1.23169 8.14983 1.9086
-2.09681 6.44178 -1.22216
0.390132 8.50759 1.78872
0.350404 9.06054 -1.20057
2.3229 8.58586 0.456183
2.04901 4.68871 -1.60543
-1.63015 5.70507 1.3575
2.20132 6.24648 -0.438975
-2.40391 3.43198 -0.308497
2.54884 5.0752 0.295715
-1.91733 5.16825 1.42306
1.2228 4.61762 -2.57785
0.691193 5.4332 2.09907
-0.412549 7.71573 1.80294
0.744012 4.50476 -2.74936
-1.63107 3.42251 -1.85334
0.171076 7.97775 -0.979466
2.11526 5.32945 -1.26275
1.35538 3.25375 2.00417
-1.04682 6.22065 -2.14721
-2.08978 5.1638 1.26939
-2.27284 3.57009 -0.91098
-0.574733 7.02133 -1.9501
-1.99544 6.29906 0.845134
1.79891 4.34267 -1.88217
0.688753 8.22925 -0.814574
-0.191101 6.34071 1.97433
0.339113 3.60419 2.17458
1.65804 4.44806 -2.06246
1.14859 6.37621 -2.25444
-2.32168 6.38776 -0.0244823
-0.637548 7.12068 1.47668
0.272814 8.31935 -0.988936
-0.48557 7.51333 0.89583
1.20757 8.71116 0.966008
2.1512 6.46232 -1.28018
1.18125 7.77818 0.769726
1.38081 4.09058 1.92567
-1.97499 3.48 1.41004
-2.24081 4.72821 1.37708
2.41932 4.93069 -0.657691
-1.94671 6.52718 -1.49229
1.46006 7.78107 -0.433798
-2.24056 5.40111 0.710215
-1.62311 8.59433 -1.46177
-1.90634 7.06829 -0.5526
-0.835353 7.13566 -1.79036
-2.45798 3.96477 -0.812468
2.43147 3.80733 0.0414962
2.27639 8.77926 0.263252
0.827426 7.07631 1.56881
2.01349 5.04518 -1.58596
1.61397 8.49079 -0.408228
2.4449 4.26875 -0.631718
-1.81259 4.79931 1.64726
1.1003 3.81054 2.03579
-0.0146672 5.52068 -2.42932
0.573965 8.86574 -1.1246
-2.50126 4.67524 1.02005
-2.16508 3.80203 1.1754
0.197676 7.73133 1.81539
1.32009 8.87435 -0.70391
0.522695 9.03798 -1.15513
0.637146 5.30768 2.16492
-0.398862 6.40951 2.02118
0.896897 3.08813 -2.70357
0.821336 5.42806 2.05278
0.71336 7.51311 1.75258
-0.218027 8.58489 1.50472
2.20307 6.35572 0.115732
1.11607 8.1569 1.91971
-2.20292 5.88201 -0.0142521
-0.460391 5.47359 2.20112
2.2007 6.22091 -0.164311
0.366081 3.60927 -2.65495
-0.39725 3.79389 2.27507
-1.04687 8.11483 -1.26242
-0.404712 8.51579 -1.11554
0.121486 5.34646 2.24785
-1.3927 7.72754 -0.331965
-1.61354 7.47586 -1.28396
0.42108 4.38687 2.55174
1.04515 5.77535 1.84892
0.575115 6.42062 -2.54904
2.48808 4.1784 -0.358198
-1.48124 4.87168 -2.26994
-2.43362 5.07126 0.818413
0.404537 8.16938 1.8808
0.0459186 8.86517 -1.22588
-0.818131 5.14496 -2.46055
1.83852 4.27511 1.59535
1.08443 6.02362 1.89576
1.79413 5.90012 0.948978
2.55851 4.82836 0.047974
-2.18727 5.52982 0.542022
1.68845 5.53061 1.39411
-0.201325 5.7236 2.06784
2.29901 2.88437 1.30685
-1.92742 7.01744 -0.452722
-1.33533 5.82863 -2.20319
-1.62207 7.8921 -1.03486
-0.676377 4.97543 2.40809
2.19766 4.19353 -1.31268
-0.80693 6.65236 2.09239
-2.51977 4.88687 0.322152
-0.18085 8.97213 -1.24481
2.4489 8.80948 0.611714
-1.11261 6.31391 -2.20817
1.55314 7.05459 0.727265
0.465498 7.28958 1.54078
0.16802 7.04751 1.63651
0.480803 6.42555 -2.57194
-2.56727 3.35069 0.703094
0.161056 9.5553 -1.13032
-0.582179 3.86229 2.26549
-1.29968 5.27072 1.92131
1.79363 3.98654 1.65381
1.00702 8.66752 -0.908755
0.188745 3.1402 -2.80616
1.82271 5.98158 0.88565
0.655288 5.02683 2.21936
1.65521 5.70296 1.4235
2.03624 5.07154 1.29592
-1.32655 5.362 1.86639
0.0205851 3.66313 -2.6505
1.652 3.79129 -1.91623
-1.30932 7.9123 -1.33035
-1.10904 7.18241 -1.68147
2.21703 2.76584 1.59966
0.406382 9.55371 -1.11791
0.133185 3.61603 -2.66537
-2.49749 4.8377 0.971415
1.57576 9.39825 -0.419475
1.97404 4.8359 -1.73727
2.39008 6.48477 -0.329887
-0.792461 5.40991 2.13343
-0.442238 5.01868 2.43788
0.143819 3.00773 -2.83946
0.111076 3.40113 -2.72034
-0.906431 8.92631 0.865775
-1.38866 6.04305 1.50232
2.34978 4.7496 -0.932016
-2.47646 3.80493 -0.0787665
2.26257 8.39442 0.608724
-1.88772 6.43138 1.13009
-2.28342 6.51888 0.336124
2.30525 5.48454 0.128788
1.83625 5.23786 -1.77844
0.542557 8.35886 1.85802
1.80486 8.62102 -0.112088
-0.611299 9.18109 1.04211
0.227063 3.6859 -2.64702
2.56825 4.44039 0.061648
-1.73177 5.85757 -1.98062
0.670357 5.92892 -2.22737
1.57095 8.43493 -0.514191
-0.605622 3.76342 2.22713
0.46918 5.8198 -2.27247
1.97523 8.81291 -0.00183512
1.19036 8.02826 1.92933
2.38713 4.80919 -0.802917
-1.9363 4.21748 1.51739
-0.85837 9.17238 0.838071
0.684391 7.20735 1.55498
-0.176828 8.52623 1.5543
-0.360993 6.26476 -2.43172
-0.197392 5.22204 2.351
2.30426 3.07026 1.03331
2.10969 5.20336 1.10598
0.347127 3.94152 2.37403
-0.919452 8.07761 1.26433
-0.413352 3.49165 -2.50702
-2.2002 4.01943 1.1359
0.370595 7.7737 -1.0704
-2.31276 4.06883 0.923137
2.24637 4.49979 -1.24714
-1.48781 8.54945 -1.90349
1.9258 6.09487 -1.16636
-1.93965 7.13375 0.0831977
-1.56899 3.54943 -1.97383
0.669591 8.98805 -1.09708
0.447851 5.62695 2.06909
-0.286001 8.473 -1.07999
-2.26207 5.20822 1.02287
-1.54529 8.43735 -0.875419
-1.1819 4.73705 2.36259
-2.38928 4.74459 1.19232
1.25008 5.00392 -2.4445
0.770762 5.90873 1.86435
-2.05517 6.87397 0.115585
-2.18651 3.91941 -1.50622
-1.94711 6.9973 -0.349537
-0.826679 4.37722 -2.53313
-1.94976 5.91557 -1.2093
-1.95076 3.56637 -1.57042
-1.95077 7.7076 -0.699267
-1.16086 7.97624 1.03705
-2.53705 4.37668 0.0719056
-1.43714 8.39577 -0.987916
-2.31086 4.80541 1.26729
0.852655 7.83218 -0.843677
-0.715072 3.80189 2.21225
-0.092908 6.90596 -2.13324
2.25266 6.45621 0.209154
-2.17092 6.01763 0.224513
0.259861 4.72061 2.4509
1.88595 3.68548 1.71438
2.15436 3.49133 0.195912
-0.67444 8.89907 1.07939
2.13211 2.78258 1.74463
2.34501 3.7048 0.311648
-1.65234 4.78079 1.79372
-1.22701 4.4014 2.14793
-1.55922 6.20986 -1.75956
0.723509 4.68648 -2.75914
-0.236812 7.5203 0.945473
-2.32452 3.96155 -1.20487
0.7763 6.51186 1.97237
-2.47395 4.00505 -0.597805
-1.81827 6.87791 -1.04503
2.05566 5.84118 0.30282
1.46798 8.40603 -0.833234
-0.421489 3.81262 -2.59529
-1.80607 4.90879 1.62784
-2.0156 6.58561 1.09149
-1.35323 6.51318 1.73974
-0.215364 8.33489 -0.990501
1.68593 5.02892 1.62421
1.03006 5.65511 -2.07014
0.780725 5.95157 -0.333936
1.33529 5.12876 1.8721
0.00397512 5.62207 2.12082
2.12045 4.99966 1.24031
1.71829 9.39338 -0.279276
-1.77536 8.84936 -0.702736
-2.16188 6.25364 -0.851713
-1.51498 4.42851 1.93104
-1.43445 7.81636 -1.33484
-0.912444 7.33929 0.881173
0.76511 3.78885 -2.50849
1.7714 6.17005 -1.48152
2.27851 3.61252 0.628144
-1.65963 7.32308 -1.22447
-1.4639 4.05304 1.90074
1.70198 3.7598 1.81881
-2.28412 4.76045 -1.63756
1.71033 7.6266 0.32775
1.54311 7.58636 -0.37637
1.29064 6.56582 1.72441
0.293565 9.67027 -1.12622
-2.1193 5.22389 -1.40028
-0.840297 8.9637 0.926349
0.115483 8.79768 -1.20819
-0.428362 5.57624 2.13368
-1.66558 4.06355 -2.1974
-0.541217 7.85476 1.89185
1.67526 9.01128 -0.387563
0.91997 3.68271 2.08873
0.876044 8.16895 -0.723206
1.0445 7.43368 1.45831
2.0215 3.92613 -1.53095
-1.27896 4.50192 2.13115
-1.9412 4.59311 1.59278
-1.30674 4.11441 -2.36168
1.04614 3.96448 -2.35707
0.388872 4.9681 -2.6365
-0.872482 6.17172 -2.18783
1.93972 5.14947 -1.65406
-2.44389 4.23351 -1.04189
-1.87917 7.28034 -0.709557
1.50541 4.87411 1.78848
-2.26591 4.40758 1.26588
-0.806475 4.75102 -2.53514
0.995087 7.56951 1.82391
-2.21742 4.79604 -1.74689
0.683474 9.77011 -1.01933
2.31977 6.41592 -0.49182
0.190136 6.66546 2.18772
1.43214 7.28502 0.706748
-0.18124 5.8214 2.03753
-1.44873 5.08598 1.889
-1.03869 7.24548 0.905821
0.884049 7.43663 0.227614
1.17493 3.61688 -2.33245
-2.21115 4.15448 -1.76689
0.414973 8.21722 -0.88229
1.37447 7.81156 -0.515518
-2.56924 4.76456 0.572754
2.00396 4.24299 -1.62639
0.325498 8.34794 1.82696
-0.672751 6.21238 1.84842
-1.08524 6.5644 1.93969
1.71064 7.78967 0.34439
1.60354 7.67475 1.79303
1.6485 8.56433 -0.369536
-2.30985 4.09536 -1.35724
2.21034 5.29244 -1.08508
-0.992002 7.82436 1.11109
1.33074 7.7417 -0.585991
-2.55473 4.54318 -0.469772
-2.67969 8.09792 0.984161
-2.53836 8.03502 -0.196607
-1.3388 6.14586 1.50082
0.505632 7.31707 -0.716454
-1.88016 4.89705 -2.06396
-2.32526 6.54232 0.191313
0.285479 6.67531 2.17907
-1.23931 8.29921 1.0067
0.886745 4.49597 2.18164
1.17505 4.00901 -2.29692
-0.890624 4.4099 2.58645
-1.80774 8.93462 -0.656011
-2.52394 4.69661 0.191758
2.48405 4.29091 -0.426448
-0.57355 5.5224 -2.34834
-2.28748 3.84702 -1.17123
0.682421 9.07734 -1.09264
-0.369485 9.1019 1.18179
-0.620985 5.94213 -2.267
-0.448605 6.28404 1.91633
-2.30937 2.93118 1.19648
0.661251 7.69297 1.8774
1.12518 7.44081 0.93603
-2.36725 4.24805 1.00784
1.98868 6.10465 0.518707
1.53926 3.44267 1.97468
