-3.11346 6.07981 2.07289 0.763883 0.0118873 -0.645246
0.149406 5.11964 2.39812 0.607695 -0.0310476 0.793564
0.377826 7.48149 -2.93799 -0.364901 0.22327 -0.903879
-2.67825 4.33537 2.50171 -0.706835 -0.031493 0.706677
-3.5782 2.959 1.22319 -0.996232 -0.0747024 0.0440555
0.367059 4.76504 2.07172 -0.628017 0.0614451 -0.77577
-1.66616 6.63759 -1.1408 0.72385 -0.0448866 0.688496
3.08337 6.82717 -1.92602 -0.775291 -0.0452337 0.629983
1.87155 4.93998 0.685065 -0.7109 0.0412891 -0.70208
2.57152 2.95469 -2.56286 0.658424 -0.180549 -0.730671
1.90093 5.37213 0.834875 0.724503 -0.0146147 0.689117
-2.87051 7.40278 2.34998 0.676791 -0.0514338 -0.734376
0.488311 3.23399 1.95938 -0.656958 -0.0338373 -0.753168
-3.60195 8.03195 1.5042 -0.929718 0.278337 -0.241149
1.59356 3.06388 -3.49805 -0.203501 -0.0325538 0.978533
-0.911135 5.50216 -1.86251 0.686354 0.0147368 0.727118
3.12077 6.41623 -1.89801 -0.966532 -0.00276468 0.25653
-1.32385 7.40478 -1.4502 0.710084 -0.117019 0.694325
-2.16708 7.49501 3.08331 -0.256276 0.113889 0.959871
1.60104 5.59361 1.22087 -0.712684 0.0214755 -0.701157
0.0846456 6.15788 2.35013 -0.608287 -0.0419632 -0.792607
-0.942901 3.63057 -1.84423 0.688484 -0.0424851 0.724006
-0.24701 3.1374 -2.49941 -0.623793 -0.0303752 -0.780999
1.36669 6.65908 -3.49929 -0.117748 -0.0670871 0.990775
-1.64747 4.99064 -1.10517 -0.720803 -0.0096353 -0.693073
3.48973 5.95766 -1.48934 0.996295 0.00476886 0.0858736
-1.45451 6.63387 3.4742 0.0138533 0.012302 0.999828
0.409913 5.66076 2.24785 0.614772 0.0095145 0.788648
0.791729 6.44895 1.64755 -0.656593 -0.0779159 -0.75021
-2.72064 6.31286 2.48127 0.696749 0.00291009 -0.717309
0.629693 6.31717 -3.21738 -0.350794 0.0385527 -0.935659
-0.534038 5.70335 2.80236 0.50233 0.000500828 0.864676
0.647485 7.36989 1.82594 -0.670847 -0.0743878 -0.737855
3.40401 6.764 -1.54846 0.997775 0.0289843 0.0600358
-2.11493 6.84443 3.13341 -0.349926 0.0335784 0.936175
-1.35574 3.54494 3.37014 -0.0151719 -0.0813481 0.99657
-1.06392 4.11811 -1.67569 0.695736 -0.024145 0.717892
1.57431 3.36367 0.917495 -0.716575 -0.092203 -0.69139
-1.07254 8.35544 -1.39226 -0.700514 0.242377 -0.671218
-0.428333 6.10308 2.67662 -0.538723 -0.0412674 -0.841472
-0.759234 7.33302 -2.0085 -0.679154 0.097021 -0.727555
-0.623233 2.86863 -2.18163 0.667905 -0.0468983 0.742767
1.35898 4.80314 1.14067 0.700565 -0.0786251 0.709243
-1.86525 5.82078 -0.918751 0.724938 0.00981121 0.688744
2.1898 2.96463 -3.03265 -0.389406 0.292443 0.873407
3.51211 3.47063 -1.5059 0.999204 -0.0139642 -0.0373684
2.23051 4.15989 -3.00058 0.558218 0.0059445 -0.829673
-0.145424 5.59176 2.56392 -0.58024 -0.00711316 -0.814414
0.307791 6.59834 2.08786 -0.628801 -0.0783009 -0.773614
-0.560392 4.04676 2.76742 0.523785 -0.0243006 0.851504
2.47472 3.505 -2.71318 0.638094 -0.0648373 -0.767223
-1.19981 5.78709 -1.59826 0.695793 0.014865 0.718089
-1.44058 2.86535 3.28706 -0.108878 -0.0565294 0.992446
-1.32787 3.67497 -1.47666 0.704277 -0.0465375 0.708398
-0.630561 7.49273 2.85071 -0.372419 -0.174278 -0.911554
-0.646412 3.97595 -2.09316 0.682743 -0.0249614 0.730232
1.38643 5.92923 1.37231 0.69777 0.0217844 0.715991
-0.569659 6.78355 2.77171 -0.45779 -0.0852154 -0.884967
1.1802 4.03283 1.26284 -0.701242 0.035325 -0.712048
-1.40473 6.32089 -1.40975 0.70551 -0.00862858 0.708647
-2.47528 6.55557 2.78968 -0.563786 0.00362858 0.825913
-2.03279 5.1453 -0.710822 -0.730914 -0.0111311 -0.682379
-2.18834 5.5875 3.10718 0.422335 0.0117008 -0.906364
-3.80698 4.27079 1.09163 0.978819 0.0885572 0.184585
-0.538483 4.65417 -2.17642 0.680562 -0.00498412 0.732673
-1.71294 4.45128 3.3588 0.127456 0.024501 -0.991542
1.51038 4.1821 0.886128 0.726173 -0.0516343 0.68557
1.4049 4.37638 -3.63463 0.149172 0.0224571 -0.988556
-0.218459 4.15549 2.49503 0.606905 -0.0221315 0.794466
0.481337 4.31935 -3.13288 -0.463757 0.0216729 -0.885697
2.02306 5.29677 -3.14098 -0.482309 -0.0420455 0.874992
-3.42926 5.90163 1.69143 -0.782174 -0.0155035 0.622867
-1.73958 7.72813 3.37002 0.208814 -0.00373333 -0.977948
-3.12569 6.67289 2.06167 -0.761321 -0.00768662 0.648329
-1.5103 3.31146 -1.3252 -0.710075 0.0673692 -0.700896
-1.32347 4.74753 3.35315 -0.0374633 0.0194878 -0.999108
-1.49203 6.10362 3.43746 -0.107087 -0.00859872 0.994212
3.37905 7.82865 -1.51639 -0.953269 -0.30212 0.000909068
0.157217 3.82915 2.19194 -0.641798 0.00941252 -0.766816
1.17449 6.02957 -3.51731 0.00959704 -0.0498257 0.998712
-3.72674 6.88005 1.31587 0.996322 -0.0767809 0.0380417
-2.98229 8.06256 2.21563 0.654964 -0.219465 -0.723089
-2.4901 3.01158 2.6633 0.508796 0.196411 -0.838182
0.784959 7.36063 -3.27016 0.11907 -0.183979 0.975692
2.00885 5.95072 -3.16437 -0.459144 -0.0263007 0.887972
1.08521 4.36201 -3.61816 -0.0808477 0.014657 -0.996619
3.44836 4.4716 -1.58556 0.999321 -0.0296969 0.0217921
-3.74848 6.23718 1.25709 0.978732 -0.0623578 0.195434
-0.702222 6.42024 -2.08449 0.674812 -0.0110352 0.737907
-0.390343 4.15435 -2.29979 0.675239 -0.0152243 0.737442
0.787856 3.52503 1.69826 0.668285 0.0391109 0.742876
1.4327 3.67044 -3.63366 -0.140131 -0.00127203 0.990132
0.333599 7.07578 2.09441 -0.643783 -0.0669038 -0.762278
-1.54114 7.14566 -1.24534 0.719869 -0.0918498 0.688007
0.214051 4.24472 2.11306 -0.638731 0.0586306 -0.767193
1.67951 5.18471 1.03526 0.708397 -0.0450458 0.704375
-0.228308 7.30012 2.52672 -0.545611 -0.11045 -0.830729
-3.24869 4.94461 1.8656 0.778501 0.02367 -0.627197
-0.477623 5.4749 -2.2336 0.672473 0.00737063 0.740085
0.246141 7.98932 -2.76543 -0.336775 0.403832 -0.850589
-3.33868 4.18977 1.78118 0.792407 0.0475689 -0.608135
1.09031 4.83834 1.43706 0.682811 -0.109192 0.722389
1.90478 4.36313 0.487016 0.729301 -0.0310986 0.683486
-1.20762 5.30339 -1.57868 -0.697664 -0.0164825 -0.716236
2.60322 7.27567 -2.44005 -0.660654 -0.132853 0.738841
0.969003 7.58533 1.50511 -0.695933 -0.087472 -0.712759
-1.9051 3.80121 3.30596 0.295086 0.0416417 -0.954563
2.16745 7.08388 -2.90946 0.505745 0.0596461 -0.860618
0.517134 5.69575 -3.10691 0.471548 -0.024135 0.88151
3.53072 5.40982 -1.44042 0.992755 0.00466593 0.120063
-0.862399 5.87661 -1.91627 0.681913 0.0103535 0.73136
2.01989 3.71291 -3.16935 0.393125 -0.0512432 -0.918056
-1.24408 5.43088 3.28727 0.107888 -0.00514208 0.99415
-0.509227 2.87424 2.72012 0.368637 -0.0721303 0.926771
0.926427 6.09095 1.66808 0.658464 0.0545892 0.75063
0.53613 4.32281 1.84807 -0.655495 0.0725643 -0.751705
-1.80213 6.34467 3.39528 -0.170992 0.0152089 0.985155
0.944735 3.19318 1.55876 0.67138 0.084403 0.736291
-3.26499 7.65919 1.90441 -0.797506 0.0454679 0.601596
0.151046 2.97201 -2.83012 0.464956 0.107436 0.878791
0.928759 4.37433 1.48098 0.683562 -0.0972584 0.723383
-0.181844 3.80903 -2.52462 0.663737 -0.00936066 0.747908
-0.773221 5.71484 2.95129 0.401691 0.0137448 0.915672
-2.39685 5.69373 2.84873 0.577161 0.0110769 -0.816555
3.31372 2.82853 -1.6838 -0.973977 0.208904 0.0879073
0.7149 7.961 1.6642 0.696413 0.0538555 0.715618
-2.91852 4.01865 2.24999 0.749067 0.051651 -0.660478
-0.998823 4.88809 -1.76663 -0.693424 -0.00626749 -0.720503
0.740061 5.63864 1.99883 0.633468 -0.00449888 0.773756
0.297895 2.86917 2.10553 -0.634364 -0.0115758 -0.772948
0.140575 4.68846 -2.81947 0.618507 -0.0166992 0.785602
0.981175 7.00841 1.4866 -0.681502 -0.103174 -0.724507
-2.92058 4.53433 2.23988 0.755456 0.0298478 -0.654519
2.51303 4.9507 -2.62041 0.696698 0.0243327 -0.716952
-1.50843 5.45961 -1.27379 -0.710411 -0.0192068 -0.703525
-3.81559 5.02775 1.09797 -0.959628 -0.0352689 -0.279054
-0.537635 7.65883 -2.17377 0.662805 -0.140929 0.73541
0.298099 4.18865 -2.94979 -0.554448 0.0112914 -0.832142
-1.34439 4.91432 -1.41169 0.705647 0.0079607 0.708519
2.6532 6.42802 -2.41068 -0.749187 -0.0309184 0.661637
-0.759832 4.83825 2.9249 0.530216 -0.0208199 0.847607
2.85728 7.02414 -2.22936 0.662186 0.0539215 -0.747397
0.834622 5.86645 -3.31278 -0.350794 0.0385527 -0.935659
-1.6549 5.69288 -1.11994 -0.723065 -0.0174042 -0.690561
-1.88916 5.36322 3.23817 0.380023 0.0146284 -0.924861
0.362021 6.44318 -2.95545 0.582907 -0.00470342 0.812526
-1.70036 4.02764 -1.06381 -0.710075 0.0673692 -0.700896
0.284263 6.96594 -2.88252 0.611294 -0.0718758 0.788133
1.67909 3.60386 0.788641 0.741779 0.00903317 0.670583
1.74177 6.91606 -3.18176 0.50811 0.0240756 -0.860955
0.0555781 7.39017 -2.80748 0.670842 -0.182444 0.718808
-3.13733 5.7675 2.04632 0.727966 0.0114446 -0.685517
-1.00876 3.82212 3.03185 0.516332 -0.0190967 0.856176
1.89215 5.96627 0.646252 0.729689 0.0988524 0.676596
-0.127877 6.82608 -2.59239 0.676294 -0.0379578 0.735653
2.12751 4.98151 -3.02476 0.596384 0.0326224 -0.802036
2.79149 4.68423 -2.30466 0.744736 0.0289874 -0.66673
1.2085 7.63034 1.2498 0.717422 0.104911 0.688694
1.82546 7.78327 -2.99201 0.570303 0.179262 -0.801636
-0.525184 3.20128 -2.27201 0.679257 -0.0458515 0.732467
1.80765 4.53627 -3.29095 -0.374279 -0.0110272 0.92725
0.582582 7.90105 -2.94054 -0.336775 0.403832 -0.850589
-0.293096 5.29076 -2.42444 0.669127 0.00144313 0.743147
-2.60344 3.93182 2.55855 -0.706835 -0.031493 0.706677
-3.53272 7.66525 1.51483 0.974943 -0.164681 0.149552
-0.255692 3.563 -2.4609 0.682821 -0.0629009 0.727873
1.56272 6.63167 0.904308 0.729689 0.0988524 0.676596
-0.704638 6.02557 -2.05965 -0.693424 -0.00626749 -0.720503
1.46961 7.27892 0.976016 -0.725453 -0.0776284 -0.68388
0.0439896 5.48815 -2.74262 0.681667 0.0081616 0.731617
3.01061 5.2686 -0.421993 0.757416 6.40264e-05 0.652932
0.581847 6.46683 1.9268 0.639512 0.0512286 0.767072
-2.94011 3.49229 0.275601 -0.739195 0.0260471 -0.672987
-1.17994 4.3287 3.18733 -0.305352 0.0136025 -0.952142
2.83293 7.35007 -2.22742 0.662186 0.0539215 -0.747397
3.326 5.10699 -1.15558 -0.987 -0.00723116 0.160555
-0.908745 7.12296 3.0248 -0.619428 -0.0470987 -0.783639
0.6501 4.67874 -3.21245 -0.463757 0.0216729 -0.885697
0.558166 2.92586 1.95516 -0.697551 -0.151726 -0.700286
0.27569 5.4515 -2.94889 0.612522 -0.0291386 0.789917
-1.11214 3.77725 -1.64666 0.675239 -0.0152243 0.737442
-0.831227 4.70998 -1.89429 -0.70931 0.0243582 -0.704476
0.913998 5.78975 1.66897 0.700474 0.0951478 0.707307
1.14303 6.12788 1.45975 -0.681502 -0.103174 -0.724507
0.189013 5.46998 2.46975 -0.661725 0.0448525 -0.748404
-0.223643 4.46932 2.5799 0.6609 -0.0136748 0.750349
-0.483654 4.92004 2.76982 0.607434 -0.040059 0.793359
-0.115168 4.13492 -2.58287 0.646382 -0.00845555 0.762967
1.04084 6.70926 1.42661 0.68106 0.0727134 0.728609
-1.46435 4.34847 -1.28557 -0.723065 -0.0174042 -0.690561
1.52132 5.94767 1.08599 0.700764 0.0459394 0.711913
-3.27442 4.56983 1.82896 0.774954 0.0163089 -0.631807
-0.394689 7.64974 2.58126 0.558034 0.106449 0.822962
-0.0319544 3.49528 2.35972 -0.601492 0.011441 -0.798797
-2.99489 6.40967 0.266564 0.731636 -0.0145796 0.68154
-0.717242 5.5713 -2.01135 -0.676589 0.0002142 -0.736361
1.61616 4.83294 0.799072 -0.712802 -0.0276954 -0.700819
-1.94118 4.15855 3.19774 0.380023 0.0146284 -0.924861
-1.8429 3.69563 -0.921682 -0.739195 0.0260471 -0.672987
-0.627814 7.98797 2.75976 0.661766 0.0381182 0.748741
-2.96664 4.48516 0.352826 0.741497 -0.0145152 0.670799
3.23886 3.72463 -1.91598 -0.929507 0.338451 0.14652
-0.857185 8.21011 -1.69058 0.661814 -0.259566 0.703298
-2.50197 4.16268 2.67033 -0.706835 -0.031493 0.706677
-2.79576 3.63444 2.35294 -0.706835 -0.031493 0.706677
1.88456 4.15937 0.826363 0.724503 -0.0146147 0.689117
-2.91732 5.32454 0.233693 -0.730914 -0.0111311 -0.682379
1.6532 3.97616 -3.4553 -0.203501 -0.0325538 0.978533
-2.51204 3.24806 -0.232542 0.749826 -0.0561971 0.659245
0.704866 3.27256 1.76549 -0.634364 -0.0115758 -0.772948
1.07987 6.40081 -3.49788 0.00959704 -0.0498257 0.998712
2.69404 5.27913 -2.42273 -0.754137 -0.0166302 0.656506
-2.50531 5.82945 -0.215856 -0.730914 -0.0111311 -0.682379
2.93502 4.4908 -0.503398 -0.741059 0.00681958 -0.671406
-2.53462 4.851 -0.168498 -0.730914 -0.0111311 -0.682379
-2.35924 5.29201 -0.363543 -0.730914 -0.0111311 -0.682379
0.770655 3.99299 -3.29235 -0.463757 0.0216729 -0.885697
-0.570435 6.99688 -2.18255 0.660454 -0.0262095 0.750409
-2.73697 5.16376 2.45837 0.754724 0.0180271 -0.655794
-2.87014 6.00071 2.36177 0.774954 0.0163089 -0.631807
-0.597721 5.23412 2.82768 -0.538723 -0.0412674 -0.841472
2.09715 4.48775 0.322517 0.704932 -0.0946183 0.702936
-2.73413 3.35569 2.40216 -0.706835 -0.031493 0.706677
2.42127 3.95805 0.0582298 -0.741059 0.00681958 -0.671406
2.48894 8.00815 -2.46971 0.570303 0.179262 -0.801636
-3.3732 6.51777 1.79107 -0.739649 -0.00946868 0.672926
2.59033 5.84243 -2.52759 -0.754137 -0.0166302 0.656506
-2.64183 5.83062 2.61987 -0.761321 -0.00768662 0.648329
-0.112066 3.14893 2.4378 -0.634364 -0.0115758 -0.772948
-0.00150409 8.01414 -2.55436 0.624393 -0.209204 0.752573
-1.26331 6.0427 -1.54145 -0.697664 -0.0164825 -0.716236
-2.73684 4.65505 2.48723 -0.657571 -0.0113946 0.753307
-3.47034 4.95295 1.61623 -0.782174 -0.0155035 0.622867
0.492586 6.04559 -3.09872 0.498417 -0.0192337 0.866724
-1.83824 5.17898 -0.919755 -0.730914 -0.0111311 -0.682379
2.04682 7.34289 -3.04551 -0.710461 -0.148222 0.68795
-0.231522 6.47928 -2.52315 0.688892 -0.0240897 0.724464
0.0671415 7.76353 -2.65319 0.619581 -0.129046 0.774253
0.686705 5.02353 1.78971 0.678314 -0.0349281 0.733942
2.19387 6.0445 -2.85859 0.663576 0.0371252 -0.747187
-1.19761 7.70127 -1.51982 -0.69629 0.18843 -0.692585
3.07813 4.01767 -0.666162 -0.741059 0.00681958 -0.671406
-2.43942 6.20599 2.75399 0.696749 0.00291009 -0.717309
-1.33908 7.0961 -1.45478 0.72385 -0.0448866 0.688496
-0.651965 4.31446 -2.08076 0.688484 -0.0424851 0.724006
2.32303 5.18672 0.179144 -0.741059 0.00681958 -0.671406
-1.12381 5.89743 3.16431 -0.265875 -0.0361804 -0.963328
1.50065 5.17234 -3.47572 0.256796 0.0273452 -0.966079
0.937775 3.09101 -3.26879 0.223234 0.155421 0.962295
0.611772 4.01231 1.77875 -0.693929 -0.0951717 -0.713726
-2.93273 4.02741 0.305435 0.741497 -0.0145152 0.670799
-0.290303 3.46362 2.5538 -0.601492 0.011441 -0.798797
-2.48179 5.00813 2.71521 -0.657571 -0.0113946 0.753307
-2.41748 3.72437 -0.289457 -0.739195 0.0260471 -0.672987
-2.15415 6.03194 -0.595294 -0.730914 -0.0111311 -0.682379
-1.87492 6.12073 -0.900338 -0.723065 -0.0174042 -0.690561
0.273624 3.45334 2.052 -0.675649 -0.148168 -0.72218
0.026173 3.96609 2.42183 -0.548763 0.0710405 -0.832954
2.22459 6.35057 -2.83851 0.662186 0.0539215 -0.747397
-3.27421 3.29702 1.76924 -0.805369 -0.0707301 0.588539
0.394514 6.21195 2.32799 -0.45779 -0.0852154 -0.884967
-1.76548 7.10551 -1.03833 0.731636 -0.0145796 0.68154
-0.0346723 7.0174 2.3844 -0.622071 -0.0469583 -0.781551
2.21109 7.54271 -2.83281 -0.710461 -0.148222 0.68795
0.208821 3.79253 -2.89342 -0.667409 0.0145904 -0.744549
2.30551 4.27949 0.0608865 0.72015 -0.0720722 0.690065
-2.5337 7.522 2.7592 -0.432804 0.0978309 0.896164
2.71554 3.3514 -2.4616 -0.747395 0.00885275 0.664321
-1.17856 3.49089 -1.64452 0.67324 -0.028051 0.738891
1.59767 7.49175 -3.21926 0.570303 0.179262 -0.801636
-0.884137 2.965 -2.00052 -0.719266 0.088302 -0.6891
-2.22175 4.0451 -0.492034 -0.739195 0.0260471 -0.672987
0.459609 3.9793 -3.12982 -0.463757 0.0216729 -0.885697
-1.1883 6.52745 -1.57826 -0.676589 0.0002142 -0.736361
-1.47909 5.21698 3.31167 0.107888 -0.00514208 0.99415
-3.44109 5.86762 0.733958 0.731636 -0.0145796 0.68154
2.53567 4.63847 -2.61001 -0.75342 -0.0257908 0.657033
-3.05962 7.24914 2.14702 -0.774866 -0.0065157 0.632092
-1.6869 6.00488 -1.09429 -0.723065 -0.0174042 -0.690561
1.00116 4.74342 -3.39469 -0.463757 0.0216729 -0.885697
2.71035 3.9914 -2.46766 0.712252 0.0112637 -0.701834
-1.20096 2.83434 -1.63711 0.682821 -0.0629009 0.727873
2.95891 4.1207 -2.1717 0.770477 0.00917273 -0.637402
-0.303705 6.42773 2.67763 0.558034 0.106449 0.822962
-2.6496 6.88801 2.62329 -0.761321 -0.00768662 0.648329
-0.283749 4.43978 -2.40999 -0.676589 0.0002142 -0.736361
-2.53361 4.02842 -0.150134 -0.739195 0.0260471 -0.672987
0.931407 2.86598 1.54903 0.660682 0.0603332 0.748237
-2.30603 4.31993 2.87332 -0.706835 -0.031493 0.706677
1.78296 5.22741 -3.29269 -0.374279 -0.0110272 0.92725
0.310231 4.86029 -2.93961 0.651941 -0.00211394 0.758267
-0.915519 6.93941 -1.86246 0.676294 -0.0379578 0.735653
0.87741 7.27877 1.60423 -0.725453 -0.0776284 -0.68388
0.583269 8.31582 1.67267 0.661766 0.0381182 0.748741
-1.73391 2.90509 3.13796 0.275553 0.112052 -0.954733
-1.29183 3.21724 3.05811 0.368637 -0.0721303 0.926771
-0.471933 6.30254 -2.28001 -0.659329 0.00796138 -0.751812
-1.70212 4.64466 -1.04353 -0.720803 -0.0096353 -0.693073
0.0236722 7.49874 2.32259 -0.65717 -0.0871844 -0.748683
-0.0541645 4.85876 -2.62653 0.646382 -0.00845555 0.762967
-1.24092 7.20273 3.287 -0.61966 -0.0470865 -0.783457
-0.538394 3.70177 2.76073 -0.675649 -0.148168 -0.72218
0.191919 5.82618 2.41936 0.558034 0.106449 0.822962
0.0762795 4.38703 -2.78139 0.690698 -0.00999191 0.723074
-0.665873 3.1621 2.80483 0.368637 -0.0721303 0.926771
2.50751 3.87235 -2.95579 -0.766509 0.189469 0.613649
-0.263894 4.7338 2.62455 0.657334 -0.0880609 0.748436
-2.92645 5.36741 2.28116 0.763883 0.0118873 -0.645246
0.086148 4.30606 2.41473 0.607695 -0.0310476 0.793564
0.865487 7.07443 -3.23541 -0.364901 0.22327 -0.903879
-3.13817 3.86738 2.02084 -0.706835 -0.031493 0.706677
-2.89715 2.98636 0.183172 0.749826 -0.0561971 0.659245
0.261772 4.53375 2.28915 0.607695 -0.0310476 0.793564
-1.42682 6.58252 -1.35908 -0.676589 0.0002142 -0.736361
3.28062 5.65025 -1.76778 -0.775291 -0.0452337 0.629983
2.02018 5.26921 0.553928 -0.7109 0.0412891 -0.70208
2.03393 3.30384 -3.13357 0.658424 -0.180549 -0.730671
2.44277 4.69533 0.0419924 -0.741059 0.00681958 -0.671406
-2.76499 7.14534 2.49084 -0.761321 -0.00768662 0.648329
0.945403 4.42482 1.89175 0.675289 -0.00315011 0.737546
-3.43586 7.22355 0.757354 0.731636 -0.0145796 0.68154
1.77382 3.39268 -3.25685 0.393125 -0.0512432 -0.918056
-0.955144 5.19512 -1.81475 0.686354 0.0147368 0.727118
3.30166 5.84309 -1.22263 -0.966532 -0.00276468 0.25653
-1.16161 7.4795 -1.60353 0.710084 -0.117019 0.694325
-2.18889 6.54095 3.11923 0.422335 0.0117008 -0.906364
1.40626 5.60531 1.41921 -0.712684 0.0214755 -0.701157
-0.677229 6.39641 2.9222 -0.608287 -0.0419632 -0.792607
-0.885269 4.17016 -1.86737 0.688484 -0.0424851 0.724006
-0.0433025 3.05493 -2.65891 -0.623793 -0.0303752 -0.780999
1.38665 5.51822 -3.57417 -0.117748 -0.0670871 0.990775
-2.30439 4.73785 -0.373758 0.741497 -0.0145152 0.670799
3.14941 6.02941 -1.86743 -0.749187 -0.0309184 0.661637
-1.05874 6.70002 3.03275 -0.45779 -0.0852154 -0.884967
-0.162834 6.02657 2.54701 -0.608287 -0.0419632 -0.792607
0.0746542 7.21759 2.19531 -0.656593 -0.0779159 -0.75021
-2.93007 6.49285 2.27858 0.696749 0.00291009 -0.717309
0.915848 6.17186 -3.33065 -0.350794 0.0385527 -0.935659
-0.769185 6.03491 2.93878 0.50233 0.000500828 0.864676
0.501767 7.80685 1.91437 -0.670847 -0.0743878 -0.737855
3.3876 7.29621 -1.53266 0.997775 0.0289843 0.0600358
-1.89499 5.92215 3.2487 -0.349926 0.0335784 0.936175
-1.07628 3.49586 3.15599 -0.328118 0.0816974 -0.941097
-1.47525 5.11928 -1.29358 -0.723065 -0.0174042 -0.690561
1.15607 3.11529 1.33055 0.660682 0.0603332 0.748237
-0.555577 8.19121 -1.99109 -0.700514 0.242377 -0.671218
0.329126 5.22748 2.16231 0.683562 -0.0972584 0.723383
-0.865798 6.26389 -1.92074 0.686354 0.0147368 0.727118
-0.0707446 3.42319 -2.64342 0.667905 -0.0468983 0.742767
0.857251 5.50973 1.71459 0.700565 -0.0786251 0.709243
-2.38693 5.57273 -0.338465 -0.730914 -0.0111311 -0.682379
2.30089 3.238 -2.83519 0.638094 -0.0648373 -0.767223
3.38348 3.74334 -1.00598 -0.741059 0.00681958 -0.671406
2.37768 4.399 -2.80058 -0.75342 -0.0257908 0.657033
-0.763652 5.40497 3.00602 -0.58024 -0.00711316 -0.814414
0.300535 7.41759 2.01084 -0.628801 -0.0783009 -0.773614
-0.387937 3.8895 2.63342 -0.601492 0.011441 -0.798797
2.65868 3.62665 -2.52924 -0.747395 0.00885275 0.664321
-1.35315 5.62338 -1.43506 -0.710411 -0.0192068 -0.703525
-1.68173 4.11364 3.30364 0.380023 0.0146284 -0.924861
-1.3232 4.64964 -1.43872 -0.710411 -0.0192068 -0.703525
-1.33182 7.52522 3.131 -0.372419 -0.174278 -0.911554
-1.17651 4.99018 -1.60313 -0.723065 -0.0174042 -0.690561
0.68952 6.71192 1.82976 -0.65717 -0.0871844 -0.748683
-0.478825 7.21727 2.68296 -0.45779 -0.0852154 -0.884967
0.946334 3.44871 1.48886 0.660682 0.0603332 0.748237
-1.96792 5.58597 -0.787489 -0.730914 -0.0111311 -0.682379
-2.08804 7.14173 3.05144 -0.563786 0.00362858 0.825913
-2.724 5.50666 0.0236517 -0.730914 -0.0111311 -0.682379
-2.81808 6.62856 2.57475 -0.797506 0.0454679 0.601596
-3.33417 4.79809 0.688783 -0.730914 -0.0111311 -0.682379
-0.382293 3.89571 -2.32666 0.680562 -0.00498412 0.732673
-0.864152 4.57589 3.13316 0.657334 -0.0880609 0.748436
1.92754 4.0728 0.436031 0.726173 -0.0516343 0.68557
1.18931 4.02284 -3.64019 0.0710663 0.0368403 0.996791
0.721262 3.76516 1.74808 -0.716575 -0.0922029 -0.69139
0.406821 4.58978 -3.02341 0.651941 -0.00211394 0.758267
2.08528 5.66934 -2.97368 0.663576 0.0371252 -0.747187
-3.05455 5.81461 0.332685 0.727582 0.00789182 0.685975
-1.82699 6.82531 3.3548 0.208814 -0.00373333 -0.977948
-3.11861 6.37636 2.06646 -0.761321 -0.00768662 0.648329
-2.02138 3.28052 -0.78785 0.749826 -0.0561971 0.659245
-1.39047 5.69147 3.37407 -0.0374633 0.0194878 -0.999108
-1.2615 6.23193 3.18974 -0.265875 -0.0361804 -0.963328
3.15366 7.59324 -1.92571 0.662186 0.0539215 -0.747397
0.553944 3.51154 1.8786 0.67138 0.084403 0.736291
1.68158 6.55798 -3.23143 0.505745 0.0596461 -0.860618
-3.28536 6.19244 0.613755 -0.730914 -0.0111311 -0.682379
-3.02943 7.65578 2.18824 -0.774866 -0.0065157 0.632092
-2.10851 3.18261 2.93501 0.508796 0.196411 -0.838182
0.682755 7.63206 -3.10792 -0.336775 0.403832 -0.850589
2.40687 6.4853 -2.6673 0.662186 0.0539215 -0.747397
0.754839 5.40234 -3.24328 0.582907 -0.00470342 0.812526
3.3199 4.48002 -0.928318 -0.741059 0.00681958 -0.671406
-3.55383 6.21425 0.900964 -0.730914 -0.0111311 -0.682379
0.0484171 6.29701 -2.77143 0.674817 -0.0110846 0.737902
0.223425 5.16395 -2.85818 0.675172 -0.0145612 0.737516
1.26586 4.55717 1.52982 -0.712684 0.0214755 -0.701157
0.639139 3.35998 -3.21584 -0.623793 -0.0303752 -0.780999
-0.0645745 6.39327 2.49059 -0.643783 -0.0669038 -0.762278
-1.4861 6.86409 -1.30452 -0.676589 0.0002142 -0.736361
-0.148968 4.97302 2.47095 -0.638731 0.0586306 -0.767193
0.929522 4.7163 1.55343 -0.638731 0.0586306 -0.767193
-0.269005 6.86335 2.59775 0.558034 0.106449 0.822962
-3.02843 4.28933 2.11427 0.778501 0.02367 -0.627197
-0.58445 5.75031 -2.13927 0.672473 0.00737063 0.740085
-0.362247 7.46591 -2.34392 0.676294 -0.0379578 0.735653
-3.19503 4.11822 0.579828 -0.739195 0.0260471 -0.672987
0.764622 5.96253 1.8281 -0.643783 -0.0669038 -0.762278
2.59008 4.42252 -0.241515 0.729301 -0.0310986 0.683486
-0.395783 5.67359 -2.37799 -0.697664 -0.0164825 -0.716236
2.37429 7.17755 -2.6624 -0.660654 -0.132853 0.738841
0.852594 7.7745 1.59555 -0.695933 -0.087472 -0.712759
-1.631 3.66996 3.37615 -0.0151719 -0.0813481 0.99657
2.65601 6.95731 -2.44261 -0.775291 -0.0452337 0.629983
0.489762 4.83746 -3.11577 0.471548 -0.024135 0.88151
3.25152 5.17515 -1.61037 -0.987 -0.00723116 0.160555
-0.488979 5.23085 -2.24622 0.681729 0.0087135 0.731553
1.68745 3.69674 -3.3108 0.393125 -0.0512432 -0.918056
-0.989499 5.4181 3.16681 -0.58024 -0.00711316 -0.814414
-0.321333 2.84574 2.55522 -0.548763 0.0710405 -0.832954
0.16801 6.7935 2.28228 0.658464 0.0545892 0.75063
1.04346 5.13361 1.48394 -0.655495 0.0725643 -0.751705
-1.19028 6.9309 3.1868 -0.372419 -0.174278 -0.911554
1.39867 4.06713 1.11256 -0.7109 0.0412891 -0.70208
-3.44046 7.0693 1.69556 0.789135 0.0163032 -0.614003
0.0081114 3.77866 -2.71378 -0.667409 0.0145904 -0.744549
0.350766 4.05418 1.98411 0.683562 -0.0972584 0.723383
-0.293523 4.7412 -2.45614 -0.697664 -0.0164825 -0.716236
-1.23872 5.08321 3.16498 0.401691 0.0137448 0.915672
-2.56423 4.52477 2.62419 -0.706835 -0.031493 0.706677
2.94404 3.54056 -0.682652 0.72015 -0.0720722 0.690065
0.924894 8.02377 1.45512 0.696413 0.0538555 0.715618
-2.78597 4.92458 2.43987 -0.761321 -0.00768662 0.648329
-1.29266 4.3538 -1.47919 -0.693424 -0.00626749 -0.720503
1.42066 5.27163 1.17599 -0.741059 0.00681958 -0.671406
-0.534647 3.40481 2.78078 -0.634364 -0.0115758 -0.772948
0.341159 5.76735 -2.95446 0.618507 -0.0166992 0.785602
0.643393 7.62357 1.71673 -0.681502 -0.103174 -0.724507
-2.33557 5.31387 2.95066 0.755456 0.0298478 -0.654519
2.91755 5.3012 -2.21542 0.696698 0.0243327 -0.716952
-2.22863 4.97221 -0.452427 0.741497 -0.0145152 0.670799
-3.42235 5.42132 0.727318 0.727582 0.00789171 0.685975
-0.768561 7.60657 -1.96545 -0.693078 0.127189 -0.709553
0.812042 4.49897 -3.28801 -0.554448 0.0112914 -0.832142
-1.94158 4.47146 -0.783261 -0.739195 0.0260471 -0.672987
2.76576 6.72694 -2.33189 0.662186 0.0539215 -0.747397
-0.453775 5.43211 2.74804 0.530216 -0.0208199 0.847607
3.01443 7.15664 -2.02718 -0.812071 -0.0418316 0.582057
1.11721 5.69161 -3.42593 -0.350794 0.0385527 -0.935659
-1.07773 5.58376 -1.6894 0.672473 0.00737063 0.740085
-2.2202 4.76185 2.97887 -0.706835 -0.031493 0.706677
0.689268 6.60719 -3.18927 0.582907 -0.00470342 0.812526
-2.30506 3.50747 -0.445856 0.749826 -0.0561971 0.659245
0.0775146 5.77556 -2.73686 -0.667409 0.0145904 -0.744549
2.55247 3.6734 -0.0894704 -0.741059 0.00681958 -0.671406
1.50459 5.86122 -3.35123 0.50811 0.0240756 -0.860955
0.456745 7.23462 -3.03083 -0.364901 0.22327 -0.903879
-3.28533 5.83452 1.8705 -0.782174 -0.0155035 0.622867
-1.1034 4.07574 3.09458 0.516332 -0.0190967 0.856176
2.68744 5.91694 -0.204242 0.729689 0.0988524 0.676596
-0.239981 5.91255 -2.44977 -0.676589 0.0002142 -0.736361
1.96513 4.75876 -3.15456 0.596384 0.0326224 -0.802036
2.74801 4.9818 -2.36826 -0.754137 -0.0166302 0.656506
1.36044 6.45056 1.25444 -0.741059 0.00681958 -0.671406
2.56948 7.56016 -2.51259 0.570303 0.179262 -0.801636
-0.924835 3.9255 -1.85606 0.679257 -0.0458515 0.732467
2.31776 5.07965 -2.81662 0.744736 0.0289874 -0.66673
0.977468 7.5731 -3.25259 -0.336775 0.403832 -0.850589
-0.822313 4.97017 -1.94731 0.669127 0.00144313 0.743147
-2.41021 3.76366 2.74433 -0.706835 -0.031493 0.706677
-3.57914 6.95758 1.0382 0.974943 -0.164681 0.149552
1.11148 7.12876 1.31833 0.729689 0.0988524 0.676596
-0.557546 6.59431 -2.20616 -0.693424 -0.00626749 -0.720503
2.08919 6.59907 0.395941 -0.725453 -0.0776284 -0.68388
0.229158 6.69354 -2.93186 0.681715 0.00858316 0.731568
3.20176 4.87432 -0.643689 0.757416 6.40264e-05 0.652932
0.676032 6.21497 1.88076 -0.643783 -0.0669038 -0.762278
-3.36227 3.45269 0.737764 -0.739195 0.0260471 -0.672987
-0.776011 3.76208 2.89015 0.516332 -0.0190967 0.856176
2.90924 6.45593 -2.1103 -0.75342 -0.0257908 0.657033
3.45302 4.78734 -1.36913 0.999321 -0.0296969 0.0217921
-0.840177 6.57894 2.9797 0.50233 0.000500828 0.864676
0.0644738 4.13005 -2.75285 0.67324 -0.028051 0.738891
0.852836 3.69191 1.49566 -0.697551 -0.151726 -0.700286
-0.214505 5.5114 -2.4733 -0.676589 0.0002142 -0.736361
-1.00106 3.37148 -1.82639 -0.719266 0.088302 -0.6891
-0.486258 4.4229 -2.25155 -0.70931 0.0243582 -0.704476
0.910628 6.78556 1.66026 -0.695933 -0.087472 -0.712759
1.14085 5.86523 1.4992 -0.681502 -0.103174 -0.724507
0.519496 4.4954 2.11914 -0.661725 0.0448525 -0.748404
-0.0722254 5.31366 2.46192 0.6609 -0.0136748 0.750349
-0.513558 4.31107 2.76196 0.607434 -0.040059 0.793359
-0.754098 3.49768 -2.02555 -0.699502 0.0880057 -0.709191
1.07672 7.39675 1.32446 0.68106 0.0727134 0.728609
-1.33787 3.92036 -1.48306 0.67324 -0.028051 0.738891
1.91863 5.56723 0.629361 -0.741059 0.00681958 -0.671406
-3.34743 5.23582 1.7566 0.774954 0.0163089 -0.631807
-1.04118 7.69389 3.01392 0.558034 0.106449 0.822962
-2.43528 6.26519 -0.317244 -0.723065 -0.0174042 -0.690561
-0.0424161 6.08926 -2.63125 -0.676589 0.0002142 -0.736361
1.8569 4.66035 0.561035 -0.712802 -0.0276954 -0.700819
-2.34705 4.99403 2.95611 -0.761321 -0.00768662 0.648329
-1.5144 3.59339 -1.28645 -0.739195 0.0260471 -0.672987
-0.909871 7.45905 2.97126 -0.372419 -0.174278 -0.911554
-2.9551 4.90465 0.281012 -0.730914 -0.0111311 -0.682379
2.9619 3.32411 -2.30236 0.658424 -0.180549 -0.730671
-0.259844 7.74575 -2.42406 0.661814 -0.259566 0.703298
-2.42572 3.2857 2.70752 -0.706835 -0.031493 0.706677
2.17531 3.91678 0.329296 -0.741059 0.00681958 -0.671406
-2.59787 4.41621 -0.0936528 -0.730914 -0.0111311 -0.682379
1.57863 4.57443 -3.47191 0.256796 0.0273452 -0.966079
-2.72618 3.37018 0.0214333 0.749826 -0.0561971 0.659245
1.27297 3.55865 1.23849 0.741779 0.00903317 0.670583
1.3778 6.33751 -3.5039 0.00959704 -0.0498257 0.998712
2.79386 4.30086 -2.33285 -0.754137 -0.0166302 0.656506
-2.74199 6.11968 0.0329267 -0.730914 -0.0111311 -0.682379
2.6244 5.04284 0.0260352 0.757416 6.40264e-05 0.652932
-3.16823 5.17739 0.504856 -0.730914 -0.0111311 -0.682379
-2.41918 4.27029 -0.282674 -0.730914 -0.0111311 -0.682379
1.06417 5.16572 -3.41734 -0.463757 0.0216729 -0.885697
-2.68107 5.49739 2.53188 0.754724 0.0180271 -0.655794
-3.09431 4.84689 2.05703 0.774954 0.0163089 -0.631807
-0.755264 4.13051 2.98266 -0.538723 -0.0412674 -0.841472
2.72503 4.1176 -0.356971 0.704932 -0.0946183 0.702936
-2.79947 3.06763 2.32397 -0.706835 -0.031493 0.706677
2.59344 4.03763 -0.130989 -0.741059 0.00681958 -0.671406
2.82068 8.12059 -2.20856 0.570303 0.179262 -0.801636
-3.40108 6.79366 1.73885 0.789135 0.0163032 -0.614003
2.33506 5.75573 -2.74755 0.663576 0.0371252 -0.747187
-3.11726 5.20937 2.05422 -0.761321 -0.00768662 0.648329
0.134129 3.60182 2.22896 -0.634364 -0.0115758 -0.772948
0.211308 7.63436 -2.833 -0.364901 0.22327 -0.903879
-0.848275 6.60242 -1.9586 -0.697664 -0.0164825 -0.716236
-3.5316 5.71642 1.5425 0.789135 0.0163032 -0.614003
-2.63784 5.30007 -0.103331 0.727557 0.00790977 0.686001
1.88211 7.1289 -3.09298 0.50811 0.0240756 -0.860955
-0.725558 7.09066 -2.03305 0.688892 -0.0240897 0.724464
-0.223243 7.03329 -2.49037 -0.659329 0.00796138 -0.751812
0.527158 4.89427 1.93101 0.678314 -0.0349281 0.733942
1.79707 5.78174 -3.22405 0.663576 0.0371252 -0.747187
-0.945829 7.83058 -1.73777 -0.69629 0.18843 -0.692585
2.87995 4.96734 -0.437774 -0.741059 0.00681958 -0.671406
-2.28837 6.85056 2.90333 0.696749 0.00291009 -0.717309
-1.9299 6.46266 -0.842515 -0.730914 -0.0111311 -0.682379
2.5024 5.55186 -0.0151207 -0.741059 0.00681958 -0.671406
-1.07 4.85991 3.09193 0.516332 -0.0190967 0.856176
1.90387 6.36263 -3.33484 0.256796 0.0273452 -0.966079
0.682212 3.70646 -3.25306 -0.463757 0.0216729 -0.885697
1.10424 4.27361 1.31392 0.72015 -0.0720722 0.690065
-3.15178 3.7402 0.517699 -0.739195 0.0260471 -0.672987
-2.38327 5.92935 2.80741 0.696749 0.00291009 -0.717309
-2.74336 4.76941 0.0146869 0.727564 0.00790509 0.685994
-2.79481 6.62775 0.0812139 -0.730914 -0.0111311 -0.682379
-2.10015 5.42904 -0.647074 -0.723065 -0.0174042 -0.690561
0.233059 4.81148 2.35763 -0.548763 0.0710405 -0.832954
2.29544 6.76374 -2.74594 0.662186 0.0539215 -0.747397
-3.28096 3.93329 1.80451 0.774954 0.0163089 -0.631807
0.384084 5.93608 2.26466 0.614772 0.0095145 0.788648
-2.27785 6.86666 -0.476414 -0.730914 -0.0111311 -0.682379
0.135316 6.47376 2.27499 -0.621658 -0.0469803 -0.781878
1.86975 6.70253 -3.1122 0.50811 0.0240756 -0.860955
0.373788 3.39629 -3.04906 -0.667409 0.0145904 -0.744549
1.98568 3.60077 0.344327 -0.721727 -0.169477 -0.671109
-2.67547 7.46037 2.52569 0.676791 -0.0514338 -0.734376
2.27897 3.52315 -2.95506 -0.747395 0.00885275 0.664321
-1.34431 3.40116 -1.48474 -0.710075 0.0673692 -0.700896
1.51742 6.92396 -3.40331 0.570303 0.179262 -0.801636
-1.03489 3.09567 -1.82642 -0.719266 0.088302 -0.6891
-2.56013 3.51578 -0.155028 0.749826 -0.0561971 0.659245
-1.53617 6.17412 -1.25873 -0.676589 0.0002142 -0.736361
-1.40022 4.98171 3.3606 -0.0374633 0.0194878 -0.999108
-3.62754 4.77332 0.910708 0.731636 -0.0145796 0.68154
2.49489 5.39048 -2.62376 0.663576 0.0371252 -0.747187
-1.1536 6.83086 -1.67351 -0.723065 -0.0174042 -0.690561
0.111841 4.92644 -2.80012 0.681679 0.00826471 0.731605
2.67279 3.91609 -2.76285 -0.766509 0.189469 0.613649
-1.65409 3.20313 -1.14813 -0.739195 0.0260471 -0.672987
2.98164 4.84157 -2.09065 -0.75342 -0.0257908 0.657033
-0.295419 5.80891 2.67081 -0.572388 0.019399 -0.819754
-3.04532 6.97865 2.15967 -0.761321 -0.00768662 0.648329
-0.203806 5.08365 -2.48325 -0.676589 0.0002142 -0.736361
-2.72959 4.02784 0.080892 0.741497 -0.0145152 0.670799
1.7774 3.26936 0.761906 -0.741059 0.00681958 -0.671406
-2.83571 4.25425 2.3406 -0.706835 -0.031493 0.706677
1.74311 6.07082 -3.2046 0.50811 0.0240756 -0.860955
0.33107 6.17093 -2.95387 0.651941 -0.00211394 0.758267
-0.956552 7.24656 -1.80889 0.676294 -0.0379578 0.735653
-0.306257 7.92444 2.4788 0.661766 0.0381182 0.748741
-1.53852 3.22758 3.2322 0.275553 0.112052 -0.954733
-1.25078 3.77589 3.08526 0.368637 -0.0721303 0.926771
-0.422039 6.88429 -2.31761 -0.659329 0.00796138 -0.751812
-1.60461 5.28043 -1.15377 -0.720803 -0.0096353 -0.693073
0.481456 6.79569 2.00263 -0.65717 -0.0871844 -0.748683
-0.789723 6.81391 2.96032 -0.620033 -0.0470667 -0.783162
0.324653 4.06273 2.45856 0.675289 -0.00315011 0.737546
1.03636 5.38281 1.55679 -0.7109 0.0412891 -0.70208
2.26616 3.79231 -3.06832 0.393125 -0.0512432 -0.918056
0.462484 5.42777 2.06824 0.657334 -0.0880609 0.748436
-3.13083 4.53011 2.02377 0.763883 0.0118873 -0.645246
0.759008 6.84096 -3.23795 0.582907 -0.00470342 0.812526
-3.06025 3.60128 2.08035 0.742528 0.143708 -0.654217
-3.30385 2.97764 0.645004 0.749826 -0.0561971 0.659245
-2.22432 6.49636 -0.558799 0.731636 -0.0145796 0.68154
3.02128 6.18848 -2.04829 -0.775291 -0.0452337 0.629983
2.90363 5.6048 -0.32088 -0.7109 0.0412891 -0.70208
2.4151 4.14335 -2.77192 -0.754137 -0.0166302 0.656506
2.56227 5.30616 -0.0836964 -0.741059 0.00681958 -0.671406
-3.11514 6.92565 0.419468 -0.730914 -0.0111311 -0.682379
-0.540003 4.89003 -2.20043 0.686354 0.0147368 0.727118
3.27061 5.55586 -0.72363 0.757416 6.40264e-05 0.652932
-1.99779 7.05332 -0.779435 -0.730914 -0.0111311 -0.682379
-2.04184 6.23155 3.18376 0.422335 0.0117008 -0.906364
1.8231 5.60009 0.955507 0.757416 6.40264e-05 0.652932
-0.66187 7.19165 2.83041 0.661766 0.0381182 0.748741
2.18246 5.41077 -2.92603 0.696698 0.0243327 -0.716952
-2.71961 5.8316 0.0136581 -0.730914 -0.0111311 -0.682379
2.91781 6.34618 -0.454342 -0.725453 -0.0776284 -0.68388
-0.960746 5.63809 3.08432 -0.45779 -0.0852154 -0.884967
0.500828 5.81924 2.04866 -0.608287 -0.0419632 -0.792607
1.11922 7.00434 -3.3726 -0.350794 0.0385527 -0.935659
-0.771426 5.08201 2.94635 -0.538723 -0.0412674 -0.841472
0.571298 8.06452 1.82518 -0.670847 -0.0743878 -0.737855
2.85551 6.96017 -0.457954 -0.725453 -0.0776284 -0.68388
-1.90251 4.86192 3.28392 -0.349926 0.0335784 0.936175
-1.00355 3.25858 3.14378 0.157625 -0.12879 0.979065
-1.98344 4.1829 -0.754087 0.749826 -0.0561971 0.659245
1.02121 3.91777 1.41607 -0.638731 0.0586306 -0.767193
-0.407705 8.11694 -2.17224 -0.700514 0.242377 -0.671218
0.346255 4.99652 2.11507 0.683562 -0.0972584 0.723383
-1.03788 6.39543 -1.76098 0.686354 0.0147368 0.727118
-0.737408 3.77679 -2.02102 -0.70931 0.0243582 -0.704476
0.702564 5.36464 1.8513 0.700565 -0.0786251 0.709243
-3.09439 5.53825 0.419872 -0.730914 -0.0111311 -0.682379
2.51759 3.29375 -2.65967 0.638094 -0.0648373 -0.767223
3.4312 4.10702 -1.29544 0.999321 -0.0296969 0.0217921
-0.414165 6.61483 2.72833 0.558034 0.106449 0.822962
2.17325 4.39839 -3.08566 -0.747395 0.00885275 0.664321
-2.09216 3.93659 3.07016 -0.706835 -0.031493 0.706677
-1.04332 5.86964 -1.75464 -0.710411 -0.0192068 -0.703525
-0.79241 7.73729 2.87008 -0.372419 -0.174278 -0.911554
-0.666394 5.3589 -2.09854 0.651941 -0.00211394 0.758267
1.02244 6.31852 1.58334 -0.65717 -0.0871844 -0.748683
-0.434164 7.434 2.63593 0.558034 0.106449 0.822962
1.11386 3.37501 1.34688 0.660682 0.0603332 0.748237
-2.81419 5.17997 0.0462753 0.731636 -0.0145796 0.68154
-1.89442 7.4348 3.18233 -0.563786 0.00362858 0.825913
-2.89876 5.66053 0.169226 0.727567 0.0079029 0.685991
-3.01371 5.59988 2.17533 0.774954 0.0163089 -0.631807
-3.36685 5.10988 0.718703 -0.730914 -0.0111311 -0.682379
1.42559 4.39476 0.991955 0.726173 -0.0516343 0.68557
1.00655 4.00667 -3.41553 -0.463757 0.0216729 -0.885697
1.24682 3.80358 1.19825 -0.716575 -0.0922029 -0.69139
0.693573 4.29884 -3.24451 -0.463757 0.0216729 -0.885697
2.57923 5.61706 -2.52165 -0.75342 -0.0257908 0.657033
-2.90707 5.96705 0.17451 0.727567 0.00790297 0.685991
-1.81698 6.58521 3.38899 -0.170992 0.0152089 0.985155
-2.21246 3.77482 -0.528384 0.749826 -0.0561971 0.659245
-1.00776 6.13343 3.07732 0.50233 0.000500828 0.864676
3.25388 6.35022 -1.54293 -0.987 -0.00723116 0.160555
2.05383 6.87082 -2.99099 0.505745 0.0596461 -0.860618
-3.36041 6.708 0.685738 -0.730914 -0.0111311 -0.682379
-2.84845 7.80054 2.41159 -0.774866 -0.0065157 0.632092
-0.163177 7.28836 -2.53609 0.676294 -0.0379578 0.735653
2.92894 5.83835 -2.25142 0.662186 0.0539215 -0.747397
0.798271 5.63437 -3.2731 0.582907 -0.00470342 0.812526
3.44124 4.47411 -1.25569 0.999321 -0.0296969 0.0217921
-3.67784 5.85901 1.03959 -0.730914 -0.0111311 -0.682379
1.05312 4.95883 1.75836 -0.712684 0.0214755 -0.701157
0.399772 3.16622 -3.01712 -0.623793 -0.0303752 -0.780999
1.40541 5.04512 1.18236 -0.638731 0.0586306 -0.767193
-0.251655 7.08116 2.55781 0.558034 0.106449 0.822962
-3.09207 4.07797 2.07632 -0.706835 -0.031493 0.706677
-0.565048 7.40008 -2.18082 -0.679154 0.097021 -0.727555
-3.44804 4.4465 0.711025 0.731636 -0.0145796 0.68154
1.33149 6.22114 1.31244 0.706993 0.044051 0.705847
2.71302 4.69587 -0.360258 0.729301 -0.0310986 0.683486
-0.13176 5.30014 -2.5781 0.681693 0.00839201 0.73159
2.3599 7.45702 -2.62501 -0.660654 -0.132853 0.738841
0.0793499 7.87933 2.14028 0.661766 0.0381182 0.748741
-1.51622 4.32615 3.35216 -0.0374633 0.0194878 -0.999108
3.25854 4.82271 -1.5831 -0.987 -0.00723116 0.160555
1.28794 3.37669 -3.39616 0.223234 0.155421 0.962295
-0.377118 4.13852 2.66831 0.530216 -0.0208199 0.847607
-1.10955 7.31357 3.10947 0.558034 0.106449 0.822962
1.58872 3.95555 0.883867 0.741779 0.00903317 0.670583
-3.49663 6.19421 1.60012 0.789135 0.0163032 -0.614003
0.0685174 3.54346 -2.77253 -0.667409 0.0145904 -0.744549
2.3639 3.24514 0.0273834 -0.721727 -0.169477 -0.671109
-2.63609 4.82408 2.61468 -0.761321 -0.00768662 0.648329
2.17659 5.27047 0.341625 -0.741059 0.00681958 -0.671406
-2.62853 6.0566 2.60309 -0.739649 -0.00946868 0.672926
3.15566 5.24066 -1.98609 0.696698 0.0243327 -0.716952
-2.08444 4.72182 -0.617238 0.741497 -0.0145152 0.670799
-3.53868 5.64034 0.894105 -0.730914 -0.0111311 -0.682379
-2.51028 5.1429 -0.236806 0.727558 0.0079097 0.686001
2.92266 6.77694 -2.12741 -0.775291 -0.0452337 0.629983
-0.0501768 5.82284 2.50517 0.530216 -0.0208199 0.847607
3.16917 6.5799 -0.820632 0.729689 0.0988524 0.676596
0.721704 6.06754 -3.21566 0.582907 -0.00470342 0.812526
-1.02574 4.34005 -1.72426 0.672473 0.00737063 0.740085
-2.82264 4.30888 0.148852 -0.730914 -0.0111311 -0.682379
2.78797 3.60661 -0.350078 -0.741059 0.00681958 -0.671406
1.42125 6.09842 -3.39378 0.50811 0.0240756 -0.860955
2.39898 6.25915 0.105904 -0.725453 -0.0776284 -0.68388
1.68961 4.21409 -3.38159 0.596384 0.0326224 -0.802036
2.0211 6.18378 0.522526 -0.741059 0.00681958 -0.671406
2.64647 6.11738 -2.40433 0.744736 0.0289874 -0.66673
1.17491 7.40913 -3.40862 -0.336775 0.403832 -0.850589
-2.06431 3.49161 3.07819 -0.706835 -0.031493 0.706677
-2.81895 7.00499 0.100921 -0.730914 -0.0111311 -0.682379
1.99705 7.04592 0.442963 -0.725453 -0.0776284 -0.68388
2.61569 6.58766 -0.224855 0.729689 0.0988524 0.676596
3.04233 5.91871 -0.53791 -0.725453 -0.0776284 -0.68388
0.507417 7.22827 1.93423 -0.643783 -0.0669038 -0.762278
-3.52983 4.1137 0.791703 0.731636 -0.0145796 0.68154
3.42729 3.80663 -1.52551 0.999321 -0.0296969 0.0217921
-0.492924 6.30276 2.77813 0.50233 0.000500828 0.864676
-1.65356 3.43954 -1.1366 -0.719266 0.088302 -0.6891
1.51058 4.97069 0.945314 0.726173 -0.0516343 0.68557
-1.5215 4.11679 -1.19181 -0.699502 0.0880057 -0.709191
1.75148 6.82941 0.728034 -0.725453 -0.0776284 -0.68388
2.3002 5.74211 0.209988 -0.741059 0.00681958 -0.671406
-3.29358 6.16566 1.84666 0.774954 0.0163089 -0.631807
-2.26554 7.96327 2.89498 0.654964 -0.219465 -0.723089
-3.155 6.57084 0.428648 -0.723065 -0.0174042 -0.690561
-2.19939 3.28965 -0.545826 -0.739195 0.0260471 -0.672987
-3.26474 4.50962 0.515603 0.731636 -0.0145796 0.68154
3.18089 3.06451 -2.04088 0.658424 -0.180549 -0.730671
2.16082 4.20204 0.348185 -0.741059 0.00681958 -0.671406
-2.7331 3.7002 0.057431 0.749826 -0.0561971 0.659245
-2.95701 3.74407 0.303908 -0.739195 0.0260471 -0.672987
1.42122 3.46113 1.07581 0.741779 0.00903317 0.670583
2.93617 4.39683 -2.16694 -0.754137 -0.0166302 0.656506
-2.86033 6.2648 0.157318 -0.730914 -0.0111311 -0.682379
2.18269 5.93556 0.372079 -0.725453 -0.0776284 -0.68388
-2.3554 4.50394 -0.322436 0.741497 -0.0145152 0.670799
0.562448 5.04727 -3.15754 -0.463757 0.0216729 -0.885697
2.19727 3.52025 0.137106 -0.721727 -0.169477 -0.671109
-3.03698 2.98412 2.08268 -0.706835 -0.031493 0.706677
3.14114 3.75332 -0.73839 -0.741059 0.00681958 -0.671406
2.05107 7.97292 -2.7891 0.570303 0.179262 -0.801636
2.35489 4.81032 -2.77691 0.663576 0.0371252 -0.747187
0.743672 4.2028 1.6819 0.700565 -0.0786251 0.709243
-3.42754 4.7047 1.64938 0.789135 0.0163032 -0.614003
-2.58009 5.56466 -0.167627 0.727557 0.00791044 0.686002
1.6163 7.16833 -3.24875 0.50811 0.0240756 -0.860955
1.91391 5.53959 -3.18948 -0.482309 -0.0420455 0.874992
3.27265 6.1305 -0.859398 -0.741059 0.00681958 -0.671406
-2.09198 5.85625 3.09006 0.696749 0.00291009 -0.717309
-2.68269 6.84311 -0.0423968 -0.730914 -0.0111311 -0.682379
2.85153 6.06801 -0.403278 0.729689 0.0988524 0.676596
1.7534 4.48648 0.658689 0.72015 -0.0720722 0.690065
-3.37567 3.92764 0.622228 0.731636 -0.0145796 0.68154
-2.89252 6.2235 2.31395 0.696749 0.00291009 -0.717309
-2.77259 4.5393 0.0914869 -0.730914 -0.0111311 -0.682379
-2.51574 6.56218 -0.244547 0.731636 -0.0145796 0.68154
-3.06991 7.26345 0.365512 -0.730914 -0.0111311 -0.682379
2.78607 3.87858 -0.586594 -0.721727 -0.169477 -0.671109
-2.52151 7.27707 2.68042 0.676791 -0.0514338 -0.734376
2.11877 6.27292 -3.02391 -0.75342 -0.0257908 0.657033
-1.56005 3.04982 -1.28415 -0.719266 0.088302 -0.6891
-3.13533 3.24235 0.475904 0.749826 -0.0561971 0.659245
-1.92915 5.3387 -0.775539 0.741497 -0.0145152 0.670799
-1.6651 5.45361 3.35144 -0.349926 0.0335784 0.936175
-3.66557 5.31642 0.963149 0.731636 -0.0145796 0.68154
-0.724223 4.52138 -2.01678 0.681685 0.00831815 0.731599
3.11145 3.84618 -2.19334 -0.766509 0.189469 0.613649
3.21114 4.65645 -1.83474 -0.75342 -0.0257908 0.657033
-0.679436 4.80624 -2.04631 -0.676589 0.0002142 -0.736361
-3.1409 4.83399 0.481183 -0.730914 -0.0111311 -0.682379
1.46861 3.1925 1.04835 0.660682 0.0603332 0.748237
-2.91189 3.79565 2.24396 -0.706835 -0.031493 0.706677
-1.58559 3.44434 3.35843 -0.0151719 -0.0813481 0.99657
-2.19458 5.2304 -0.539499 -0.720803 -0.0096353 -0.693073
-0.247841 7.52539 2.44748 0.661766 0.0381182 0.748741
2.09762 3.98889 -3.15147 0.393125 -0.0512432 -0.918056
0.287286 5.45403 2.2252 0.657334 -0.0880609 0.748436
-3.16758 3.44908 1.9251 0.742528 0.143708 -0.654217
-2.55493 2.96061 -0.208262 0.749826 -0.0561971 0.659245
-2.02353 5.83779 -0.732039 -0.730914 -0.0111311 -0.682379
3.09279 5.58033 -0.517361 0.757416 6.40264e-05 0.652932
2.7474 5.28774 -0.288218 -0.741059 0.00681958 -0.671406
-2.37905 7.2059 -0.352753 0.728722 -0.131884 0.671991
-1.13483 4.76716 -1.63522 -0.720803 -0.0096353 -0.693073
3.4897 6.69227 -0.977886 0.757416 6.40264e-05 0.652932
-2.19251 7.13035 -0.569867 0.728722 -0.131884 0.671991
2.58085 5.8653 0.0764798 0.757416 6.40264e-05 0.652932
-3.26073 5.66769 0.595934 -0.730914 -0.0111311 -0.682379
2.25977 6.68357 0.205401 -0.725453 -0.0776284 -0.68388
0.293332 7.97009 1.94653 0.661766 0.0381182 0.748741
3.23867 7.14073 -0.884902 -0.725453 -0.0776284 -0.68388
-1.9012 5.11308 3.2754 -0.349926 0.0335784 0.936175
-1.81512 4.93799 -0.933148 -0.723065 -0.0174042 -0.690561
0.98649 4.145 1.46234 -0.638731 0.0586306 -0.767193
-0.47932 7.89019 -2.17938 -0.700514 0.242377 -0.671218
-2.64401 6.33429 -0.0755218 -0.730914 -0.0111311 -0.682379
2.73523 3.11806 -2.43845 -0.766509 0.189469 0.613649
3.31449 4.06179 -0.926596 -0.741059 0.00681958 -0.671406
2.63865 4.44579 -2.55415 0.770477 0.00917273 -0.637402
-2.13309 5.2391 3.08727 -0.706835 -0.031493 0.706677
-0.600543 7.69218 2.71535 0.558034 0.106449 0.822962
1.84881 6.09816 0.883641 -0.65717 -0.0871844 -0.748683
-2.65463 5.01579 -0.042644 -0.730914 -0.0111311 -0.682379
-2.27769 7.691 2.90786 0.483673 -0.217149 -0.847884
-3.21654 5.93754 0.544201 -0.730914 -0.0111311 -0.682379
-3.03669 4.24018 0.379245 -0.730914 -0.0111311 -0.682379
2.63674 4.80396 -2.48763 -0.75342 -0.0257908 0.657033
-3.08681 6.07989 0.402916 -0.730914 -0.0111311 -0.682379
-1.55404 7.06474 3.30983 -0.372419 -0.174278 -0.911554
-2.58178 3.75922 -0.109645 0.749826 -0.0561971 0.659245
3.21782 6.97183 -1.73661 -0.987 -0.00723116 0.160555
-3.39794 6.96578 0.72173 -0.730914 -0.0111311 -0.682379
-3.28993 7.34028 1.86564 -0.774866 -0.0065157 0.632092
3.00809 5.9326 -2.03197 -0.749187 -0.0309184 0.661637
3.43145 4.26636 -1.08998 0.999321 -0.0296969 0.0217921
-3.55665 6.54128 0.898654 -0.730914 -0.0111311 -0.682379
1.4945 4.73411 0.960034 0.704932 -0.0946183 0.702936
0.860677 3.41563 -3.39495 -0.623793 -0.0303752 -0.780999
1.24586 4.94191 1.30731 -0.638731 0.0586306 -0.767193
-3.17433 4.32409 1.94538 0.774954 0.0163089 -0.631807
1.74634 5.06903 0.814473 -0.741059 0.00681958 -0.671406
2.95294 4.22436 -0.525889 -0.741059 0.00681958 -0.671406
2.60394 7.7931 -2.43598 0.570303 0.179262 -0.801636
0.444008 7.57707 1.83337 0.661766 0.0381182 0.748741
-1.72433 4.72112 3.35557 -0.349926 0.0335784 0.936175
3.27275 4.14584 -1.52619 -0.987 -0.00723116 0.160555
0.887789 4.21373 -3.34829 -0.463757 0.0216729 -0.885697
-1.21885 6.50847 3.28773 0.558034 0.106449 0.822962
-3.61935 4.93514 1.40897 0.789135 0.0163032 -0.614003
2.13885 3.33737 0.326666 0.733444 0.0902121 0.673737
2.23044 4.77604 0.19109 0.72015 -0.0720722 0.690065
3.20956 5.44495 -1.86997 -0.775291 -0.0452337 0.629983
-2.40074 6.00471 -0.362903 0.727547 0.00791704 0.686012
2.66737 6.25657 -0.232214 0.729689 0.0988524 0.676596
-2.06659 3.99206 -0.65581 -0.730914 -0.0111311 -0.682379
2.47261 3.47191 -0.00336973 -0.741059 0.00681958 -0.671406
2.49523 6.42177 -0.0707023 0.729689 0.0988524 0.676596
1.46844 4.12005 -3.54987 0.596384 0.0326224 -0.802036
1.36907 7.07247 1.09446 0.696413 0.0538555 0.715618
-2.60294 7.10616 -0.129544 0.728722 -0.131884 0.671991
1.71247 7.35955 0.709241 -0.725453 -0.0776284 -0.68388
2.18043 6.33589 0.281344 0.729689 0.0988524 0.676596
3.09357 6.24766 -0.690562 0.729689 0.0988524 0.676596
-3.67191 3.89636 0.93958 0.731636 -0.0145796 0.68154
3.11216 4.55532 -0.698258 -0.741059 0.00681958 -0.671406
-1.34042 3.12469 -1.48118 0.682821 -0.0629009 0.727873
2.25956 5.4459 0.187758 0.726173 -0.0516343 0.68557
-1.33055 5.13004 -1.48375 0.690417 0.0039821 0.723401
2.44646 6.70278 -0.0591599 0.729689 0.0988524 0.676596
2.6594 5.66156 -0.187296 -0.741059 0.00681958 -0.671406
-3.37763 5.5594 1.72791 0.774954 0.0163089 -0.631807
-2.4606 6.83817 -0.305181 -0.723065 -0.0174042 -0.690561
-2.74908 3.13355 0.051899 -0.739195 0.0260471 -0.672987
-3.52226 3.73632 0.775507 0.731636 -0.0145796 0.68154
3.07155 3.22507 -0.728574 -0.721727 -0.169477 -0.671109
2.68104 4.87927 -0.219133 -0.741059 0.00681958 -0.671406
-2.10627 6.83457 -0.659675 -0.730914 -0.0111311 -0.682379
3.13407 4.31416 -0.724899 -0.741059 0.00681958 -0.671406
2.11706 7.75341 -2.79124 0.570303 0.179262 -0.801636
3.43672 5.45824 -1.04732 -0.741059 0.00681958 -0.671406
-1.95581 4.59173 3.2172 0.696749 0.00291009 -0.717309
-1.81765 6.89097 -0.969741 -0.730914 -0.0111311 -0.682379
3.08772 5.274 -0.663983 -0.741059 0.00681958 -0.671406
-1.8621 7.48232 -0.883521 -0.700514 0.242377 -0.671218
-3.25292 7.2435 0.561397 0.731636 -0.0145796 0.68154
3.04457 4.72946 -0.46134 0.757416 6.40264e-05 0.652932
-2.32155 7.38431 2.85718 0.676791 -0.0514338 -0.734376
1.97955 4.98745 -3.23402 -0.75342 -0.0257908 0.657033
-2.35958 3.14698 -0.414572 0.749826 -0.0561971 0.659245
-3.14245 3.49123 0.497811 -0.739195 0.0260471 -0.672987
3.01705 3.58999 -2.23214 -0.766509 0.189469 0.613649
3.23421 4.36884 -1.81958 -0.75342 -0.0257908 0.657033
1.61253 3.06791 0.880185 -0.721727 -0.169477 -0.671109
-1.48842 4.56811 3.35584 -0.0374633 0.0194878 -0.999108
-1.53897 4.82067 -1.21564 -0.720803 -0.0096353 -0.693073
-0.471884 6.96036 2.67426 0.661766 0.0381182 0.748741
