0.542774 6.22082 -3.07819
0.542774 6.20821 -3.07819
0.542774 6.19559 -3.07819
0.542774 6.18297 -3.07819
0.542774 6.17035 -3.07819
0.538737 6.1615 -3.05529
0.542774 6.14511 -3.07819
0.542774 6.1325 -3.07819
0.542774 6.11988 -3.07819
0.546807 6.10353 -3.10106
0.546807 6.09092 -3.10106
0.546807 6.07831 -3.10106
0.542774 6.06941 -3.07819
0.546807 6.05309 -3.10106
0.546807 6.04048 -3.10106
0.546807 6.02787 -3.10106
0.546807 6.01525 -3.10106
0.566894 5.98438 -3.21498
0.546807 5.99003 -3.10106
0.546807 5.97742 -3.10106
0.546807 5.96481 -3.10106
0.554857 5.94494 -3.14671
0.554857 5.93235 -3.14671
0.554857 5.91975 -3.14671
0.546807 5.91437 -3.10106
0.542774 5.90537 -3.07819
0.542774 5.89275 -3.07819
0.558874 5.8658 -3.16949
0.558874 5.85321 -3.16949
0.554857 5.84418 -3.14671
0.538737 5.84585 -3.05529
0.538737 5.83322 -3.05529
0.538737 5.8206 -3.05529
0.554857 5.7938 -3.14671
0.558874 5.77768 -3.16949
0.562887 5.76159 -3.19225
0.554857 5.75601 -3.14671
0.546807 5.75043 -3.10106
0.550834 5.73432 -3.1239
0.550834 5.72172 -3.1239
0.550834 5.70911 -3.1239
0.558874 5.68957 -3.16949
0.558874 5.67698 -3.16949
0.558874 5.66439 -3.16949
0.558874 5.65181 -3.16949
0.558874 5.63922 -3.16949
0.554857 5.63006 -3.14671
0.554857 5.61747 -3.14671
0.554857 5.60487 -3.14671
0.554857 5.59228 -3.14671
0.538737 5.59333 -3.05529
0.534694 5.58412 -3.03236
0.518471 5.58518 -2.94036
0.502167 5.58625 -2.84789
0.522535 5.55643 -2.9634
0.522535 5.54377 -2.9634
0.526593 5.52772 -2.98642
0.522535 5.51846 -2.9634
0.522535 5.5058 -2.9634
0.526593 5.48978 -2.98642
0.522535 5.48049 -2.9634
0.522535 5.46783 -2.9634
0.522535 5.45518 -2.9634
0.526593 5.43918 -2.98642
0.526593 5.42653 -2.98642
0.562887 5.38419 -3.19225
0.562887 5.37161 -3.19225
0.562887 5.35903 -3.19225
0.562887 5.34645 -3.19225
0.554857 5.34037 -3.14671
0.558874 5.32453 -3.16949
0.558874 5.31194 -3.16949
0.554857 5.30259 -3.14671
0.550834 5.29322 -3.1239
0.550834 5.28062 -3.1239
0.558874 5.26159 -3.16949
0.554857 5.25221 -3.14671
0.558874 5.23642 -3.16949
0.574894 5.21114 -3.26034
0.546807 5.22079 -3.10106
0.550834 5.205 -3.1239
0.558874 5.18607 -3.16949
0.558874 5.17348 -3.16949
0.554857 5.16404 -3.14671
0.546807 5.15773 -3.10106
0.542774 5.14827 -3.07819
0.542774 5.13565 -3.07819
0.542774 5.12303 -3.07819
0.558874 5.09796 -3.16949
0.558874 5.08537 -3.16949
0.566894 5.06661 -3.21498
0.566894 5.05404 -3.21498
0.566894 5.04147 -3.21498
0.554857 5.03809 -3.14671
0.550834 5.02856 -3.1239
0.554857 5.0129 -3.14671
0.554857 5.0003 -3.14671
0.554857 4.98771 -3.14671
0.566894 4.96603 -3.21498
0.570896 4.95045 -3.23767
0.574894 4.93489 -3.26034
0.578886 4.91935 -3.28299
0.574894 4.90977 -3.26034
0.570896 4.90019 -3.23767
0.570896 4.88763 -3.23767
0.558874 4.88397 -3.16949
0.558874 4.87138 -3.16949
0.558874 4.85879 -3.16949
0.550834 4.85212 -3.1239
0.558874 4.83362 -3.16949
0.554857 4.82397 -3.14671
0.554857 4.81137 -3.14671
0.546807 4.80464 -3.10106
0.562887 4.78036 -3.19225
0.562887 4.76778 -3.19225
0.554857 4.76099 -3.14671
0.558874 4.7455 -3.16949
0.562887 4.73004 -3.19225
0.550834 4.72609 -3.1239
0.554857 4.71061 -3.14671
0.558874 4.69515 -3.16949
0.558874 4.68257 -3.16949
0.558874 4.66998 -3.16949
0.562887 4.65456 -3.19225
0.562887 4.64198 -3.19225
0.562887 4.6294 -3.19225
0.554857 4.62244 -3.14671
0.554857 4.60985 -3.14671
0.554857 4.59725 -3.14671
0.558874 4.58187 -3.16949
0.558874 4.56928 -3.16949
0.562887 4.55392 -3.19225
0.554857 4.54687 -3.14671
0.558874 4.53152 -3.16949
0.558874 4.51893 -3.16949
0.566894 4.50086 -3.21498
0.566894 4.48829 -3.21498
0.562887 4.47844 -3.19225
0.578886 4.45502 -3.28299
0.578886 4.44247 -3.28299
0.566894 4.438 -3.21498
0.558874 4.43082 -3.16949
0.558874 4.41823 -3.16949
0.546807 4.41371 -3.10106
0.546807 4.4011 -3.10106
0.574894 4.36982 -3.26034
0.574894 4.35727 -3.26034
0.570896 4.34735 -3.23767
0.566894 4.33742 -3.21498
0.566894 4.32485 -3.21498
0.566894 4.31228 -3.21498
0.566894 4.2997 -3.21498
0.566894 4.28713 -3.21498
0.554857 4.28237 -3.14671
0.574894 4.25681 -3.26034
0.574894 4.24426 -3.26034
0.546807 4.24977 -3.10106
0.554857 4.23199 -3.14671
0.554857 4.2194 -3.14671
0.558874 4.20424 -3.16949
0.558874 4.19165 -3.16949
0.558874 4.17906 -3.16949
0.554857 4.16902 -3.14671
0.554857 4.15642 -3.14671
0.554857 4.14383 -3.14671
0.546807 4.13628 -3.10106
0.546807 4.12367 -3.10106
0.542774 4.11357 -3.07819
0.570896 4.08349 -3.23767
0.570896 4.07093 -3.23767
0.570896 4.05836 -3.23767
0.570896 4.0458 -3.23767
0.570896 4.03323 -3.23767
0.570896 4.02067 -3.23767
0.562887 4.01298 -3.19225
0.558874 4.00284 -3.16949
0.558874 3.99025 -3.16949
0.566894 3.97283 -3.21498
0.566894 3.96025 -3.21498
0.562887 3.95008 -3.19225
0.558874 3.9399 -3.16949
0.558874 3.92731 -3.16949
0.558874 3.91473 -3.16949
0.550834 3.9069 -3.1239
0.546807 3.89667 -3.10106
0.574894 3.86755 -3.26034
0.570896 3.85733 -3.23767
0.546807 3.85884 -3.10106
0.554857 3.84154 -3.14671
0.546807 3.83362 -3.10106
0.546807 3.82101 -3.10106
0.546807 3.8084 -3.10106
0.550834 3.79347 -3.1239
0.558874 3.77626 -3.16949
0.554857 3.76597 -3.14671
0.554857 3.75337 -3.14671
0.570896 3.73168 -3.23767
0.566894 3.72138 -3.21498
0.566894 3.70881 -3.21498
0.566894 3.69624 -3.21498
0.554857 3.6904 -3.14671
0.554857 3.6778 -3.14671
0.554857 3.66521 -3.14671
0.554857 3.65261 -3.14671
0.558874 3.6378 -3.16949
0.554857 3.62742 -3.14671
0.554857 3.61483 -3.14671
0.558874 3.60004 -3.16949
0.558874 3.58745 -3.16949
0.554857 3.57704 -3.14671
0.562887 3.56011 -3.19225
0.562887 3.54753 -3.19225
0.562887 3.53495 -3.19225
0.566894 3.52023 -3.21498
0.566894 3.50765 -3.21498
0.566894 3.49508 -3.21498
0.566894 3.48251 -3.21498
0.566894 3.46994 -3.21498
0.566894 3.45736 -3.21498
0.562887 3.44689 -3.19225
0.554857 3.43849 -3.14671
0.542774 3.43218 -3.07819
0.554857 3.4133 -3.14671
0.554857 3.40071 -3.14671
0.554857 3.38811 -3.14671
0.546807 3.37964 -3.10106
0.546807 3.36703 -3.10106
0.550834 3.35237 -3.1239
0.550834 3.33977 -3.1239
0.538737 3.33327 -3.05529
0.546807 3.31659 -3.10106
0.550834 3.30196 -3.1239
0.550834 3.28936 -3.1239
0.566894 3.26878 -3.21498
0.574894 3.25225 -3.26034
0.574894 3.2397 -3.26034
0.574894 3.22714 -3.26034
0.574894 3.21458 -3.26034
0.550834 3.21374 -3.1239
0.554857 3.19919 -3.14671
0.562887 3.18271 -3.19225
0.562887 3.17013 -3.19225
0.566894 3.15563 -3.21498
0.566894 3.14306 -3.21498
0.562887 3.13239 -3.19225
0.558874 3.12171 -3.16949
0.562887 3.10723 -3.19225
0.562887 3.09465 -3.19225
0.566894 3.0802 -3.21498
0.566894 3.06762 -3.21498
0.566894 3.05505 -3.21498
0.562887 3.04433 -3.19225
0.562887 3.03175 -3.19225
0.562887 3.01917 -3.19225
0.562887 3.00659 -3.19225
0.562887 2.99401 -3.19225
0.558874 2.98325 -3.16949
0.546807 2.9761 -3.10106
0.546807 2.96349 -3.10106
0.546807 2.95088 -3.10106
0.546807 2.93827 -3.10106
0.546807 2.92566 -3.10106
0.546807 2.91305 -3.10106
0.546807 2.90044 -3.10106
0.558874 2.88255 -3.16949
0.558874 2.86996 -3.16949
0.558874 2.85737 -3.16949
0.562887 2.84305 -3.19225
0.562887 2.83047 -3.19225
0.558874 2.81961 -3.16949
0.554857 2.80873 -3.14671
0.554857 2.79614 -3.14671
0.534694 2.79206 -3.03236
0.534694 2.77943 -3.03236
0.530646 2.76849 -3.00941
0.93342 8.05251 -3.34311
0.939549 8.03516 -3.36506
0.939549 8.02267 -3.36506
0.939549 8.01017 -3.36506
0.939549 7.97268 -3.36506
0.939549 7.96018 -3.36506
0.93342 7.95248 -3.34311
0.93342 7.93998 -3.34311
0.93342 7.92747 -3.34311
0.93342 7.91497 -3.34311
0.927284 7.90723 -3.32113
0.927284 7.89472 -3.32113
0.927284 7.88221 -3.32113
0.908829 7.87145 -3.25503
0.908829 7.85892 -3.25503
0.914988 7.84164 -3.27709
0.914988 7.82911 -3.27709
0.908829 7.82131 -3.25503
0.908829 7.80878 -3.25503
0.94567 7.7181 -3.38698
0.94567 7.70561 -3.38698
0.939549 7.69776 -3.36506
0.927284 7.68203 -3.32113
0.927284 7.66952 -3.32113
0.939549 7.64777 -3.36506
0.939549 7.63528 -3.36506
0.939549 7.62278 -3.36506
0.93342 7.61487 -3.34311
0.93342 7.53985 -3.34311
0.93342 7.52735 -3.34311
0.93342 7.51484 -3.34311
0.93342 7.50234 -3.34311
0.93342 7.48984 -3.34311
0.93342 7.47733 -3.34311
0.93342 7.46483 -3.34311
0.93342 7.45232 -3.34311
0.93342 7.43982 -3.34311
0.93342 7.42732 -3.34311
0.93342 7.41481 -3.34311
0.93342 7.40231 -3.34311
0.939549 7.38535 -3.36506
0.94567 7.36841 -3.38698
0.94567 7.35593 -3.38698
0.94567 7.34344 -3.38698
0.94567 7.33095 -3.38698
0.939549 7.32287 -3.36506
0.939549 7.31037 -3.36506
0.939549 7.29788 -3.36506
0.939549 7.28538 -3.36506
0.939549 7.27288 -3.36506
0.94567 7.25602 -3.38698
0.957889 7.23482 -3.43075
0.970078 7.21368 -3.4744
0.970078 7.20122 -3.4744
0.93342 7.21475 -3.34311
0.957889 7.18492 -3.43075
0.982237 7.15526 -3.51795
0.982237 7.14281 -3.51795
0.982237 7.13037 -3.51795
0.957889 7.11008 -3.43075
0.957889 7.09761 -3.43075
0.963988 7.08088 -3.45259
0.927284 7.09399 -3.32113
0.927284 7.08148 -3.32113
0.93342 7.0647 -3.34311
0.93342 7.0522 -3.34311
0.963988 6.98115 -3.45259
0.963988 6.96868 -3.45259
0.963988 6.95621 -3.45259
0.963988 6.94375 -3.45259
0.94567 6.90633 -3.38698
0.957889 6.8606 -3.43075
0.957889 6.84813 -3.43075
0.957889 6.83566 -3.43075
0.957889 6.82318 -3.43075
0.927284 6.80623 -3.32113
0.963988 6.76922 -3.45259
0.963988 6.75675 -3.45259
0.951784 6.7524 -3.40888
0.982237 6.71972 -3.51795
0.982237 6.70728 -3.51795
0.94567 6.719 -3.38698
0.963988 6.69442 -3.45259
0.94567 6.69402 -3.38698
0.963988 6.66949 -3.45259
0.963988 6.65702 -3.45259
0.963988 6.64456 -3.45259
0.957889 6.63607 -3.43075
0.963988 6.61962 -3.45259
0.963988 6.60716 -3.45259
0.963988 6.59469 -3.45259
0.963988 6.58222 -3.45259
0.963988 6.56976 -3.45259
0.94567 6.56913 -3.38698
0.94567 6.55664 -3.38698
0.94567 6.54415 -3.38698
0.94567 6.53166 -3.38698
0.94567 6.51917 -3.38698
0.94567 6.50668 -3.38698
0.982237 6.47084 -3.51795
0.94567 6.48171 -3.38698
0.94567 6.46922 -3.38698
0.94567 6.45673 -3.38698
0.94567 6.44424 -3.38698
0.970078 6.41631 -3.4744
0.970078 6.40385 -3.4744
0.970078 6.39139 -3.4744
0.957889 6.3866 -3.43075
0.963988 6.3703 -3.45259
0.963988 6.35783 -3.45259
0.963988 6.34536 -3.45259
0.963988 6.3329 -3.45259
0.963988 6.32043 -3.45259
0.957889 6.31175 -3.43075
0.957889 6.29928 -3.43075
0.94567 6.29437 -3.38698
0.94567 6.28189 -3.38698
0.94567 6.2694 -3.38698
0.94567 6.25691 -3.38698
1.00646 6.20711 -3.60472
1.00646 6.19469 -3.60472
1.00646 6.18228 -3.60472
1.00646 6.16986 -3.60472
0.994365 6.16481 -3.56139
0.970078 6.16713 -3.4744
0.994365 6.13995 -3.56139
0.994365 6.12752 -3.56139
0.988305 6.11875 -3.53968
0.982237 6.10997 -3.51795
0.982237 6.09752 -3.51795
0.982237 6.08508 -3.51795
0.976161 6.07628 -3.49619
0.963988 6.0711 -3.45259
0.94567 6.06958 -3.38698
0.94567 6.05709 -3.38698
0.94567 6.0446 -3.38698
0.94567 6.03211 -3.38698
0.94567 6.01962 -3.38698
0.957889 5.99991 -3.43075
0.957889 5.98744 -3.43075
0.957889 5.97496 -3.43075
0.970078 5.95533 -3.4744
0.970078 5.94287 -3.4744
0.970078 5.93041 -3.4744
0.970078 5.91796 -3.4744
0.970078 5.9055 -3.4744
0.970078 5.89304 -3.4744
0.963988 5.88411 -3.45259
0.988305 5.84515 -3.53968
0.963988 5.84671 -3.45259
0.957889 5.83775 -3.43075
0.951784 5.82878 -3.40888
0.951784 5.8163 -3.40888
0.951784 5.80382 -3.40888
0.94567 5.79482 -3.38698
0.94567 5.78233 -3.38698
0.994365 5.74222 -3.56139
0.994365 5.72979 -3.56139
0.994365 5.71736 -3.56139
0.963988 5.72205 -3.45259
0.970078 5.70615 -3.4744
0.970078 5.6937 -3.4744
0.957889 5.68806 -3.43075
0.963988 5.67218 -3.45259
0.963988 5.65972 -3.45259
0.957889 5.65064 -3.43075
0.994365 5.61793 -3.56139
0.994365 5.6055 -3.56139
0.976161 5.60312 -3.49619
0.976161 5.59067 -3.49619
0.976161 5.57822 -3.49619
0.963988 5.57245 -3.45259
0.957889 5.56333 -3.43075
0.957889 5.55085 -3.43075
0.982237 5.5251 -3.51795
0.982237 5.51266 -3.51795
0.982237 5.50022 -3.51795
0.982237 5.48777 -3.51795
0.963988 5.48519 -3.45259
0.963988 5.47272 -3.45259
0.957889 5.46353 -3.43075
0.963988 5.44779 -3.45259
0.963988 5.43532 -3.45259
0.963988 5.42285 -3.45259
0.963988 5.41039 -3.45259
0.963988 5.39792 -3.45259
0.970078 5.38222 -3.4744
0.970078 5.36977 -3.4744
0.970078 5.35731 -3.4744
0.970078 5.34485 -3.4744
0.970078 5.33239 -3.4744
0.970078 5.31993 -3.4744
0.970078 5.30747 -3.4744
0.970078 5.29501 -3.4744
0.976161 5.27939 -3.49619
0.970078 5.27009 -3.4744
0.970078 5.25764 -3.4744
0.970078 5.24518 -3.4744
0.970078 5.23272 -3.4744
0.970078 5.22026 -3.4744
0.976161 5.20468 -3.49619
0.982237 5.18912 -3.51795
0.988305 5.17358 -3.53968
0.988305 5.16114 -3.53968
0.982237 5.15179 -3.51795
0.982237 5.13934 -3.51795
0.982237 5.1269 -3.51795
0.982237 5.11445 -3.51795
0.982237 5.10201 -3.51795
0.982237 5.08957 -3.51795
0.994365 5.07105 -3.56139
0.994365 5.05862 -3.56139
0.976161 5.05526 -3.49619
0.976161 5.04281 -3.49619
0.976161 5.03036 -3.49619
0.976161 5.01791 -3.49619
0.994365 4.99648 -3.56139
0.994365 4.98405 -3.56139
0.994365 4.97162 -3.56139
0.994365 4.95919 -3.56139
0.994365 4.94676 -3.56139
0.994365 4.93433 -3.56139
0.982237 4.9278 -3.51795
0.982237 4.91535 -3.51795
0.982237 4.90291 -3.51795
0.982237 4.89046 -3.51795
0.982237 4.87802 -3.51795
0.988305 4.86266 -3.53968
0.988305 4.85023 -3.53968
0.994365 4.8349 -3.56139
1.00042 4.81959 -3.58307
1.00646 4.8043 -3.60472
0.963988 4.812 -3.45259
0.963988 4.79954 -3.45259
0.982237 4.77847 -3.51795
0.982237 4.76602 -3.51795
0.982237 4.75358 -3.51795
0.982237 4.74114 -3.51795
0.976161 4.73153 -3.49619
0.976161 4.71907 -3.49619
0.976161 4.70662 -3.49619
0.976161 4.69417 -3.49619
0.976161 4.68172 -3.49619
0.963988 4.67487 -3.45259
0.963988 4.66241 -3.45259
1.0125 4.62774 -3.62634
0.994365 4.62361 -3.56139
0.988305 4.61393 -3.53968
0.988305 4.6015 -3.53968
0.988305 4.58906 -3.53968
0.982237 4.57937 -3.51795
0.988305 4.56419 -3.53968
1.00042 4.54631 -3.58307
1.00042 4.53389 -3.58307
0.994365 4.52417 -3.56139
0.994365 4.51174 -3.56139
0.994365 4.49931 -3.56139
0.994365 4.48689 -3.56139
1.00646 4.46912 -3.60472
1.00646 4.4567 -3.60472
1.0125 4.44164 -3.62634
1.0125 4.42923 -3.62634
1.0125 4.41682 -3.62634
0.988305 4.41495 -3.53968
0.988305 4.40251 -3.53968
0.994365 4.38745 -3.56139
0.994365 4.37502 -3.56139
0.994365 4.3626 -3.56139
0.988305 4.35277 -3.53968
0.982237 4.34293 -3.51795
0.982237 4.33049 -3.51795
0.988305 4.31546 -3.53968
0.988305 4.30302 -3.53968
0.994365 4.28802 -3.56139
0.982237 4.28071 -3.51795
0.982237 4.26827 -3.51795
0.976161 4.25837 -3.49619
1.00042 4.23577 -3.58307
1.00042 4.22335 -3.58307
1.00042 4.21093 -3.58307
0.994365 4.20102 -3.56139
1.0125 4.18109 -3.62634
0.994365 4.17616 -3.56139
0.994365 4.16373 -3.56139
0.988305 4.15378 -3.53968
0.982237 4.14383 -3.51795
0.982237 4.13138 -3.51795
1.0125 4.10665 -3.62634
1.0125 4.09425 -3.62634
1.0125 4.08184 -3.62634
0.976161 4.08405 -3.49619
0.976161 4.0716 -3.49619
0.976161 4.05915 -3.49619
0.982237 4.04428 -3.51795
0.982237 4.03183 -3.51795
0.988305 4.01698 -3.53968
0.988305 4.00455 -3.53968
0.988305 3.99211 -3.53968
1.00042 3.97492 -3.58307
1.0125 3.95777 -3.62634
1.0125 3.94536 -3.62634
1.0125 3.93296 -3.62634
0.957889 3.94173 -3.43075
0.957889 3.92925 -3.43075
1.00646 3.89806 -3.60472
1.00646 3.88565 -3.60472
0.994365 3.87786 -3.56139
0.994365 3.86543 -3.56139
0.994365 3.853 -3.56139
0.994365 3.84058 -3.56139
0.994365 3.82815 -3.56139
0.994365 3.81572 -3.56139
0.988305 3.80556 -3.53968
1.0125 3.78408 -3.62634
0.988305 3.78069 -3.53968
0.988305 3.76825 -3.53968
1.00646 3.74909 -3.60472
1.00646 3.73668 -3.60472
0.963988 3.7399 -3.45259
0.963988 3.72743 -3.45259
0.970078 3.71274 -3.4744
0.982237 3.69585 -3.51795
0.982237 3.6834 -3.51795
0.982237 3.67096 -3.51795
1.01853 3.64543 -3.64794
1.01853 3.63303 -3.64794
1.01853 3.62063 -3.64794
1.00646 3.61253 -3.60472
1.00646 3.60012 -3.60472
1.0125 3.58557 -3.62634
1.00646 3.57529 -3.60472
1.00646 3.56288 -3.60472
1.0125 3.54835 -3.62634
1.00646 3.53805 -3.60472
0.994365 3.52985 -3.56139
0.994365 3.51742 -3.56139
0.994365 3.50499 -3.56139
0.994365 3.49256 -3.56139
0.988305 3.48221 -3.53968
0.988305 3.46978 -3.53968
0.988305 3.45734 -3.53968
0.988305 3.44491 -3.53968
1.01853 3.42224 -3.64794
1.01853 3.40984 -3.64794
1.01853 3.39744 -3.64794
1.01853 3.38504 -3.64794
0.988305 3.38272 -3.53968
1.0125 3.36225 -3.62634
1.0125 3.34984 -3.62634
1.00646 3.33942 -3.60472
0.94567 3.34701 -3.38698
0.94567 3.33452 -3.38698
0.93342 3.32604 -3.34311
0.927284 3.31553 -3.32113
0.914988 3.30702 -3.27709
0.951784 3.28259 -3.40888
0.94567 3.27208 -3.38698
0.94567 3.25959 -3.38698
0.94567 3.2471 -3.38698
0.94567 3.23461 -3.38698
0.970078 3.21438 -3.4744
0.970078 3.20193 -3.4744
0.963988 3.19138 -3.45259
0.963988 3.17891 -3.45259
0.963988 3.16645 -3.45259
0.994365 3.14455 -3.56139
0.988305 3.13399 -3.53968
0.976161 3.1253 -3.49619
0.994365 3.10726 -3.56139
1.00042 3.09298 -3.58307
0.994365 3.0824 -3.56139
0.994365 3.06997 -3.56139
1.00646 3.0539 -3.60472
0.994365 3.04512 -3.56139
0.988305 3.0345 -3.53968
0.982237 3.02387 -3.51795
0.963988 3.01685 -3.45259
0.963988 3.00439 -3.45259
0.976161 2.98833 -3.49619
0.963988 2.97945 -3.45259
0.963988 2.96699 -3.45259
0.963988 2.95452 -3.45259
0.957889 2.94382 -3.43075
0.951784 2.93311 -3.40888
0.957889 2.91887 -3.43075
0.957889 2.9064 -3.43075
0.951784 2.89567 -3.40888
0.94567 2.88492 -3.38698
0.94567 2.87243 -3.38698
0.976161 2.85137 -3.49619
0.976161 2.83892 -3.49619
0.94567 2.83497 -3.38698
0.939549 2.82418 -3.36506
0.939549 2.81168 -3.36506
0.927284 2.80256 -3.32113
0.93342 2.78837 -3.34311
0.94567 2.77252 -3.38698
0.94567 2.76003 -3.38698
1.31267 8.47939 -3.38424
1.32084 8.46187 -3.40531
1.32084 8.44943 -3.40531
1.33715 8.3026 -3.44736
1.329 8.29513 -3.42634
1.329 8.2827 -3.42634
1.329 8.27026 -3.42634
1.329 8.25782 -3.42634
1.329 8.24539 -3.42634
1.35342 8.19338 -3.4893
1.36154 8.17609 -3.51023
1.35342 8.16855 -3.4893
1.35342 8.15614 -3.4893
1.36154 8.13887 -3.51023
1.36154 8.12646 -3.51023
1.36154 8.11405 -3.51023
1.36154 8.10165 -3.51023
1.37775 8.07961 -3.55202
1.36965 8.07202 -3.53114
1.36965 8.05962 -3.53114
1.35342 8.05682 -3.4893
1.35342 8.04441 -3.4893
1.36154 8.0272 -3.51023
1.36154 8.0148 -3.51023
1.36154 8.00239 -3.51023
1.36154 7.98998 -3.51023
1.36154 7.97758 -3.51023
1.36154 7.96517 -3.51023
1.36154 7.95276 -3.51023
1.36965 7.93563 -3.53114
1.36965 7.92323 -3.53114
1.36965 7.91083 -3.53114
1.35342 7.90785 -3.4893
1.35342 7.89544 -3.4893
1.33715 7.89244 -3.44736
1.33715 7.88002 -3.44736
1.33715 7.86759 -3.44736
1.35342 7.84578 -3.4893
1.35342 7.83337 -3.4893
1.35342 7.82095 -3.4893
1.36965 7.71244 -3.53114
1.36965 7.70004 -3.53114
1.36965 7.68764 -3.53114
1.36965 7.67524 -3.53114
1.37775 7.65828 -3.55202
1.38584 7.64134 -3.57288
1.38584 7.62896 -3.57288
1.36154 7.63019 -3.51023
1.36154 7.61778 -3.51023
1.36154 7.60537 -3.51023
1.36154 7.59297 -3.51023
1.35342 7.58508 -3.4893
1.35342 7.57267 -3.4893
1.35342 7.56025 -3.4893
1.35342 7.54784 -3.4893
1.35342 7.53543 -3.4893
1.35342 7.52301 -3.4893
1.38584 7.49272 -3.57288
1.38584 7.48034 -3.57288
1.40199 7.42198 -3.61451
1.40199 7.40961 -3.61451
1.40199 7.39724 -3.61451
1.40199 7.38487 -3.61451
1.39392 7.37688 -3.59371
1.39392 7.3645 -3.59371
1.38584 7.35649 -3.57288
1.38584 7.34411 -3.57288
1.35342 7.34921 -3.4893
1.36965 7.32806 -3.53114
1.36965 7.31566 -3.53114
1.40199 7.28591 -3.61451
1.39392 7.27786 -3.59371
1.39392 7.26548 -3.59371
1.39392 7.2531 -3.59371
1.39392 7.24073 -3.59371
1.40199 7.22406 -3.61451
1.40199 7.21169 -3.61451
1.40199 7.19932 -3.61451
1.39392 7.19122 -3.59371
1.39392 7.17884 -3.59371
1.39392 7.16646 -3.59371
1.38584 7.15834 -3.57288
1.38584 7.14595 -3.57288
1.40199 7.1251 -3.61451
1.40199 7.11273 -3.61451
1.39392 7.10458 -3.59371
1.39392 7.0922 -3.59371
1.39392 7.07982 -3.59371
1.38584 7.07165 -3.57288
1.38584 7.05926 -3.57288
1.37775 7.05107 -3.55202
1.35342 7.05127 -3.4893
1.35342 7.03886 -3.4893
1.40199 7.0014 -3.61451
1.40199 6.98903 -3.61451
1.40199 6.97666 -3.61451
1.40199 6.96429 -3.61451
1.39392 6.95605 -3.59371
1.37775 6.95193 -3.55202
1.38584 6.93541 -3.57288
1.39392 6.91892 -3.59371
1.39392 6.90654 -3.59371
1.39392 6.89416 -3.59371
1.38584 6.88588 -3.57288
1.38584 6.87349 -3.57288
1.39392 6.85703 -3.59371
1.39392 6.84465 -3.59371
1.39392 6.83228 -3.59371
1.36154 6.83615 -3.51023
1.36154 6.82374 -3.51023
1.36965 6.80728 -3.53114
1.37775 6.79084 -3.55202
1.38584 6.77441 -3.57288
1.39392 6.75801 -3.59371
1.39392 6.74564 -3.59371
1.34529 6.75736 -3.46834
1.34529 6.74494 -3.46834
1.38584 6.71249 -3.57288
1.38584 6.70011 -3.57288
1.39392 6.68375 -3.59371
1.39392 6.67137 -3.59371
1.40199 6.65504 -3.61451
1.41809 6.6348 -3.65604
1.41809 6.62244 -3.65604
1.41809 6.61009 -3.65604
1.36965 6.62129 -3.53114
1.36965 6.60889 -3.53114
1.36965 6.59649 -3.53114
1.36154 6.58802 -3.51023
1.37775 6.56778 -3.55202
1.42613 6.53209 -3.67677
1.42613 6.51974 -3.67677
1.38584 6.52672 -3.57288
1.41809 6.49889 -3.65604
1.41809 6.48653 -3.65604
1.41809 6.47418 -3.65604
1.40199 6.46949 -3.61451
1.39392 6.46096 -3.59371
1.38584 6.45241 -3.57288
1.36965 6.4477 -3.53114
1.37775 6.43147 -3.55202
1.37775 6.41908 -3.55202
1.36154 6.41432 -3.51023
1.36154 6.40191 -3.51023
1.36154 6.38951 -3.51023
1.39392 6.36194 -3.59371
1.42613 6.33452 -3.67677
1.40199 6.33342 -3.61451
1.41004 6.3173 -3.63529
1.41809 6.30121 -3.65604
1.36154 6.31507 -3.51023
1.36154 6.30266 -3.51023
1.36154 6.29025 -3.51023
1.35342 6.28159 -3.4893
1.35342 6.26918 -3.4893
1.39392 6.23816 -3.59371
1.40199 6.22209 -3.61451
1.42613 6.19869 -3.67677
1.40199 6.19735 -3.61451
1.40199 6.18498 -3.61451
1.40199 6.17261 -3.61451
1.39392 6.1639 -3.59371
1.36154 6.16618 -3.51023
1.37775 6.14645 -3.55202
1.38584 6.13041 -3.57288
1.38584 6.11803 -3.57288
1.38584 6.10564 -3.57288
1.39392 6.08964 -3.59371
1.39392 6.07726 -3.59371
1.39392 6.06488 -3.59371
1.38584 6.0561 -3.57288
1.41809 6.02939 -3.65604
1.41809 6.01703 -3.65604
1.41809 6.00468 -3.65604
1.41809 5.99232 -3.65604
1.40199 5.98706 -3.61451
1.40199 5.97469 -3.61451
1.40199 5.96232 -3.61451
1.40199 5.94995 -3.61451
1.40199 5.93758 -3.61451
1.39392 5.92873 -3.59371
1.39392 5.91636 -3.59371
1.39392 5.90398 -3.59371
1.39392 5.8916 -3.59371
1.38584 5.88272 -3.57288
1.38584 5.87033 -3.57288
1.38584 5.85795 -3.57288
1.40199 5.83862 -3.61451
1.40199 5.82625 -3.61451
1.40199 5.81388 -3.61451
1.41004 5.79807 -3.63529
1.41004 5.78571 -3.63529
1.40199 5.77677 -3.61451
1.40199 5.7644 -3.61451
1.40199 5.75203 -3.61451
1.39392 5.74307 -3.59371
1.39392 5.7307 -3.59371
1.38584 5.72172 -3.57288
1.38584 5.70933 -3.57288
1.38584 5.69695 -3.57288
1.38584 5.68456 -3.57288
1.38584 5.67218 -3.57288
1.38584 5.65979 -3.57288
1.36965 5.65413 -3.53114
1.36965 5.64174 -3.53114
1.36965 5.62934 -3.53114
1.37775 5.61359 -3.55202
1.37775 5.6012 -3.55202
1.38584 5.58549 -3.57288
1.38584 5.5731 -3.57288
1.38584 5.56072 -3.57288
1.38584 5.54833 -3.57288
1.38584 5.53595 -3.57288
1.39392 5.52028 -3.59371
1.41809 5.49811 -3.65604
1.41809 5.48575 -3.65604
1.41809 5.4734 -3.65604
1.41809 5.46104 -3.65604
1.41809 5.44869 -3.65604
1.40199 5.44278 -3.61451
1.41004 5.42719 -3.63529
1.41004 5.41483 -3.63529
1.43416 5.39288 -3.69747
1.42613 5.38372 -3.67677
1.41809 5.37456 -3.65604
1.41004 5.36538 -3.63529
1.42613 5.34668 -3.67677
1.41809 5.33749 -3.65604
1.41809 5.32514 -3.65604
1.42613 5.30964 -3.67677
1.42613 5.29729 -3.67677
1.41809 5.28807 -3.65604
1.41809 5.27571 -3.65604
1.41809 5.26336 -3.65604
1.42613 5.2479 -3.67677
1.40199 5.24486 -3.61451
1.40199 5.2325 -3.61451
1.40199 5.22013 -3.61451
1.40199 5.20776 -3.61451
1.40199 5.19539 -3.61451
1.40199 5.18302 -3.61451
1.40199 5.17065 -3.61451
1.40199 5.15828 -3.61451
1.40199 5.14591 -3.61451
1.40199 5.13354 -3.61451
1.40199 5.12117 -3.61451
1.41004 5.10577 -3.63529
1.41809 5.09039 -3.65604
1.41809 5.07803 -3.65604
1.42613 5.06268 -3.67677
1.42613 5.05033 -3.67677
1.41809 5.04096 -3.65604
1.43416 5.02266 -3.69747
1.42613 5.01328 -3.67677
1.42613 5.00094 -3.67677
1.42613 4.98859 -3.67677
1.40199 4.9851 -3.61451
1.40199 4.97273 -3.61451
1.41004 4.95741 -3.63529
1.39392 4.95092 -3.59371
1.41809 4.92977 -3.65604
1.41809 4.91741 -3.65604
1.41809 4.90506 -3.65604
1.41809 4.8927 -3.65604
1.42613 4.87746 -3.67677
1.41809 4.86799 -3.65604
1.41809 4.85563 -3.65604
1.41809 4.84328 -3.65604
1.39392 4.83953 -3.59371
1.39392 4.82715 -3.59371
1.39392 4.81477 -3.59371
1.41809 4.79386 -3.65604
1.41809 4.7815 -3.65604
1.41809 4.76915 -3.65604
1.41809 4.75679 -3.65604
1.41809 4.74444 -3.65604
1.41809 4.73208 -3.65604
1.42613 4.71693 -3.67677
1.41809 4.70737 -3.65604
1.41809 4.69502 -3.65604
1.41809 4.68266 -3.65604
1.43416 4.66478 -3.69747
1.43416 4.65244 -3.69747
1.42613 4.64284 -3.67677
1.42613 4.6305 -3.67677
1.43416 4.61542 -3.69747
1.43416 4.60308 -3.69747
1.40199 4.60163 -3.61451
1.40199 4.58926 -3.61451
1.40199 4.57689 -3.61451
1.37775 4.57266 -3.55202
1.41809 4.54675 -3.65604
1.43416 4.52903 -3.69747
1.43416 4.51669 -3.69747
1.40199 4.51504 -3.61451
1.40199 4.50267 -3.61451
1.42613 4.48232 -3.67677
1.42613 4.46997 -3.67677
1.44218 4.45236 -3.71814
1.42613 4.44528 -3.67677
1.43416 4.43031 -3.69747
1.44218 4.41536 -3.71814
1.44218 4.40302 -3.71814
1.42613 4.39588 -3.67677
1.39392 4.39395 -3.59371
1.39392 4.38157 -3.59371
1.41809 4.36142 -3.65604
1.41809 4.34907 -3.65604
1.40199 4.34186 -3.61451
1.40199 4.32949 -3.61451
1.40199 4.31712 -3.61451
1.41809 4.29965 -3.65604
1.44218 4.27969 -3.71814
1.42613 4.2724 -3.67677
1.40199 4.26764 -3.61451
1.40199 4.25527 -3.61451
1.40199 4.2429 -3.61451
1.41809 4.22551 -3.65604
1.46618 4.19825 -3.78002
1.46618 4.18594 -3.78002
1.44218 4.18102 -3.71814
1.41809 4.17609 -3.65604
1.41809 4.16374 -3.65604
1.41809 4.15138 -3.65604
1.41809 4.13903 -3.65604
1.41809 4.12667 -3.65604
1.41809 4.11432 -3.65604
1.43416 4.09711 -3.69747
1.43416 4.08477 -3.69747
1.41809 4.07725 -3.65604
1.42613 4.06249 -3.67677
1.41809 4.05254 -3.65604
1.42613 4.03779 -3.67677
1.42613 4.02544 -3.67677
1.39392 4.02263 -3.59371
1.40199 4.00787 -3.61451
1.41004 3.99313 -3.63529
1.41004 3.98077 -3.63529
1.41809 3.96605 -3.65604
1.40199 3.95839 -3.61451
1.42613 3.93901 -3.67677
1.42613 3.92666 -3.67677
1.42613 3.91431 -3.67677
1.42613 3.90196 -3.67677
1.43416 3.88732 -3.69747
1.43416 3.87498 -3.69747
1.44218 3.86035 -3.71814
1.42613 3.85257 -3.67677
1.42613 3.84022 -3.67677
1.42613 3.82788 -3.67677
1.41809 3.81779 -3.65604
1.41809 3.80543 -3.65604
1.41809 3.79308 -3.65604
1.42613 3.77849 -3.67677
1.42613 3.76614 -3.67677
1.42613 3.75379 -3.67677
1.43416 3.73923 -3.69747
1.43416 3.72689 -3.69747
1.44218 3.71235 -3.71814
1.43416 3.70221 -3.69747
1.41809 3.69424 -3.65604
1.41004 3.68406 -3.63529
1.42613 3.66735 -3.67677
1.42613 3.65501 -3.67677
1.42613 3.64266 -3.67677
1.42613 3.63031 -3.67677
1.42613 3.61796 -3.67677
1.41809 3.60775 -3.65604
1.41809 3.59539 -3.65604
1.41809 3.58304 -3.65604
1.41809 3.57068 -3.65604
1.44218 3.55202 -3.71814
1.44218 3.53968 -3.71814
1.44218 3.52735 -3.71814
1.44218 3.51502 -3.71814
1.41809 3.50891 -3.65604
1.41809 3.49655 -3.65604
1.41809 3.4842 -3.65604
1.41809 3.47184 -3.65604
1.42613 3.45744 -3.67677
1.42613 3.44509 -3.67677
1.43416 3.43071 -3.69747
1.43416 3.41837 -3.69747
1.42613 3.40805 -3.67677
1.42613 3.3957 -3.67677
1.42613 3.38335 -3.67677
1.41809 3.373 -3.65604
1.41004 3.36264 -3.63529
1.41004 3.35027 -3.63529
1.34529 3.35384 -3.46834
1.33715 3.34341 -3.44736
1.33715 3.33098 -3.44736
1.33715 3.31856 -3.44736
1.329 3.3081 -3.42634
1.329 3.29567 -3.42634
1.31267 3.28717 -3.38424
1.32084 3.27275 -3.40531
1.33715 3.25641 -3.44736
1.31267 3.24981 -3.38424
1.33715 3.23155 -3.44736
1.33715 3.21912 -3.44736
1.33715 3.20669 -3.44736
1.33715 3.19426 -3.44736
1.33715 3.18184 -3.44736
1.41004 3.15247 -3.63529
1.41809 3.13825 -3.65604
1.42613 3.12404 -3.67677
1.37775 3.12279 -3.55202
1.37775 3.1104 -3.55202
1.39392 3.09433 -3.59371
1.40199 3.08012 -3.61451
1.40199 3.06775 -3.61451
1.42613 3.04995 -3.67677
1.42613 3.03761 -3.67677
1.41809 3.02705 -3.65604
1.41809 3.01469 -3.65604
1.41809 3.00234 -3.65604
1.41809 2.98998 -3.65604
1.41809 2.97763 -3.65604
1.39392 2.97055 -3.59371
1.38584 2.95994 -3.57288
1.38584 2.94755 -3.57288
1.41809 2.92821 -3.65604
1.42613 2.91413 -3.67677
1.42613 2.90178 -3.67677
1.42613 2.88943 -3.67677
1.42613 2.87708 -3.67677
1.41809 2.86643 -3.65604
1.39392 2.85916 -3.59371
1.39392 2.84678 -3.59371
1.39392 2.8344 -3.59371
1.39392 2.82203 -3.59371
1.40199 2.80798 -3.61451
1.38584 2.79894 -3.57288
1.38584 2.78655 -3.57288
1.40199 2.77087 -3.61451
1.40199 2.7585 -3.61451
1.41004 2.7445 -3.63529
1.41809 2.73052 -3.65604
1.65701 8.39462 -3.2803
1.68746 8.19338 -3.34058
1.69758 8.15127 -3.36062
1.66717 8.15345 -3.30042
1.66717 8.14103 -3.30042
1.66717 8.1286 -3.30042
1.64684 8.06367 -3.26016
1.64684 8.05122 -3.26016
1.64684 8.03878 -3.26016
1.64684 8.02633 -3.26016
1.68746 7.98234 -3.34058
1.68746 7.96992 -3.34058
1.68746 7.95751 -3.34058
1.66717 7.95459 -3.30042
1.65701 7.94691 -3.2803
1.65701 7.93447 -3.2803
1.70769 7.55125 -3.38063
1.68746 7.53543 -3.34058
1.68746 7.52301 -3.34058
1.68746 7.5106 -3.34058
1.67732 7.50266 -3.32051
1.66717 7.49472 -3.30042
1.66717 7.48229 -3.30042
1.66717 7.46986 -3.30042
1.66717 7.42014 -3.30042
1.66717 7.40771 -3.30042
1.66717 7.39528 -3.30042
1.66717 7.38285 -3.30042
1.66717 7.37042 -3.30042
1.69758 7.34483 -3.36062
1.69758 7.33242 -3.36062
1.69758 7.32002 -3.36062
1.67732 7.31634 -3.32051
1.71779 7.26173 -3.40062
1.71779 7.24934 -3.40062
1.71779 7.23695 -3.40062
1.71779 6.86519 -3.40062
1.71779 6.8528 -3.40062
1.72787 6.7868 -3.42059
1.72787 6.77441 -3.42059
1.69758 6.72449 -3.36062
1.68746 6.71609 -3.34058
1.68746 6.70367 -3.34058
1.68746 6.69126 -3.34058
1.67732 6.65799 -3.32051
1.67732 6.64557 -3.32051
1.67732 6.63315 -3.32051
1.70769 6.60889 -3.38063
1.70769 6.59649 -3.38063
1.70769 6.58409 -3.38063
1.69758 6.57561 -3.36062
1.68746 6.56712 -3.34058
1.69758 6.55079 -3.36062
1.67732 6.5462 -3.32051
1.67732 6.53377 -3.32051
1.67732 6.52135 -3.32051
1.68746 6.50505 -3.34058
1.69758 6.48876 -3.36062
1.69758 6.47635 -3.36062
1.68746 6.4678 -3.34058
1.68746 6.45539 -3.34058
1.68746 6.44298 -3.34058
1.70769 6.4229 -3.38063
1.70769 6.4105 -3.38063
1.70769 6.3981 -3.38063
1.69758 6.38951 -3.36062
1.69758 6.3771 -3.36062
1.68746 6.36849 -3.34058
1.68746 6.35608 -3.34058
1.68746 6.34366 -3.34058
1.72787 6.31618 -3.42059
1.72787 6.3038 -3.42059
1.71779 6.29516 -3.40062
1.66717 6.30153 -3.30042
1.70769 6.27411 -3.38063
1.68746 6.26918 -3.34058
1.70769 6.24931 -3.38063
1.70769 6.23691 -3.38063
1.71779 6.2208 -3.40062
1.71779 6.20841 -3.40062
1.71779 6.19602 -3.40062
1.71779 6.18363 -3.40062
1.68746 6.14503 -3.34058
1.72787 6.11803 -3.42059
1.72787 6.10564 -3.42059
1.72787 6.09326 -3.42059
1.71779 6.08449 -3.40062
1.71779 6.0721 -3.40062
1.66717 6.0778 -3.30042
1.66717 6.06537 -3.30042
1.66717 6.05295 -3.30042
1.73795 5.95349 -3.44053
1.72787 5.93226 -3.42059
1.72787 5.91987 -3.42059
1.66717 5.92866 -3.30042
1.66717 5.91623 -3.30042
1.66717 5.9038 -3.30042
1.72787 5.87033 -3.42059
1.72787 5.85795 -3.42059
1.72787 5.84556 -3.42059
1.69758 5.84361 -3.36062
1.69758 5.8312 -3.36062
1.69758 5.81879 -3.36062
1.69758 5.80639 -3.36062
1.69758 5.79398 -3.36062
1.70769 5.77813 -3.38063
1.65701 5.78296 -3.2803
1.66717 5.76708 -3.30042
1.67732 5.75121 -3.32051
1.68746 5.73536 -3.34058
1.68746 5.72295 -3.34058
1.68746 5.71054 -3.34058
1.69758 5.69473 -3.36062
1.68746 5.68571 -3.34058
1.68746 5.67329 -3.34058
1.70769 5.65413 -3.38063
1.71779 5.63838 -3.40062
1.71779 5.62599 -3.40062
1.70769 5.61694 -3.38063
1.69758 5.60788 -3.36062
1.69758 5.59547 -3.36062
1.69758 5.58306 -3.36062
1.68746 5.57398 -3.34058
1.73795 5.54504 -3.44053
1.72787 5.53595 -3.42059
1.71779 5.52685 -3.40062
1.71779 5.51446 -3.40062
1.71779 5.50206 -3.40062
1.70769 5.49294 -3.38063
1.69758 5.48381 -3.36062
1.69758 5.4714 -3.36062
1.74801 5.44278 -3.46045
1.74801 5.43041 -3.46045
1.70769 5.43094 -3.38063
1.70769 5.41855 -3.38063
1.70769 5.40615 -3.38063
1.70769 5.39375 -3.38063
1.70769 5.38135 -3.38063
1.70769 5.36895 -3.38063
1.69758 5.35974 -3.36062
1.69758 5.34733 -3.36062
1.71779 5.32858 -3.40062
1.71779 5.31618 -3.40062
1.72787 5.30064 -3.42059
1.71779 5.2914 -3.40062
1.66717 5.29477 -3.30042
1.66717 5.28234 -3.30042
1.72787 5.2511 -3.42059
1.72787 5.23872 -3.42059
1.74801 5.22013 -3.46045
1.72787 5.21395 -3.42059
1.72787 5.20156 -3.42059
1.72787 5.18918 -3.42059
1.71779 5.17987 -3.40062
1.71779 5.16748 -3.40062
1.69758 5.16123 -3.36062
1.72787 5.13964 -3.42059
1.72787 5.12725 -3.42059
1.72787 5.11487 -3.42059
1.73795 5.09945 -3.44053
1.73795 5.08708 -3.44053
1.73795 5.0747 -3.44053
1.73795 5.06232 -3.44053
1.69758 5.06198 -3.36062
1.69758 5.04957 -3.36062
1.69758 5.03716 -3.36062
1.69758 5.02476 -3.36062
1.69758 5.01235 -3.36062
1.68746 5.00293 -3.34058
1.68746 4.99051 -3.34058
1.71779 4.96921 -3.40062
1.73795 4.95092 -3.44053
1.73795 4.93855 -3.44053
1.73795 4.92617 -3.44053
1.73795 4.91379 -3.44053
1.72787 4.90433 -3.42059
1.72787 4.89194 -3.42059
1.72787 4.87956 -3.42059
1.72787 4.86718 -3.42059
1.73795 4.85191 -3.44053
1.73795 4.83953 -3.44053
1.74801 4.82429 -3.46045
1.74801 4.81192 -3.46045
1.74801 4.79955 -3.46045
1.74801 4.78718 -3.46045
1.74801 4.77481 -3.46045
1.74801 4.76244 -3.46045
1.74801 4.75007 -3.46045
1.68746 4.75464 -3.34058
1.71779 4.73376 -3.40062
1.71779 4.72137 -3.40062
1.71779 4.70897 -3.40062
1.68746 4.70499 -3.34058
1.69758 4.68977 -3.36062
1.69758 4.67737 -3.36062
1.71779 4.65941 -3.40062
1.70769 4.64978 -3.38063
1.70769 4.63738 -3.38063
1.70769 4.62498 -3.38063
1.70769 4.61258 -3.38063
1.71779 4.59745 -3.40062
1.70769 4.58778 -3.38063
1.70769 4.57539 -3.38063
1.71779 4.56027 -3.40062
1.71779 4.54788 -3.40062
1.69758 4.54089 -3.36062
1.69758 4.52848 -3.36062
1.69758 4.51608 -3.36062
1.69758 4.50367 -3.36062
1.70769 4.48859 -3.38063
1.71779 4.47353 -3.40062
1.71779 4.46113 -3.40062
1.71779 4.44874 -3.40062
1.72787 4.43371 -3.42059
1.72787 4.42133 -3.42059
1.72787 4.40894 -3.42059
1.69758 4.40442 -3.36062
1.69758 4.39201 -3.36062
1.73795 4.36919 -3.44053
1.73795 4.35681 -3.44053
1.74801 4.34186 -3.46045
1.74801 4.32949 -3.46045
1.70769 4.3274 -3.38063
1.70769 4.315 -3.38063
1.70769 4.3026 -3.38063
1.74801 4.28001 -3.46045
1.74801 4.26764 -3.46045
1.73795 4.2578 -3.44053
1.73795 4.24542 -3.44053
1.72787 4.23556 -3.42059
1.68746 4.23325 -3.34058
1.68746 4.22083 -3.34058
1.68746 4.20842 -3.34058
1.76809 4.17609 -3.50021
1.76809 4.16374 -3.50021
1.76809 4.15138 -3.50021
1.76809 4.13903 -3.50021
1.76809 4.12667 -3.50021
1.76809 4.11432 -3.50021
1.76809 4.10196 -3.50021
1.75806 4.09203 -3.48034
1.75806 4.07967 -3.48034
1.74801 4.06972 -3.46045
1.74801 4.05735 -3.46045
1.74801 4.04498 -3.46045
1.74801 4.03261 -3.46045
1.74801 4.02024 -3.46045
1.74801 4.00787 -3.46045
1.74801 3.9955 -3.46045
1.73795 3.98549 -3.44053
1.73795 3.97312 -3.44053
1.73795 3.96074 -3.44053
1.74801 3.94602 -3.46045
1.76809 3.92899 -3.50021
1.76809 3.91663 -3.50021
1.72787 3.91356 -3.42059
1.72787 3.90117 -3.42059
1.68746 3.89806 -3.34058
1.68746 3.88565 -3.34058
1.68746 3.87323 -3.34058
1.69758 3.85852 -3.36062
1.73795 3.83697 -3.44053
1.73795 3.82459 -3.44053
1.73795 3.81221 -3.44053
1.73795 3.78746 -3.44053
1.66717 3.79086 -3.30042
1.68746 3.77392 -3.34058
1.74801 3.7481 -3.46045
1.73795 3.73795 -3.44053
1.77812 3.71675 -3.52005
1.71779 3.71761 -3.40062
1.71779 3.70522 -3.40062
1.70769 3.69503 -3.38063
1.69758 3.68482 -3.36062
1.70769 3.67023 -3.38063
1.71779 3.65565 -3.40062
1.72787 3.64109 -3.42059
1.73795 3.62655 -3.44053
1.75806 3.60989 -3.48034
1.76809 3.59539 -3.50021
1.75806 3.58516 -3.48034
1.72787 3.57917 -3.42059
1.68746 3.57529 -3.34058
1.73795 3.55229 -3.44053
1.72787 3.54202 -3.42059
1.72787 3.52963 -3.42059
1.72787 3.51725 -3.42059
1.72787 3.50486 -3.42059
1.76809 3.4842 -3.50021
1.76809 3.47184 -3.50021
1.72787 3.46771 -3.42059
1.72787 3.45532 -3.42059
1.71779 3.44499 -3.40062
1.69758 3.43669 -3.36062
1.69758 3.42428 -3.36062
1.71779 3.40781 -3.40062
1.72787 3.3934 -3.42059
1.72787 3.38101 -3.42059
1.73795 3.36663 -3.44053
1.72787 3.35625 -3.42059
1.69758 3.34984 -3.36062
1.69758 3.33743 -3.36062
1.50307 3.36323 -2.97555
1.51342 3.34865 -2.99604
1.51342 3.3361 -2.99604
1.53409 3.31954 -3.03696
1.52376 3.30902 -3.01651
1.52376 3.29648 -3.01651
1.52376 3.28395 -3.01651
1.5444 3.26746 -3.05738
1.5547 3.25298 -3.07777
1.5547 3.24046 -3.07777
1.5547 3.22795 -3.07777
1.5444 3.21738 -3.05738
1.53409 3.2068 -3.03696
1.51342 3.19815 -2.99604
1.74801 3.14197 -3.46045
1.74801 3.1296 -3.46045
1.73795 3.11908 -3.44053
1.71779 3.1104 -3.40062
1.71779 3.09801 -3.40062
1.74801 3.08012 -3.46045
1.74801 3.06775 -3.46045
1.74801 3.05538 -3.46045
1.74801 3.04301 -3.46045
1.74801 3.03064 -3.46045
1.74801 3.01827 -3.46045
1.74801 3.0059 -3.46045
1.71779 2.99887 -3.40062
1.68746 2.99182 -3.34058
1.71779 2.97409 -3.40062
1.74801 2.95642 -3.46045
1.74801 2.94405 -3.46045
1.74801 2.93168 -3.46045
1.74801 2.91931 -3.46045
1.74801 2.90694 -3.46045
1.74801 2.89457 -3.46045
1.68746 2.89251 -3.34058
1.69758 2.87838 -3.36062
1.74801 2.85746 -3.46045
1.74801 2.84509 -3.46045
1.71779 2.83778 -3.40062
1.71779 2.82538 -3.40062
1.9086 8.33251 -3.00746
1.9086 8.32004 -3.00746
1.9086 8.30757 -3.00746
1.89644 8.30008 -2.98829
1.92075 8.27765 -3.0266
1.92075 8.26518 -3.0266
1.92075 8.25271 -3.0266
1.92075 8.17791 -3.0266
1.92075 8.16545 -3.0266
1.92075 8.15298 -3.0266
1.92075 8.14052 -3.0266
1.9086 8.13293 -3.00746
1.98128 7.85516 -3.12198
1.98128 7.84273 -3.12198
1.98128 7.8303 -3.12198
1.98128 7.81787 -3.12198
1.98128 7.80544 -3.12198
1.98128 7.79301 -3.12198
1.9692 7.78524 -3.10295
1.9692 7.7728 -3.10295
1.9692 7.76036 -3.10295
1.9692 7.74793 -3.10295
1.92075 7.64186 -3.0266
1.98128 7.532 -3.12198
1.9692 7.52407 -3.10295
1.9692 7.51163 -3.10295
1.94501 7.50818 -3.06483
1.95711 7.46636 -3.0839
1.94501 7.37122 -3.06483
1.95711 7.35436 -3.0839
1.94501 7.34632 -3.06483
1.92075 7.34267 -3.0266
1.92075 7.3302 -3.0266
1.9692 7.30021 -3.10295
1.9692 7.28778 -3.10295
1.92075 7.19307 -3.0266
1.95711 7.1677 -3.0839
1.95711 7.15526 -3.0839
1.95711 7.14281 -3.0839
1.9692 7.1261 -3.10295
1.9692 7.11367 -3.10295
1.9692 7.10123 -3.10295
1.9692 7.08879 -3.10295
1.9692 7.07636 -3.10295
1.98128 7.04727 -3.12198
1.98128 7.03484 -3.12198
1.9692 7.02661 -3.10295
1.94501 6.98523 -3.06483
1.94501 6.97278 -3.06483
1.94501 6.96032 -3.06483
1.9692 6.93956 -3.10295
1.9692 6.92712 -3.10295
1.98128 6.91055 -3.12198
1.9692 6.90225 -3.10295
1.94501 6.89807 -3.06483
1.94501 6.88562 -3.06483
1.92075 6.88142 -3.0266
1.95711 6.74461 -3.0839
1.9692 6.72814 -3.10295
1.9692 6.7157 -3.10295
1.9692 6.67839 -3.10295
1.9692 6.66595 -3.10295
1.9692 6.65352 -3.10295
2.00539 6.60436 -3.15997
2.00539 6.59195 -3.15997
2.00539 6.57953 -3.15997
1.95711 6.58284 -3.0839
1.92075 6.58222 -3.0266
1.92075 6.56976 -3.0266
1.93289 6.55336 -3.04573
1.9692 6.52915 -3.10295
1.98128 6.51282 -3.12198
1.98128 6.50039 -3.12198
1.98128 6.48796 -3.12198
1.9692 6.47941 -3.10295
1.94501 6.47472 -3.06483
1.94501 6.46227 -3.06483
1.9692 6.40479 -3.10295
1.98128 6.38853 -3.12198
1.98128 6.3761 -3.12198
2.00539 6.35608 -3.15997
2.00539 6.34366 -3.15997
1.95711 6.3464 -3.0839
1.95711 6.33396 -3.0839
1.9692 6.31773 -3.10295
1.9692 6.3053 -3.10295
1.9692 6.29286 -3.10295
1.9692 6.28042 -3.10295
1.9692 6.26799 -3.10295
1.9692 6.25555 -3.10295
2.00539 6.23193 -3.15997
2.00539 6.21952 -3.15997
2.00539 6.20711 -3.15997
2.00539 6.19469 -3.15997
2.00539 6.18228 -3.15997
2.00539 6.16986 -3.15997
1.95711 6.17219 -3.0839
1.95711 6.15974 -3.0839
1.95711 6.1473 -3.0839
2.00539 6.12021 -3.15997
2.00539 6.10779 -3.15997
2.00539 6.09538 -3.15997
2.00539 6.08296 -3.15997
2.00539 6.07055 -3.15997
2.01742 6.05452 -3.17892
1.99334 6.04933 -3.14098
1.98128 6.04052 -3.12198
1.98128 6.02809 -3.12198
1.98128 6.01566 -3.12198
1.98128 6.00323 -3.12198
2.00539 5.98365 -3.15997
1.94501 5.98912 -3.06483
1.94501 5.97666 -3.06483
1.94501 5.96421 -3.06483
1.94501 5.95176 -3.06483
1.95711 5.93575 -3.0839
1.98128 5.91623 -3.12198
1.98128 5.9038 -3.12198
1.98128 5.89137 -3.12198
1.99334 5.87543 -3.14098
2.00539 5.85951 -3.15997
2.00539 5.84709 -3.15997
2.00539 5.83468 -3.15997
2.00539 5.82226 -3.15997
1.95711 5.82376 -3.0839
1.95711 5.81131 -3.0839
1.95711 5.79887 -3.0839
1.95711 5.78643 -3.0839
2.00539 5.76019 -3.15997
2.00539 5.74778 -3.15997
2.01742 5.73195 -3.17892
1.95711 5.73665 -3.0839
1.95711 5.72421 -3.0839
1.95711 5.71176 -3.0839
1.95711 5.69932 -3.0839
1.95711 5.68687 -3.0839
2.01742 5.6575 -3.17892
2.01742 5.6451 -3.17892
1.94501 5.65293 -3.06483
2.00539 5.62364 -3.15997
2.00539 5.61122 -3.15997
2.00539 5.59881 -3.15997
1.95711 5.59977 -3.0839
1.95711 5.58732 -3.0839
1.9692 5.57154 -3.10295
1.98128 5.55578 -3.12198
1.98128 5.54335 -3.12198
1.9692 5.53423 -3.10295
1.9692 5.5218 -3.10295
1.98128 5.50607 -3.12198
1.99334 5.49036 -3.14098
1.99334 5.47794 -3.14098
1.98128 5.46878 -3.12198
1.98128 5.45635 -3.12198
1.9692 5.44718 -3.10295
1.9692 5.43474 -3.10295
1.9692 5.42231 -3.10295
1.9692 5.40987 -3.10295
2.00539 5.38777 -3.15997
2.01742 5.37215 -3.17892
2.00539 5.36294 -3.15997
2.01742 5.34733 -3.17892
2.01742 5.33493 -3.17892
1.98128 5.33206 -3.12198
1.9692 5.32281 -3.10295
1.95711 5.31356 -3.0839
1.94501 5.30429 -3.06483
1.92075 5.29819 -3.0266
1.98128 5.26992 -3.12198
1.98128 5.25749 -3.12198
1.99334 5.24192 -3.14098
1.99334 5.2295 -3.14098
2.01742 5.21086 -3.17892
2.01742 5.19845 -3.17892
2.01742 5.18605 -3.17892
2.00539 5.17673 -3.15997
1.94501 5.17978 -3.06483
1.94501 5.16732 -3.06483
2.00539 5.13948 -3.15997
2.00539 5.12707 -3.15997
2.00539 5.11465 -3.15997
2.01742 5.0992 -3.17892
2.01742 5.08679 -3.17892
2.01742 5.07438 -3.17892
2.00539 5.065 -3.15997
2.01742 5.04957 -3.17892
2.01742 5.03716 -3.17892
2.01742 5.02476 -3.17892
2.01742 5.01235 -3.17892
2.00539 5.00293 -3.15997
2.02943 4.98457 -3.19786
2.02943 4.97217 -3.19786
2.02943 4.95977 -3.19786
2.00539 4.95327 -3.15997
2.00539 4.94086 -3.15997
2.00539 4.92844 -3.15997
2.02943 4.91017 -3.19786
2.02943 4.89777 -3.19786
2.01742 4.88828 -3.17892
2.01742 4.87588 -3.17892
1.98128 4.87219 -3.12198
1.98128 4.85976 -3.12198
2.01742 4.83865 -3.17892
2.01742 4.82625 -3.17892
2.01742 4.81384 -3.17892
2.00539 4.8043 -3.15997
2.00539 4.79188 -3.15997
2.00539 4.77947 -3.15997
1.98128 4.77275 -3.12198
2.01742 4.75181 -3.17892
2.01742 4.7394 -3.17892
1.9692 4.7383 -3.10295
1.9692 4.72586 -3.10295
2.00539 4.70499 -3.15997
1.99334 4.69537 -3.14098
1.98128 4.68575 -3.12198
1.98128 4.67332 -3.12198
1.98128 4.66089 -3.12198
1.99334 4.64569 -3.14098
1.99334 4.63327 -3.14098
1.99334 4.62084 -3.14098
1.99334 4.60842 -3.14098
2.01742 4.59052 -3.17892
2.01742 4.57811 -3.17892
2.00539 4.56843 -3.15997
2.00539 4.55602 -3.15997
2.00539 4.5436 -3.15997
2.01742 4.52848 -3.17892
1.95711 4.52959 -3.0839
1.95711 4.51715 -3.0839
1.95711 4.5047 -3.0839
1.95711 4.49226 -3.0839
1.94501 4.4825 -3.06483
1.94501 4.47005 -3.06483
1.94501 4.4576 -3.06483
1.95711 4.44248 -3.0839
1.9692 4.42739 -3.10295
2.00539 4.40704 -3.15997
2.00539 4.39463 -3.15997
2.01742 4.3796 -3.17892
2.02943 4.36459 -3.19786
2.01742 4.35479 -3.17892
2.00539 4.34497 -3.15997
2.00539 4.33256 -3.15997
2.01742 4.31757 -3.17892
2.00539 4.30773 -3.15997
1.99334 4.29788 -3.14098
1.98128 4.28802 -3.12198
2.02943 4.2654 -3.19786
1.9692 4.26571 -3.10295
1.9692 4.25328 -3.10295
1.9692 4.24084 -3.10295
2.01742 4.21831 -3.17892
2.01742 4.20591 -3.17892
2.01742 4.1935 -3.17892
2.00539 4.18359 -3.15997
1.98128 4.17616 -3.12198
1.98128 4.16373 -3.12198
2.02943 4.14141 -3.19786
2.02943 4.12901 -3.19786
2.02943 4.11661 -3.19786
2.02943 4.10421 -3.19786
2.02943 4.09181 -3.19786
2.02943 4.07941 -3.19786
2.01742 4.06943 -3.17892
1.99334 4.06187 -3.14098
1.99334 4.04945 -3.14098
1.99334 4.03703 -3.14098
1.98128 4.02701 -3.12198
1.98128 4.01458 -3.12198
1.98128 4.00215 -3.12198
1.95711 3.9945 -3.0839
1.9692 3.97967 -3.10295
1.9692 3.96724 -3.10295
2.00539 3.94772 -3.15997
2.02943 3.93062 -3.19786
2.01742 3.92055 -3.17892
2.01742 3.90814 -3.17892
2.01742 3.89574 -3.17892
2.01742 3.88333 -3.17892
2.01742 3.87092 -3.17892
1.95711 3.87006 -3.0839
1.95711 3.85762 -3.0839
2.04143 3.82914 -3.21677
2.04143 3.81675 -3.21677
2.02943 3.80662 -3.19786
2.02943 3.79422 -3.19786
2.01742 3.78408 -3.17892
2.01742 3.77167 -3.17892
2.01742 3.75926 -3.17892
2.01742 3.74686 -3.17892
2.01742 3.73445 -3.17892
2.00539 3.72426 -3.15997
2.00539 3.71185 -3.15997
2.01742 3.69723 -3.17892
2.01742 3.68482 -3.17892
2.01742 3.67242 -3.17892
2.01742 3.66001 -3.17892
2.01742 3.6476 -3.17892
2.01742 3.63519 -3.17892
2.01742 3.62279 -3.17892
1.98128 3.61685 -3.12198
1.98128 3.60442 -3.12198
1.98128 3.59199 -3.12198
2.01742 3.57316 -3.17892
2.01742 3.56075 -3.17892
2.01742 3.54835 -3.17892
2.01742 3.53594 -3.17892
2.00539 3.52564 -3.15997
2.00539 3.51322 -3.15997
2.00539 3.50081 -3.15997
2.02943 3.48424 -3.19786
2.04143 3.46977 -3.21677
1.98128 3.4677 -3.12198
1.99334 3.45321 -3.14098
2.01742 3.43669 -3.17892
2.01742 3.42428 -3.17892
2.01742 3.41187 -3.17892
2.05342 3.3934 -3.23565
2.05342 3.38101 -3.23565
2.02943 3.37264 -3.19786
2.02943 3.36024 -3.19786
2.06539 3.34187 -3.25452
2.06539 3.3295 -3.25452
1.7616 3.36731 -2.77583
1.7616 3.35475 -2.77583
1.81085 3.33409 -2.85342
1.81085 3.32155 -2.85342
1.79856 3.31102 -2.83406
1.81085 3.29648 -2.85342
1.81085 3.28395 -2.85342
1.79856 3.2734 -2.83406
1.79856 3.26085 -2.83406
1.78626 3.25028 -2.81467
1.78626 3.23773 -2.81467
1.78626 3.22518 -2.81467
1.7616 3.21654 -2.77583
1.74925 3.20592 -2.75637
2.00539 3.15321 -3.15997
2.00539 3.14079 -3.15997
1.9692 3.13399 -3.10295
1.9692 3.12156 -3.10295
1.9692 3.10912 -3.10295
2.00539 3.09114 -3.15997
1.99334 3.08056 -3.14098
2.00539 3.06631 -3.15997
2.00539 3.0539 -3.15997
1.9692 3.04694 -3.10295
1.9692 3.0345 -3.10295
1.98128 3.02026 -3.12198
1.98128 3.00783 -3.12198
1.95711 2.99899 -3.0839
1.9692 2.98476 -3.10295
1.95711 2.9741 -3.0839
1.95711 2.96165 -3.0839
1.9692 2.94745 -3.10295
1.9692 2.93501 -3.10295
1.9692 2.92257 -3.10295
1.98128 2.9084 -3.12198
1.98128 2.89597 -3.12198
2.00539 2.8801 -3.15997
2.01742 2.86597 -3.17892
2.01742 2.85357 -3.17892
2.00539 2.84285 -3.15997
2.00539 2.83044 -3.15997
2.01742 2.81635 -3.17892
2.00539 2.80561 -3.15997
2.00539 2.7932 -3.15997
1.95711 2.78744 -3.0839
2.22087 8.2976 -2.84257
2.22087 8.28514 -2.84257
2.13695 8.30259 -2.73516
2.17899 8.27512 -2.78897
2.19297 8.25767 -2.80686
2.17899 8.25016 -2.78897
2.16499 8.24263 -2.77105
2.20693 8.17791 -2.82473
2.20693 8.16545 -2.82473
2.20693 8.15298 -2.82473
2.15098 8.06015 -2.75312
2.16499 7.95539 -2.77105
2.16499 7.9429 -2.77105
2.16499 7.93041 -2.77105
2.16499 7.91792 -2.77105
2.16499 7.90543 -2.77105
2.20693 7.87872 -2.82473
2.19297 7.87098 -2.80686
2.15098 7.87271 -2.75312
2.16499 7.85548 -2.77105
2.16499 7.84299 -2.77105
2.20693 7.81639 -2.82473
2.20693 7.80392 -2.82473
2.22087 7.78678 -2.84257
2.17899 7.78835 -2.78897
2.19297 7.77119 -2.80686
2.19297 7.75872 -2.80686
2.19297 7.74624 -2.80686
2.20693 7.72913 -2.82473
2.20693 7.71666 -2.82473
2.22087 7.69957 -2.84257
2.19297 7.69635 -2.80686
2.20693 7.67926 -2.82473
2.20693 7.66679 -2.82473
2.24871 7.64057 -2.8782
2.24871 7.62813 -2.8782
2.2348 7.62025 -2.8604
2.19297 7.62151 -2.80686
2.20693 7.60446 -2.82473
2.20693 7.592 -2.82473
2.22087 7.57498 -2.84257
2.22087 7.56252 -2.84257
2.22087 7.55007 -2.84257
2.20693 7.50473 -2.82473
2.20693 7.49227 -2.82473
2.19297 7.48429 -2.80686
2.20693 7.46733 -2.82473
2.16499 7.44335 -2.77105
2.16499 7.43086 -2.77105
2.19297 7.40945 -2.80686
2.20693 7.39254 -2.82473
2.20693 7.38007 -2.82473
2.22087 7.26351 -2.84257
2.22087 7.25105 -2.84257
2.22087 7.23859 -2.84257
2.22087 7.22613 -2.84257
2.22087 7.21368 -2.84257
2.22087 7.20122 -2.84257
2.22087 7.18876 -2.84257
2.20693 7.18061 -2.82473
2.24871 7.15526 -2.8782
2.24871 7.14281 -2.8782
2.24871 7.13037 -2.8782
2.24871 7.11793 -2.8782
2.24871 7.10548 -2.8782
2.24871 7.09304 -2.8782
2.19297 7.09761 -2.80686
2.19297 7.08513 -2.80686
2.19297 7.07266 -2.80686
2.17899 7.06443 -2.78897
2.20693 7.04348 -2.82473
2.20693 7.03101 -2.82473
2.20693 7.01855 -2.82473
2.2348 6.99768 -2.8604
2.2348 6.98523 -2.8604
2.24871 6.9686 -2.8782
2.2348 6.96032 -2.8604
2.22087 6.95204 -2.84257
2.20693 6.94375 -2.82473
2.20693 6.93128 -2.82473
2.19297 6.92297 -2.80686
2.19297 6.9105 -2.80686
2.2348 6.88562 -2.8604
2.20693 6.88142 -2.82473
2.20693 6.86895 -2.82473
2.20693 6.85648 -2.82473
2.20693 6.84402 -2.82473
2.19297 6.83566 -2.80686
2.20693 6.80662 -2.82473
2.20693 6.79415 -2.82473
