1.38772 6.34381 -3.57859
-0.857838 6.34126 2.95182
1.18485 5.83331 1.66728
1.30802 3.26262 1.24833
1.73816 4.0585 -3.45412
1.33207 4.29352 1.07341
-0.531127 4.36599 2.77883
-0.239418 7.67734 2.54728
-1.55824 4.84293 -1.18083
0.453047 7.55538 1.9583
-2.5807 5.82419 2.63697
-0.306807 3.18019 -2.5087
-2.84389 7.84746 2.38652
-1.91151 4.69049 -0.798118
-2.59132 6.9419 2.64487
-0.859207 6.47768 2.95124
-2.32791 5.50078 2.89874
0.552286 7.24245 -3.1075
3.12475 8.36476 -1.77696
0.645014 3.64643 1.80916
-0.808665 5.47757 -1.89957
2.72478 6.80736 -2.35201
3.18716 6.67691 -1.80906
-2.98003 2.83558 2.04108
1.45849 3.89682 0.982296
-0.695447 6.76421 -2.05052
-1.89537 6.29067 -0.927723
-1.4441 6.93349 -1.30593
0.850636 7.64288 1.65499
-1.15165 7.29206 -1.6274
-0.0480778 6.35531 -2.64885
-1.5659 3.17607 -1.33544
-0.509238 5.77674 2.72204
-1.37004 4.25739 3.34128
0.196874 7.14979 2.19772
-3.02963 4.30541 2.08751
-3.32072 4.28234 1.82646
-1.69419 6.8223 -1.08474
0.91285 3.79965 1.52542
-1.7965 5.53511 3.43348
0.494533 7.91486 1.92882
-2.83098 6.87357 2.3732
-3.78071 5.65097 1.20655
1.30742 3.45235 1.21507
1.83644 6.24167 0.582315
2.2291 6.4761 -2.85222
0.815036 7.36238 1.68888
-2.3482 6.0255 2.92075
-1.41426 3.982 -1.3439
-0.520976 3.59231 2.76297
-1.3203 7.72981 -1.46667
2.74909 3.75115 -2.37265
1.52602 7.83528 0.997002
0.561794 4.84434 -3.18028
0.982121 3.75695 -3.52532
2.72345 6.2983 -2.35106
2.48261 4.8722 -2.60769
-2.33324 3.54247 2.88623
-1.4179 5.20488 -1.3968
0.84889 5.64251 2.02786
0.424627 7.29512 2.00214
1.19735 3.80312 1.22648
-0.498271 5.12034 2.78555
3.39611 7.7551 -1.50873
-3.10221 6.44706 2.12462
1.39149 6.94494 -3.57687
1.72238 2.85557 0.719413
2.00757 3.87768 -3.16644
-1.38164 6.40906 -1.4272
0.404833 3.07211 2.03739
2.22202 5.78135 -2.84678
2.74671 4.98407 -2.37112
1.54607 4.14742 0.872119
-1.19924 7.98609 -1.47147
-1.01058 7.78747 -1.68941
-0.533813 3.78104 2.78018
2.72049 6.90719 -2.3483
1.56864 5.7666 1.34353
-3.07889 5.99669 2.10922
2.71607 6.96552 -2.34442
0.979711 7.1641 -3.42467
-1.13067 8.30392 -1.37165
-1.35091 4.19969 3.34962
-3.09451 6.33781 2.11786
-0.300225 6.43947 -2.43981
-1.02766 6.9174 -1.76421
1.48684 3.39523 1.02416
-0.0548528 3.90993 -2.61997
-0.0525684 7.23606 -2.59197
-0.259937 5.72726 2.69143
1.70583 5.47549 -3.38116
2.04281 5.1305 0.596843
0.769183 6.09182 1.71892
1.23778 3.55003 1.24157
-2.3716 7.24265 2.95155
0.394308 3.42048 2.02834
-3.44201 3.28759 1.47332
-0.905809 6.7095 3.0323
0.929544 8.23315 1.3655
-2.15934 5.66947 -0.605089
1.12166 4.96291 1.37704
-0.289651 6.33894 -2.43899
3.19444 5.70849 -1.81844
-3.31494 6.67054 1.8266
-1.60408 2.85347 -1.23797
3.24022 2.88139 -1.84122
2.27986 3.03967 -2.92081
1.19357 6.27806 1.25632
-1.34247 6.83631 3.37383
1.40567 7.13495 1.07024
-1.01171 6.16396 -1.79085
0.737048 7.84843 1.72825
-2.80401 5.38102 2.35581
-3.4137 2.77095 1.44902
1.43767 4.39597 0.989713
-1.59685 5.91635 -1.24853
-1.77385 5.38044 -0.926574
2.45588 6.40403 -2.57999
1.07556 6.20613 1.39607
2.72663 6.75759 -2.35353
0.58774 3.96836 1.82213
-2.82877 4.1725 2.37369
-2.16979 5.84645 -0.609619
-2.83364 5.59836 2.37718
1.68807 3.7156 0.767858
2.9726 3.07513 -2.09481
-1.22208 4.75481 -1.51235
-3.58157 6.1481 1.53023
-2.32212 4.27904 2.88546
-0.800712 4.5598 -1.93787
-2.85172 6.52218 2.39126
2.99299 3.2456 -2.10901
1.03902 5.28088 1.76388
-0.525194 4.98146 2.78646
0.42888 6.33943 1.96593
0.00867718 3.99541 2.31352
2.45735 6.90897 -2.5808
-0.840495 5.16704 -1.92819
2.73657 3.13214 -2.36208
-1.39534 6.54318 3.43525
-1.25689 6.7627 -1.54626
-1.80665 6.84532 3.44771
-0.2866 4.58383 -2.39815
1.99318 5.27161 -3.14126
-2.34936 7.0287 2.92306
-1.5441 6.31715 -1.23453
-0.0575448 7.18095 -2.59087
0.769285 4.68766 1.65043
1.0454 4.95361 1.47124
0.229235 6.11762 2.15548
-1.24389 3.65093 -1.49921
2.92146 7.71056 -2.06067
-3.72148 4.41691 1.18156
1.41173 5.0436 -3.64206
-1.35472 5.16373 3.3519
3.15414 7.37187 -1.79118
-0.827128 4.18939 -1.9095
0.202003 7.18077 -2.76624
-0.280831 4.28944 -2.39987
-0.508533 6.25518 2.73956
2.46574 6.56088 -2.58937
1.7239 4.32038 -3.4241
-2.84331 6.25218 2.38671
-0.298851 5.8027 -2.47752
0.536531 4.02835 1.85411
0.229629 7.61023 -2.82375
-1.35695 5.67395 3.3719
0.982557 4.65069 -3.52328
2.75291 4.91697 -2.37619
0.92601 6.01167 -3.45507
1.57749 3.17537 0.948583
-1.02326 3.28841 -1.83572
-0.957217 6.09416 -1.85135
-3.55783 5.35525 1.51966
-2.32892 4.50028 2.8983
0.395539 5.03596 2.15993
1.25521 4.60094 1.21901
-1.06394 6.62788 -1.73828
-0.539166 4.86329 2.79451
2.50808 2.92841 -2.63609
1.75071 4.16873 0.705539
-0.487658 4.53921 -2.22656
0.00863099 5.00863 2.49011
2.0077 5.05596 -3.16684
0.21817 7.76026 -2.78583
-3.76898 5.52862 1.19685
-1.15152 6.52862 -1.63919
-1.35358 4.03656 3.35485
-2.02535 3.78352 -0.607484
-1.30446 2.906 -1.5432
2.9513 6.19255 -2.08338
1.36994 7.00988 1.08225
0.544181 6.55272 -3.09741
2.00065 5.75396 0.838004
1.47337 6.98015 1.01119
-2.09963 6.3905 3.21155
0.97982 3.02536 -3.45307
-0.932513 2.90334 -1.88589
-0.756869 3.55949 -2.01963
2.52381 3.55372 -2.65359
-1.43896 2.93535 -1.39408
0.958474 2.79484 1.41328
-1.37405 4.88715 3.40324
-2.06941 4.91399 3.15992
1.84082 4.69451 0.590288
3.19699 6.90555 -1.8052
-0.294673 6.57123 -2.42588
3.49263 4.688 -1.55555
-0.529604 3.73338 2.77185
2.9446 6.50184 -2.081
3.13463 8.20562 -1.77625
-0.526342 6.50799 2.74948
1.53106 6.52116 0.936231
-1.3614 7.56656 3.35801
1.0692 7.62906 1.43294
2.19152 7.76247 -2.80715
0.848956 4.69411 1.56973
1.65232 5.49696 1.2622
3.23578 4.85356 -1.84108
-0.043601 2.80213 -2.61758
-3.59775 6.58454 1.53714
-1.92862 4.8058 -0.782019
0.616471 6.96914 1.84641
-0.178966 2.74118 2.45767
3.47461 5.08133 -1.54546
1.42697 3.29417 1.09797
1.0234 7.89591 1.44439
0.639977 5.20006 2.07177
-1.79861 5.76867 3.45023
-3.03593 3.7164 2.09907
-3.76011 6.33483 1.19531
3.44537 5.46482 -1.53913
-3.55252 5.25462 1.52524
0.451742 7.82197 2.00093
-0.726017 3.12885 -2.14352
-0.910374 3.26806 3.06383
1.30926 6.30723 1.13113
-1.95533 4.62819 -0.751001
-1.25675 5.9339 -1.54741
-3.10149 6.51145 2.12438
-1.56661 3.70576 -1.20422
0.232906 4.92049 2.22811
1.49712 4.486 0.92143
1.59297 4.03767 0.840279
2.45633 7.30684 -2.57995
3.4267 7.06301 -1.52369
0.431544 4.36285 1.89699
-0.057597 4.28477 -2.61051
0.206802 6.05945 -2.88381
-3.34731 7.63709 1.84129
3.19579 6.60405 -1.8073
-1.37314 6.01673 3.39795
-0.857567 5.65586 -1.88634
-1.14503 6.62406 -1.65282
0.997377 3.17566 -3.46499
-0.545018 6.09284 2.76169
2.78118 4.09239 -2.40065
0.937385 3.33384 -3.49156
-2.03144 3.28174 -0.823893
-0.701102 6.63402 -2.05645
1.17188 7.45107 1.28566
2.99224 5.86932 -2.10923
-1.80986 6.37053 -0.987583
-1.388 7.93972 -1.31508
-0.230953 7.30099 2.54495
-1.40891 5.51647 3.45711
1.50676 4.38125 0.910922
3.27083 3.57655 -1.85717
1.37975 7.46882 -3.55262
-2.35587 7.07456 2.93005
0.819337 6.52589 1.66662
2.52358 3.48787 -2.65313
-2.07896 7.80275 3.1862
-3.59742 6.52434 1.53709
3.4332 3.14529 -1.52867
-0.499823 6.56585 -2.28214
-1.22151 5.46603 -1.4958
-0.934382 4.70518 -1.82091
-3.75332 6.26359 1.18982
-3.74587 4.5172 1.18834
-1.41117 3.55933 -1.38985
-3.31776 3.95186 1.82433
2.50049 2.872 -2.62842
3.26498 3.26176 -1.85518
-0.492715 4.3774 -2.21913
-1.54209 4.39754 -1.20537
-1.76687 3.15816 3.38035
-1.78877 7.08109 3.43048
-3.28957 5.74095 1.80787
1.65335 4.17979 0.79175
0.852403 6.17365 1.62049
-0.523354 3.64064 2.76289
-1.27483 4.82762 -1.47777
-0.269509 4.75935 -2.40648
1.38524 5.79707 1.54241
-0.513388 7.62156 -2.20346
-1.58191 5.72234 -1.2602
-3.05461 3.46186 2.09106
2.23752 6.29835 -2.85539
-2.84336 7.07979 2.3867
1.39071 6.99651 -3.58104
-3.08864 7.61749 2.11677
-2.00603 5.16644 -0.780285
1.39608 4.48497 1.02675
0.574864 5.62962 -3.11195
-0.836668 4.27216 -1.89316
2.73954 2.93453 -2.36469
-1.36207 4.59288 3.37367
-0.262953 5.67288 -2.40436
-1.23028 6.64339 -1.57062
-2.06417 4.62861 3.1526
-0.477044 4.96014 -2.23366
2.94447 7.49073 -2.07586
1.34249 6.43563 1.12879
1.58397 4.25271 0.837726
0.0175434 3.93462 2.29544
-0.742099 4.77066 -1.99994
2.34601 4.21408 -3.00182
0.56797 4.91184 -3.18241
-0.0520437 4.75297 -2.61398
-2.06385 3.43017 3.147
-0.24702 5.31209 -2.40493
-3.53275 4.96213 1.5096
-2.77301 3.33928 2.32212
-2.10689 6.77341 3.21946
-1.7496 6.21874 -1.05449
0.197751 3.08312 -2.88489
-1.37995 7.27062 -1.38263
-2.02363 3.102 -0.815428
-3.52947 3.82583 1.51561
1.38441 2.87048 1.05115
-2.31959 3.39558 2.87783
2.23957 6.05741 -2.87435
1.61454 3.2721 0.895289
-3.0445 8.09205 2.08351
-2.27098 2.90314 2.83355
-3.30403 5.14901 1.81742
-0.0386832 6.196 -2.66555
1.52628 6.90796 0.938413
-3.09295 7.15882 2.11993
0.212115 2.84299 -2.85561
0.578581 4.45801 1.8288
0.875619 4.35578 1.61125
-2.0383 6.35012 -0.785752
-1.38954 6.50074 3.43118
0.919648 8.1356 1.39228
-3.29685 5.97451 1.81402
-3.54513 5.21636 1.53505
-2.05915 4.55387 3.15
0.937457 7.32006 -3.38633
-0.489997 2.94903 -2.29636
-1.0728 4.16621 -1.65056
-0.218826 4.81871 2.51739
-0.639377 3.91585 -2.09618
0.247991 4.20709 2.13135
-2.59431 6.71206 2.65165
0.982682 7.0719 1.46113
-0.227913 6.27015 2.52212
-2.05696 3.38231 -0.79845
0.234442 5.73782 -2.87388
0.216998 4.31489 -2.92509
-1.80327 5.69503 3.4441
-0.884824 5.95823 3.00838
-2.06487 3.23092 -0.797012
1.41155 5.43974 -3.64098
-1.52735 6.94649 -1.20527
-2.02351 3.50905 -0.774366
-1.3412 6.77479 -1.47751
1.36719 6.22485 1.06154
3.14255 7.54006 -1.78631
-1.36126 5.79231 3.37561
-0.496774 5.66568 2.71301
3.24535 3.77283 -1.84668
-0.667815 6.067 -2.08555
-1.67311 3.09805 -1.21647
2.98449 4.05373 -2.10455
-3.3147 3.60375 1.82285
-0.298027 2.9122 -2.47672
-3.30206 4.98078 1.81486
1.1118 5.82886 1.73074
1.31091 2.84694 1.11259
0.570829 3.11146 -3.18441
3.20024 6.23096 -1.81504
2.47805 5.36812 -2.60055
1.56918 4.50868 0.832893
1.04478 3.7884 1.38458
-0.485268 6.15842 -2.2835
-2.32966 4.42833 2.88857
-0.902589 5.32515 3.03809
0.252722 7.37983 2.14498
0.00826699 3.59333 2.29653
2.17917 5.81797 0.62789
-3.30654 5.21111 1.81598
-3.73537 3.86835 1.18589
-0.282958 7.55468 -2.38119
-0.282284 7.73476 2.56943
-0.0320904 2.93823 2.35285
-3.56299 5.55441 1.52601
-1.17241 5.93774 -1.62913
1.70284 5.73061 -3.3662
-3.52068 4.30753 1.50723
-0.236088 6.90396 2.53652
0.543802 6.60774 -3.09413
2.24452 6.12637 -2.87697
-2.84428 6.57757 2.3858
1.40437 3.4086 -3.59991
0.986526 7.35689 1.56594
1.21772 4.89224 1.24436
1.32422 6.84309 1.16241
-0.80811 4.90341 -1.94777
-0.0669069 6.55685 -2.61473
0.393794 4.28302 1.93012
1.23913 6.48498 1.19361
-0.281094 7.80445 -2.37699
1.39354 7.26512 -3.58801
3.13528 8.12174 -1.78174
-0.67864 3.03219 -2.1419
3.0187 3.35932 -2.12331
-0.971904 5.62306 -1.78319
0.779135 8.12186 1.5176
-3.76703 4.70365 1.19453
-2.99153 3.18313 2.05576
2.23298 5.55009 -2.85805
-2.32497 4.0591 2.89115
0.986466 5.02082 -3.52922
-1.3856 5.61661 3.42012
-3.06194 3.92472 2.08834
-1.39741 4.162 -1.35086
1.64403 7.12844 0.851842
-2.04236 3.1098 3.12555
-0.97612 2.79557 -1.83887
0.216312 6.94952 -2.83602
0.560635 3.61208 -3.17132
2.74305 3.01566 -2.36772
1.30568 6.72265 1.17103
-0.308092 6.39068 -2.42431
0.0296253 4.69552 2.28038
0.0058357 4.1426 2.33785
-2.54457 3.81101 2.59798
-1.49542 3.25173 -1.40329
-0.857344 3.32301 -2.05597
-0.884486 3.13331 3.03849
0.221878 6.46178 -2.86431
0.586225 5.33828 -3.1343
0.956941 7.50237 1.58346
-1.4796 3.75802 -1.26049
3.34364 8.07397 -1.49408
-2.13631 5.61158 -0.61556
1.12943 7.53362 1.36547
-3.08382 6.22994 2.11
-1.86817 3.14088 -0.96525
-2.06417 4.40892 3.15032
-1.55352 2.78627 -1.26645
1.31931 6.10701 1.115
-0.0311975 6.7345 -2.62528
1.24606 7.41889 1.21214
0.654664 8.08434 1.64808
1.30463 7.34518 1.15293
-1.89209 4.57151 -0.826606
-0.647026 5.24562 -2.11223
2.74167 2.96445 -2.36653
-0.832607 6.21624 -1.92253
-2.7529 2.83455 2.30935
1.39248 5.89377 -3.59341
1.41823 4.62644 -3.65489
1.05989 4.23634 1.39962
2.99223 5.82368 -2.10975
0.590256 7.622 1.85224
-3.31263 6.73195 1.81912
-2.50971 2.84559 2.56285
-2.59947 7.05075 2.65267
2.48213 6.0344 -2.60558
-2.96633 2.96386 2.02734
-0.285951 3.96964 -2.38444
-2.35465 6.08338 2.92762
1.3817 6.52004 -3.57575
-0.536934 6.18454 2.76145
-0.895302 6.74929 -1.88898
1.25784 5.14955 1.39883
2.47839 5.18996 -2.60311
1.23424 6.36925 1.20239
0.546506 7.72231 -3.05379
-3.7694 5.58638 1.19473
-3.28808 3.44382 1.80729
-0.487575 6.36722 -2.30225
-2.78099 5.20774 2.33102
-1.8112 7.63625 3.44172
-3.31357 6.86518 1.80781
-3.32007 6.43666 1.82423
-1.39023 7.45366 3.37398
0.811076 8.02456 1.56266
1.84478 5.29153 0.909187
2.26788 4.89967 -2.90458
1.36276 4.57229 1.05048
2.24031 6.00053 -2.87416
-1.27232 2.82199 -1.52434
-2.00552 6.42024 -0.814059
0.993464 4.21452 -3.55831
-3.38591 3.21019 1.4497
1.03559 5.78782 1.83532
-2.0775 3.62618 -0.591454
-1.81198 4.86502 -0.933161
2.06611 4.89764 0.406096
-0.285734 7.88966 -2.3633
0.437549 5.61374 2.31128
-0.0520163 7.80806 -2.60046
-3.62934 3.16679 1.15315
-1.35956 4.53291 3.36711
2.48725 3.9502 -2.61203
-2.02737 3.73596 -0.622804
-0.885817 6.64417 3.01141
1.81506 3.789 0.570286
0.985777 4.84166 -3.52905
1.69529 6.34247 -3.35637
0.55307 2.98287 -3.16515
-2.58516 6.01363 2.63967
2.23857 5.48977 -2.86661
3.46537 5.94634 -1.54308
0.961563 6.72248 -3.4328
-3.07586 6.76191 2.10706
-2.32643 4.71776 2.89512
-0.893478 4.42994 3.03616
1.77959 3.25767 0.727209
1.27983 7.00393 1.16581
-3.09878 5.69132 2.12119
0.646782 6.43114 1.78863
2.0142 3.64993 -3.17223
1.09269 5.96165 1.61071
2.17349 7.92141 -2.7797
-1.3558 6.07791 -1.48273
0.452198 5.4109 2.30699
-2.79329 3.56269 2.34344
-0.958086 5.73446 -1.8293
2.0045 4.07737 -3.15931
0.0195273 7.42281 2.34481
1.13294 7.34805 1.33386
2.7319 2.87022 -2.35809
-2.59779 7.01099 2.65139
-1.54659 3.93444 -1.20598
-1.8755 2.95252 -0.956576
-3.3411 3.0177 1.43793
-2.58189 4.76299 2.63659
-0.500752 3.5816 -2.22756
-1.77385 8.00114 3.3952
0.554236 4.62198 -3.17488
0.456168 5.0553 2.12338
-1.38568 6.25752 3.42771
-0.0561386 4.35898 -2.60576
0.575363 4.3181 -3.21541
1.99789 4.29264 -3.14772
-3.74659 5.4128 1.1813
1.37205 3.47816 1.13133
-1.87552 5.91578 -0.930131
2.99291 4.56999 -2.1128
-1.98634 5.65932 -0.776757
-1.35857 5.38911 3.36677
0.402284 4.4129 1.92881
-0.0455524 5.04408 -2.62998
1.99227 4.45341 -3.13347
-2.34499 6.85436 2.91625
-0.211572 4.32619 2.4718
0.218105 5.14623 -2.89966
0.464447 3.53837 1.97688
-0.521266 5.509 2.7173
2.00027 4.20876 -3.15332
-0.487281 7.83463 2.70364
-2.32707 4.64609 2.8986
0.208771 2.82984 2.14598
0.888295 6.26935 1.60249
2.98724 5.50923 -2.10639
1.50697 4.26079 0.90561
-3.75794 3.99808 1.19206
1.97887 5.55058 -3.12336
-0.819116 3.98741 -1.9103
2.24975 3.96099 -2.88028
-1.79736 7.71668 3.42714
-0.0631883 4.87398 -2.60556
2.25981 4.98071 -2.89285
3.23692 3.89581 -1.83924
-1.23231 5.11558 -1.57775
0.994234 3.99281 1.44578
-2.04354 3.18715 3.13135
0.473467 6.24066 1.91689
-1.76174 4.07058 -0.986488
1.05182 7.3579 1.48994
1.42277 3.90446 -3.66719
-1.30093 3.28861 -1.54333
0.217372 6.67386 -2.84586
-1.86556 5.29991 -0.86151
-3.52463 4.35744 1.50888
-1.67395 4.97686 -1.07595
0.988153 4.96048 -3.53559
-2.33407 5.44626 2.89936
2.23369 5.82646 -2.84576
-0.0137227 7.91537 2.32195
0.601229 6.33537 1.83018
0.222568 3.24679 2.18804
-0.665493 6.42664 -2.14207
1.38483 6.85519 -3.58315
-1.04949 5.1466 -1.75143
0.862083 5.72827 2.01708
3.4991 4.14422 -1.55551
0.499173 5.61994 2.28021
-1.27014 6.04536 -1.54255
1.27552 3.86086 1.1671
-0.534085 4.52852 2.78728
0.603582 3.36992 1.88474
-0.225386 4.02039 2.45645
-0.520164 6.45574 -2.27395
2.27961 4.94029 0.21279
-0.890722 7.06127 3.01467
-1.80932 6.21604 3.45901
1.74735 4.22705 -3.43605
-0.288833 2.97293 -2.50075
-2.57935 4.81951 2.63399
2.73772 5.05028 -2.36301
-2.06873 5.78995 3.17112
-1.76809 8.09192 3.38093
-1.30488 3.56694 -1.46379
3.24012 3.95536 -1.83936
0.718875 6.33722 1.74356
0.400239 6.61878 2.0007
-2.1152 6.68887 3.22769
-1.34967 5.22838 3.33974
-1.35777 3.08663 3.34443
-1.80939 4.98909 -0.941844
0.573858 6.64627 1.85904
0.677259 5.09937 1.97737
1.20128 2.90171 1.2633
-2.52523 3.22762 2.57633
-2.07818 5.12265 3.18256
1.7136 5.97622 -3.35617
-1.23629 5.81323 -1.59138
-0.832573 2.75659 -1.94279
2.26332 4.71878 -2.89483
1.31238 4.15813 1.0927
-0.22154 6.70623 2.53297
3.21087 6.00301 -1.82578
-0.900825 5.00727 3.04835
-1.35406 5.32738 3.35343
-0.885501 3.33331 3.04963
-0.537529 3.92992 2.7868
-0.869903 6.63551 -1.91913
-1.23653 4.24459 -1.50533
-1.02198 8.27224 -1.46143
1.98034 5.63311 -3.11343
2.47053 7.66211 -2.59431
-0.0594206 3.67153 -2.59871
-0.510124 2.98558 -2.28115
2.48271 5.13677 -2.60706
-3.73825 3.93629 1.18782
-1.6935 4.32867 -1.08664
-2.59613 6.61188 2.65102
-1.80873 5.98788 3.45653
-0.0574374 5.18029 -2.61883
-2.32237 4.12752 2.88775
1.0961 7.27367 1.3942
-0.707238 7.10851 -2.05556
-0.294575 6.26903 -2.42659
0.99142 3.66229 -3.57716
-1.31438 5.09995 -1.49583
-0.980407 8.3052 -1.49205
-3.06646 5.25772 2.09813
-0.84419 8.26509 -1.6624
-0.652674 6.57208 -2.12628
3.2503 3.04531 -1.84206
-3.20152 2.77032 1.75921
-1.375 4.70231 3.38912
-1.09432 7.12965 -1.69357
0.736321 7.28478 1.73071
-3.7416 4.84019 1.1883
1.20806 7.73412 1.28633
1.39725 6.1468 1.01733
0.782526 5.15884 1.94626
-0.502901 4.4595 -2.21453
0.2107 6.89928 -2.84044
-0.199375 6.96931 2.507
1.09311 4.62101 1.39621
-0.488754 3.12361 -2.3143
1.55611 6.22098 0.833061
2.21003 7.6867 -2.8285
-0.278751 6.89172 -2.39286
-3.76435 4.60216 1.19412
-0.548092 3.09028 -2.26988
-1.0065 3.1903 -1.87124
0.212857 2.92507 2.15666
0.220208 3.36532 -2.9074
0.949066 8.02706 1.42686
-1.56294 3.81963 -1.19246
-0.290162 3.64912 -2.40694
1.2612 5.35028 1.57994
0.528179 7.39281 -3.06569
1.59262 3.38166 0.910594
-2.59362 6.55669 2.64852
2.92585 8.01798 -2.06438
1.71699 4.73469 -3.40499
3.19845 5.81886 -1.81642
-1.70199 5.7048 -1.09086
-0.480608 7.03016 -2.27826
-0.50082 5.04262 -2.23438
3.40642 7.41796 -1.51666
1.46028 7.25111 1.0447
-2.80121 4.56941 2.35046
2.52457 3.4235 -2.64947
2.71411 6.07495 -2.34345
-0.844048 2.93502 -1.96084
-2.10889 6.58767 3.22471
2.72373 3.29611 -2.35314
-0.237781 7.01801 2.53671
-0.877642 3.21207 3.04145
1.6574 3.92562 0.807911
-3.05753 5.08478 2.09601
-0.280282 4.22141 -2.39345
-0.634882 5.51947 -2.09738
-1.43222 3.40527 -1.43872
-3.54178 5.71427 1.52325
-0.0611468 5.2407 -2.60347
1.17323 4.46295 1.32209
0.7045 4.63487 1.72625
1.31887 3.06883 1.20014
1.41594 5.34477 -3.65213
3.27379 3.37684 -1.8594
2.00167 4.77163 -3.15353
3.22549 4.92223 -1.837
-1.63045 3.17581 -1.26522
2.58525 4.32275 -2.73764
2.00738 4.81635 -3.162
-0.512902 5.96446 -2.28158
1.07655 2.84447 1.36224
0.934196 7.54908 -3.34251
-2.97428 2.87347 2.03566
-2.37393 7.35282 2.95573
-2.85447 6.36729 2.39568
2.9285 8.0645 -2.06524
-0.304337 7.31455 -2.40919
-2.57315 5.40342 2.62674
0.551822 3.82031 -3.15118
1.00021 2.8868 1.48259
-3.09726 7.29973 2.12234
2.9826 4.61932 -2.10328
2.98466 4.24361 -2.10758
-2.83964 5.66817 2.38572
1.84636 4.79659 0.585613
0.972994 6.15219 -3.47997
1.02609 6.12013 1.47243
1.28674 4.07609 1.14694
-1.47244 5.47993 -1.19262
1.98317 5.40834 -3.1312
-1.21852 3.40881 -1.56173
3.19204 6.49086 -1.81325
1.42673 3.73183 -3.67857
-2.82757 4.75828 2.37498
3.46708 6.29503 -1.54322
-0.88368 4.24313 3.00684
0.204969 4.62208 -2.91523
-2.01561 2.98921 -0.79754
2.01099 3.93539 -3.16059
-1.393 5.73033 -1.42773
0.175004 5.50241 -2.79281
-1.38483 3.90031 -1.36965
0.966201 4.20664 1.49067
-2.07095 5.72221 3.16108
-1.04241 6.04995 -1.78492
0.231347 3.99112 -2.92039
-1.77313 4.14399 3.39278
1.41551 5.387 -3.6512
2.00835 3.41298 -3.17439
1.40824 3.39987 1.11971
0.568116 4.03359 -3.20094
-3.31358 4.05473 1.82088
-3.54742 5.61602 1.54104
-1.40475 5.85368 -1.42095
-1.13391 6.30096 -1.65729
-0.844681 2.81518 2.96579
2.77066 3.97226 -2.39131
1.62454 2.93404 0.85637
0.935009 5.45258 1.91716
-1.03098 5.80763 -1.78577
-1.00813 6.72326 -1.79665
-3.58157 7.11514 1.53202
-1.00231 3.51311 -1.83025
2.473 7.61259 -2.59669
2.18224 7.83756 -2.79391
0.782784 7.74252 1.69733
1.01961 3.90707 1.4013
-1.11577 7.73255 -1.60092
0.53463 7.79293 -3.04493
1.84383 4.31354 0.549721
-1.80445 5.83808 3.44711
0.0174087 5.58305 2.58295
0.0513028 6.93319 2.28239
0.225124 7.92264 2.14106
1.36761 4.86927 1.07863
0.220895 4.32261 2.16317
0.020445 3.8699 2.28481
-3.74247 3.68615 1.1894
-1.17969 6.82009 -1.61513
-1.88967 3.78559 -0.818228
-3.34946 7.37296 1.84222
0.0178046 7.241 2.34873
-2.32957 5.7161 2.88737
-0.888596 4.52924 -1.8507
0.541768 6.07223 -3.1023
1.06214 4.48563 1.42059
1.39903 6.80101 1.09865
0.990983 6.75158 1.4838
1.04928 3.38377 -3.51989
-3.17864 2.85454 1.74633
-0.712651 6.49766 -2.08959
2.71355 5.87032 -2.34408
0.20031 7.90312 -2.7214
1.20475 7.54661 1.25306
2.94572 4.90366 -2.07831
-2.79444 3.85867 2.34659
-2.33367 5.9072 2.90713
2.51587 3.71363 -2.64159
1.63871 6.64455 0.810907
-0.50203 6.27176 -2.28332
-1.38568 4.46443 -1.35298
2.74968 4.79963 -2.37373
-1.5344 3.52866 -1.29482
1.02946 6.15407 -3.54666
2.22927 5.60603 -2.85113
0.892542 4.13901 1.55825
0.714582 4.49249 1.73513
-2.77894 3.67608 2.32945
1.42436 3.84374 -3.67121
-2.57285 4.0662 2.62743
-0.289285 5.97256 -2.48571
-1.1303 4.23598 -1.5988
-0.0680693 6.14836 -2.6398
0.964809 6.43014 -3.44598
-0.870398 6.37554 -1.88818
-1.09948 2.93721 -1.76432
2.45408 6.98891 -2.57676
2.71252 5.63464 -2.34204
-2.08491 6.01557 3.17586
-3.30317 5.03217 1.81568
0.881197 5.24599 1.86241
-1.75818 3.94776 -1.01419
2.48524 5.77419 -2.6075
2.48561 5.03041 -2.61
-1.62734 3.26968 -1.25957
-1.62445 5.42498 -1.01527
0.198207 4.7245 2.14999
-1.21963 3.52803 -1.53716
-1.81052 7.50017 3.44868
0.20801 5.02991 -2.89909
-0.99172 6.81132 -1.81778
1.29843 5.76508 1.60072
-0.223764 6.10983 2.51966
-3.31678 3.89532 1.82565
-2.32848 5.12402 2.88876
-0.250373 4.96018 2.66914
-3.32525 4.50235 1.82605
-1.34513 3.50495 3.34234
-2.50546 2.94032 2.55809
0.221148 3.79011 -2.91803
1.50688 6.78086 0.971089
-1.95962 4.53738 -0.761575
1.97971 6.23615 -3.12509
0.973538 6.04701 -3.49185
-3.30794 6.06968 1.81515
1.03882 3.01755 1.48704
-0.975609 5.47708 -1.78541
2.21301 7.22945 -2.83523
-1.53929 5.39832 -1.12967
-2.3496 6.1414 2.92384
1.48043 4.7773 0.937904
2.22053 6.70521 -2.84135
3.14006 7.87097 -1.78066
1.67479 3.21405 0.835083
1.47705 6.38414 0.993317
-3.58359 7.04904 1.53131
1.1973 7.12479 1.28115
-2.30052 3.34431 2.88041
-3.31532 8.16757 1.82537
1.71173 6.43959 0.726806
-2.32642 4.79003 2.89303
2.21913 6.76599 -2.8394
1.52148 7.70388 0.974324
-1.86531 6.64173 -0.933189
0.335149 2.15477 -0.213583
-1.48187 7.6208 -1.24636
2.2233 6.53228 -2.8502
0.0248779 5.65282 2.58727
0.197536 4.1008 2.16013
-1.39682 6.2114 -1.43773
-1.67753 4.06653 -1.09343
-0.300741 4.82527 -2.38675
-1.69918 4.80211 -1.03389
1.42668 3.67702 -3.67964
0.380857 3.76337 2.03019
1.41864 3.52514 -3.64209
-1.38188 6.38272 3.42531
0.670154 3.48602 1.83007
-2.07839 5.57405 3.17305
0.0201431 7.85544 2.33049
0.941487 7.67317 1.57658
2.52264 3.62827 -2.65112
-1.76605 3.25624 3.38805
3.42628 6.99048 -1.52474
1.82891 4.14337 0.558799
1.55747 5.64756 1.35865
-1.078 6.4936 -1.69422
0.850589 3.21676 1.69548
1.53576 6.42564 0.906313
-1.04538 3.78915 -1.75132
0.540254 6.17313 -3.097
-2.50824 3.05438 2.56222
-1.78373 4.2242 3.40024
-0.645707 6.28748 -2.13544
0.572201 3.1939 -3.18475
-1.74413 2.94339 -1.12316
-1.50834 7.70607 -1.22534
3.20411 6.18141 -1.81775
-0.283792 5.05169 -2.44057
1.15042 3.31248 1.40397
-0.53169 4.61934 2.79076
3.04504 3.44205 -2.14127
-2.81967 7.42614 2.36583
0.767958 4.12023 1.68663
1.71555 5.87726 1.1123
-0.233257 6.50265 2.54915
-2.58167 4.70812 2.63604
-1.37413 4.84352 3.4029
0.596085 7.08112 1.87334
-0.53005 4.32182 2.77582
1.19026 4.57286 1.30362
-2.07337 4.98195 3.16866
-2.59349 6.76955 2.65008
0.971742 4.00527 -3.54158
3.24332 2.93019 -1.84106
-3.75667 5.29048 1.19484
3.45433 5.99989 -1.5383
-1.42375 4.85705 -1.34349
-0.0527521 7.53963 -2.59512
-0.315504 6.18585 -2.42403
-3.58154 7.36547 1.5351
-0.523574 6.71303 2.75597
2.20593 7.51409 -2.82278
1.09564 7.99754 1.31107
-1.81116 6.60474 3.45772
2.98911 5.63529 -2.11115
-1.57209 5.223 -1.26087
1.39156 5.71678 -3.58779
-2.84659 7.69771 2.3882
0.252767 5.24815 -2.92001
0.582258 7.1741 -3.13828
-1.30743 6.68308 -1.50878
1.39332 6.23417 -3.58188
-0.985762 4.60138 -1.76459
-2.28464 2.99631 2.83115
0.372582 4.17677 1.96766
1.74038 6.90843 0.72718
-0.826434 7.22578 -1.91169
3.23869 4.01588 -1.8327
-1.23166 6.52144 -1.55243
-3.31625 3.65358 1.82211
-0.0614993 4.13971 -2.60988
-0.0509385 7.77141 -2.60599
-2.11762 6.51235 -0.667449
3.40818 7.61981 -1.51486
3.41999 6.86449 -1.52684
1.52719 4.60632 0.874964
-1.43663 6.02656 -1.40211
-0.0468956 7.86333 -2.5954
-0.524961 6.99836 2.73199
0.124409 5.60044 -2.76936
-1.01884 4.30065 -1.72482
-1.37472 5.09071 3.39272
-1.69018 6.72546 -1.11577
-2.3357 6.40836 2.90003
2.3336 5.63779 0.449985
-2.84091 7.15287 2.38239
1.46534 6.70284 1.02866
-0.490567 6.02466 -2.28093
-0.733885 8.27496 -1.75399
-0.533485 4.48785 2.78538
-0.479022 7.93157 -2.20647
2.73094 6.42895 -2.35713
3.21086 5.17438 -1.8189
-1.00025 6.40828 -1.75522
2.71435 5.81033 -2.34215
-3.31211 4.70184 1.82183
1.38633 2.79832 0.944552
-0.891422 4.37835 3.02879
0.179853 3.17951 2.20827
3.46616 5.18722 -1.5412
-2.32284 4.98304 2.88492
2.51247 3.32486 -2.63577
-1.75939 4.06728 3.3946
1.54036 2.95276 0.959691
-1.44432 6.5192 -1.37928
-0.966206 6.65518 -1.82742
-3.62656 2.94212 1.15666
3.26289 3.63053 -1.85126
-0.89623 4.16886 3.03514
-0.292205 5.92327 -2.4868
-2.83082 6.73408 2.37578
-1.48569 4.33609 -1.24237
-1.31062 6.48285 -1.49062
-1.94147 4.44467 -0.765843
-2.78211 3.61986 2.33266
-2.82613 5.49421 2.36949
-0.786197 4.34797 -1.95282
-2.33811 6.33632 2.90682
-0.835268 4.99318 -1.93007
-1.39954 2.82956 -1.39968
-0.513195 3.98463 -2.18541
-1.16506 6.4256 -1.62616
2.51061 2.95157 -2.63778
-3.74329 3.40197 1.18359
1.78742 5.59007 1.12783
0.98263 5.56607 -3.47744
-1.484 7.51496 -1.24086
1.47433 5.7679 1.44587
-1.20864 3.81361 -1.55635
-2.32256 3.91143 2.88969
0.406235 7.92836 1.98291
0.213417 3.88504 -2.91222
-1.35891 7.8653 -1.40399
0.198534 3.4237 -2.88783
0.558632 4.11167 1.82484
-1.33324 3.0059 -1.54176
0.749046 7.46928 1.72258
0.9227 2.84968 -3.42517
0.237732 3.64965 -2.92261
-1.11019 3.31304 -1.70774
1.14039 2.75268 1.13012
0.970007 2.92641 -3.43815
-0.986562 5.99298 -1.84317
1.78122 4.50098 0.647317
0.0498914 6.81254 2.28671
-2.60287 7.55644 2.66283
-0.287256 3.01864 -2.50929
-1.09333 7.83089 -1.61499
-3.06277 7.88054 2.09958
-1.7856 3.76221 -0.996859
-0.3503 5.48977 -2.28198
-0.882733 3.51793 -1.94175
-1.76896 3.29723 3.37659
-1.79927 7.00664 3.43545
1.15942 6.47571 1.25572
-0.29544 3.34428 -2.4807
-2.08558 5.27959 3.19224
1.5951 7.44182 0.913337
-1.7954 4.60758 -0.937266
-0.209717 4.38854 2.46982
-1.80562 6.45347 3.46368
-0.999959 5.21192 -1.8038
0.960838 5.85718 -3.44581
-1.34522 4.48308 3.34073
0.932085 7.47325 -3.35157
0.538626 7.5438 -3.05312
0.577875 6.24019 1.84809
1.39527 6.04284 -3.59753
-1.35451 3.84533 3.35566
-1.19518 7.61623 -1.5441
1.13158 5.16071 1.5715
1.58346 4.83739 0.861443
2.50364 3.79364 -2.62794
-3.35033 7.77254 1.84825
0.565093 2.85227 -3.14568
-3.34755 7.57317 1.83726
-0.290967 3.36784 2.60428
-0.254073 5.64798 2.70306
3.4575 5.84656 -1.53956
-3.55515 5.6694 1.51116
-1.87019 3.23142 -0.95543
2.71322 5.69091 -2.3407
-0.517375 3.18252 -2.29297
1.25433 8.16894 0.999399
3.50259 6.37415 -1.55652
-1.43575 6.30167 -1.38801
3.45774 5.78893 -1.53957
2.22284 5.6599 -2.8459
1.72725 3.61785 -3.40954
-2.56481 5.2722 2.62072
0.742934 4.31852 1.71895
0.388835 7.38448 2.01652
3.40207 2.83711 -1.51712
-3.76607 5.78222 1.19391
-0.0470088 7.93304 -2.5807
1.00305 3.61642 1.50771
-1.78226 4.69353 3.40683
-0.642436 7.79665 -2.07755
-1.87748 6.16253 -0.937694
1.01253 4.76506 1.46704
1.09563 6.44921 1.34707
-1.29223 5.01073 -1.50586
-0.904036 4.82152 3.06827
-0.0415549 5.85285 -2.66899
1.41207 2.93595 -3.58537
-3.31403 6.6092 1.82349
1.77533 4.06033 0.66236
-1.45528 4.23266 -1.29012
-3.75275 5.13877 1.19285
2.47445 5.30745 -2.59865
1.69852 5.3918 1.17338
-1.03592 5.92047 -1.8016
-2.57766 5.63968 2.63213
-1.76508 3.4894 3.41442
-0.820617 5.71153 -1.93917
-1.37624 5.51843 3.40407
2.16081 5.379 0.641897
-1.1326 3.49302 -1.62797
-1.69352 5.12136 -1.05397
1.34045 4.65956 1.07969
-1.54883 2.8883 -1.29456
1.1624 3.3968 1.37412
1.35674 7.62926 1.12038
3.35493 7.97493 -1.49808
-1.81748 2.89586 -1.01592
-1.33541 3.0011 3.33837
1.00638 3.94974 -3.59733
0.0188467 7.54854 2.34982
2.22263 7.60683 -2.8444
-0.042825 7.61487 -2.61174
3.47408 4.85573 -1.55091
0.54753 6.78829 -3.10547
-3.32364 6.3678 1.82675
-0.863991 5.78783 -1.92351
2.0104 5.45012 0.819476
-2.04254 6.02602 -0.782103
-1.24345 5.60231 -1.5202
1.96417 7.03058 -3.09537
1.76085 5.47993 1.15827
-1.426 7.20849 -1.34678
2.48006 5.48362 -2.6034
-1.80813 6.06693 3.462
-1.22721 8.27138 -1.2857
-2.11334 4.62584 -0.608741
1.33768 4.38548 1.08458
-0.44905 7.42507 -2.25698
-1.36807 2.83183 3.32919
3.41885 6.39858 -1.52146
-1.4056 7.02833 -1.3545
-3.54809 8.12297 1.52029
-0.241895 7.39943 2.54034
0.968037 5.50496 -3.46958
2.9298 7.63272 -2.0656
2.24076 5.24836 -2.86229
1.41652 4.84699 -3.65223
2.94491 6.25561 -2.07937
-2.04695 3.75357 -0.585223
-3.76402 6.13127 1.19778
-0.807641 5.57747 -1.91691
2.48256 5.42676 -2.60422
0.235922 7.2609 2.16493
0.221751 6.32326 -2.86675
0.648052 4.84607 1.76058
-0.867153 3.42524 -2.02804
-0.0435483 7.83492 -2.60264
-3.74654 7.16663 1.18843
-0.890331 4.31598 3.02469
-3.71956 4.359 1.18142
-0.96256 3.86264 -1.80909
0.540484 8.28192 1.6777
3.13246 7.79065 -1.78118
-2.54964 3.86299 2.60449
1.13396 3.49146 1.36756
-1.53427 7.59266 -1.17771
1.6668 3.02299 0.854421
-1.36831 3.91188 3.34436
-0.894183 3.68707 3.03614
0.215331 3.946 2.15269
-0.529116 3.1499 2.77245
-0.205775 7.53723 2.52092
0.642024 5.7903 2.15161
1.70925 4.78062 0.722504
2.71101 5.74666 -2.34067
1.79372 3.07273 0.715233
-2.07089 5.64887 3.16585
0.564683 3.05252 -3.17939
2.49217 3.8715 -2.6171
2.93182 8.10983 -2.06619
2.97193 4.67847 -2.09547
-3.32725 6.19343 1.82317
-1.10807 5.97612 -1.69904
0.540267 7.14169 1.93066
3.39347 7.48676 -1.50998
-3.60506 7.58791 1.54384
1.96944 6.59042 -3.09928
-2.10408 5.25844 -0.609068
1.7315 4.98044 -3.41412
0.934403 7.37171 -3.37257
-0.719081 3.25608 -2.18624
-3.07609 6.83197 2.10789
0.183736 3.85264 2.19187
-2.79159 4.42724 2.34248
-0.978457 4.89923 -1.79779
1.03899 6.38381 1.41557
-0.0558694 7.1284 -2.58739
1.6783 6.28076 0.70612
0.215081 6.78487 -2.84792
2.45168 7.06214 -2.57353
0.0154183 7.17882 2.34495
1.03722 6.82461 1.43059
0.388534 4.82273 2.00765
-0.945484 7.39179 -1.80788
-2.57994 6.19971 2.63522
-0.239064 5.28558 2.71296
-0.707162 5.45405 -2.02031
-1.94526 4.3517 -0.752678
-2.07837 5.49977 3.17665
-2.06567 3.66443 3.15806
-1.5043 4.01758 -1.25636
1.71003 6.53979 0.740041
-1.79028 4.86088 3.43179
-0.49258 3.03785 -2.30872
-2.7906 3.43952 2.33911
-2.33068 5.77754 2.89676
-0.86916 7.68121 2.99016
-0.0516795 4.69126 -2.61709
-0.982263 7.03394 -1.79526
0.232855 5.20198 -2.90915
-1.11978 5.06715 -1.65244
-0.285731 4.0925 -2.3834
-1.82237 5.97677 -0.988341
-1.33574 5.24586 -1.47272
-2.11076 4.75132 -0.601515
-1.33903 3.39974 3.33929
-0.223599 3.96464 2.45383
-0.536519 6.02491 2.75312
-0.947982 5.36947 -1.83001
-3.57701 6.0734 1.5245
-0.699071 6.23807 -2.07098
-0.282764 4.15622 -2.38794
-1.67955 3.75793 -1.11056
2.9435 7.17661 -2.07586
0.851783 7.15941 1.61948
-1.87199 4.19056 -0.836637
3.46228 3.63114 -1.54438
2.01682 3.60985 -3.17437
-3.76253 4.89087 1.19341
-2.31843 3.98801 2.88305
-2.53393 3.40174 2.59229
2.49351 4.01869 -2.6184
1.04857 4.87329 1.43655
0.0214192 5.37691 2.56856
-1.29061 5.36092 -1.46986
2.48915 4.78016 -2.61247
3.1292 8.28053 -1.77831
3.46211 5.67546 -1.53921
0.281368 4.85998 2.13196
-0.0604265 3.83273 -2.61011
1.56568 4.71279 0.854135
-1.25919 6.39747 -1.53216
-0.0313031 6.936 -2.61297
1.85581 4.41788 0.562001
1.35478 3.34037 -3.59927
1.41793 4.79297 -3.65591
-3.31916 3.70495 1.82171
1.70318 5.81587 -3.35904
-0.523892 7.50736 -2.20097
-0.94294 8.06613 -1.6966
-3.05125 5.0267 2.08851
-1.17956 3.11991 -1.70514
-0.00985603 6.59432 2.35805
-0.700637 5.04212 -2.0564
1.48606 5.04978 1.16669
0.989676 3.87636 -3.5466
0.0256407 6.73943 2.32064
1.07689 5.19325 1.66309
-0.285367 3.71262 -2.40287
0.253272 4.10706 2.11273
-2.82235 5.97321 2.3686
-2.02858 2.88559 3.1023
3.19475 7.13701 -1.81651
0.219124 2.89749 -2.8736
1.73735 3.8685 -3.43282
-1.04178 5.70206 -1.74016
-3.31295 4.11031 1.82073
1.42082 3.96827 -3.66507
2.69928 5.34219 -2.32942
1.39122 7.37531 1.07761
-0.506416 6.82975 -2.26099
-0.53549 4.818 2.79173
-0.852007 6.13663 -1.9128
3.42156 6.92521 -1.52517
2.96883 2.88996 -2.08919
-2.33183 6.53964 2.90321
0.0316382 3.80541 2.28011
-1.34009 3.45567 3.33795
-0.888738 7.87427 -1.83025
0.00650847 4.53502 2.29113
-0.887346 3.28537 -2.03106
1.24482 6.90812 1.21704
-3.50912 4.10517 1.5071
2.46756 7.44425 -2.59124
-2.03971 3.66429 -0.639637
0.981219 4.7809 -3.51622
1.3909 7.31617 -3.58364
-0.900331 6.11358 3.04838
-3.57607 7.19011 1.53212
-1.04512 4.98424 -1.7348
-0.471442 5.34413 -2.20945
-1.41329 5.48431 -1.30301
1.08999 5.47077 1.83019
-0.522157 2.83036 2.69901
1.18988 4.26663 1.23855
1.07186 7.1656 1.39175
1.02054 3.59208 -3.5894
-3.53577 3.76969 1.52075
-0.707068 3.36344 -2.19491
-2.50745 2.89061 2.55972
-0.687192 5.96349 -2.06473
0.0334445 6.52766 2.33252
3.20233 5.87478 -1.81653
-2.26543 2.975 2.85542
-3.75583 4.77359 1.19173
0.718025 6.05502 1.78066
-3.34528 7.51425 1.84147
1.39561 5.98725 -3.5985
1.44965 5.12915 1.26934
-0.0544955 7.07259 -2.58571
-3.30393 8.23008 1.81857
-1.12073 3.90006 -1.63812
2.68745 7.7325 -2.32082
-2.12589 4.38532 -0.589339
1.0032 7.16773 1.46361
2.70717 5.24043 -2.33727
0.50669 7.67223 1.92392
-3.069 7.80929 2.10035
0.995449 4.39462 -3.55968
-2.06089 4.47929 3.15059
-1.36695 4.92301 -1.40989
-0.63454 6.89182 -2.12576
-1.56723 3.32316 -1.32736
1.14034 5.62359 1.77684
-0.700017 3.46798 -2.13498
-1.87689 6.47769 -0.926752
-0.702031 7.62287 -2.03505
1.74194 6.81251 0.71787
0.449251 5.74412 2.29557
1.04615 7.49009 1.48304
-0.655644 3.76921 -2.08076
1.39373 5.93822 -3.59491
3.1841 6.91537 -1.81922
0.546606 6.83868 -3.10206
1.72084 4.57624 -3.39574
1.73537 3.59554 0.741843
-0.596302 4.59168 -2.1377
-1.37755 5.95926 3.40303
-1.65169 7.5789 -1.09759
-3.10014 6.38986 2.12247
1.23357 6.79829 1.23662
-1.70908 3.35347 -1.14376
1.40979 3.07326 1.12031
-0.947215 7.95804 -1.76032
-2.51568 3.16902 2.57014
1.96796 5.71656 -3.11832
0.974924 3.83261 1.45356
1.58717 3.05118 0.94941
1.71564 5.39577 -3.39436
-0.184488 3.21089 2.53462
3.2616 4.49926 -1.85883
-1.20698 7.16442 -1.57701
-3.76241 6.06315 1.19693
1.23812 4.50044 1.23558
0.991388 4.58034 -3.54937
0.56973 5.7601 -3.12184
0.555861 4.27422 -3.18295
0.95585 6.57611 -3.42082
-3.75019 4.23005 1.18903
-1.72319 3.5597 -1.09114
0.965329 5.93746 -3.46903
2.71964 5.1861 -2.34861
-3.3833 2.83285 1.44083
2.38183 4.30488 -3.04519
-0.899052 4.58097 3.05669
-3.51266 4.21196 1.50741
0.92222 7.88145 -3.31246
2.72854 6.71025 -2.35513
2.58649 4.37139 -2.74334
0.55383 3.89161 1.84312
-1.28096 4.30481 -1.46056
-1.81197 4.0018 -0.915115
2.29468 5.76509 0.471657
-1.50677 7.22532 -1.26645
2.2843 2.8756 -2.91746
0.0636366 3.22852 2.2916
-2.78279 3.79528 2.33768
0.330551 2.15502 -0.213718
-1.85915 4.79651 -0.867153
-0.287932 6.73943 -2.41403
0.919367 7.86965 -3.31115
0.938404 6.36449 -3.43851
-0.209954 3.56984 2.46499
0.685023 6.24446 1.77318
-0.000474106 3.30148 2.32267
-3.30929 5.39091 1.82037
0.411896 6.80413 2.00053
0.0315113 4.31711 2.31075
1.87071 3.62149 0.552899
2.00222 4.16347 -3.15733
1.73244 4.89468 0.727051
-1.80898 6.37151 3.45931
-2.08094 5.05308 3.17363
0.239912 4.0499 -2.92325
1.41811 5.19404 -3.64985
-0.966662 5.86995 -1.86903
3.02084 3.81616 -2.13329
0.247022 8.09322 1.97782
-2.31635 3.75908 2.88571
0.667851 7.17311 1.78959
0.569788 4.60265 1.84445
0.00315522 5.77122 2.5678
-2.5642 5.16088 2.61909
-0.645066 4.37714 -2.10649
1.45368 6.17009 0.9453
-0.859211 3.73643 -1.89881
-3.51491 3.8762 1.50482
-3.75641 4.17116 1.18968
-2.86065 6.42378 2.3989
-3.31985 6.12173 1.819
2.73032 5.12316 -2.35726
-1.79917 6.77132 3.45068
-2.09706 7.44618 3.20437
1.14206 7.21495 1.31948
-1.55683 6.0012 -1.28615
1.12739 7.08201 1.3486
0.888531 7.57115 1.62506
-3.08109 5.42476 2.11007
-3.04828 4.11377 2.08324
-2.83103 4.81257 2.37641
-2.82533 6.78714 2.37286
1.35713 8.14799 -3.50302
3.1909 5.57853 -1.80998
3.19387 6.54598 -1.81152
1.64582 4.95857 0.888692
-1.14988 4.11531 -1.57971
-0.295326 5.88093 -2.48607
-3.75769 6.52788 1.18932
0.241859 4.01367 2.12486
-1.98424 2.95739 -0.811958
-0.532568 4.44858 2.78366
0.23837 7.51549 2.17434
-0.219259 6.82439 2.52111
0.999863 4.45154 -3.56857
1.17223 5.51723 1.75621
0.544977 6.01422 -3.10966
0.89306 7.31767 1.63368
-0.829451 4.46832 -1.91475
0.844721 6.7522 1.64413
-0.853985 3.63021 -1.93097
0.393016 4.90838 2.05736
0.203169 7.42071 -2.80307
0.00874274 7.67478 2.35469
-0.230928 7.20378 2.54641
1.61911 3.68903 0.862097
-2.06446 3.34985 3.14543
-3.59763 6.83548 1.54819
1.04941 3.08257 -3.47389
-0.63586 4.21245 -2.09777
0.334869 2.15452 -0.214895
1.41891 5.68582 1.49807
0.775157 4.41536 1.69496
-0.686366 4.65607 -2.05457
0.211725 3.32621 2.19655
2.01064 5.00358 -3.17076
-2.04826 4.83175 -0.641274
-1.59567 5.14685 -1.24014
0.550541 3.77888 1.85121
-2.37838 7.54714 2.95276
-1.71413 4.15177 -1.07195
-3.03084 4.36407 2.07491
-2.58419 5.95403 2.63807
-3.28505 5.80746 1.80714
-1.43083 6.58456 -1.41001
2.94529 7.04799 -2.07713
3.46301 6.06223 -1.54187
-1.95768 5.22293 -0.809989
1.34446 5.29519 1.45102
1.43689 5.25129 1.37976
-3.3224 4.32868 1.82738
1.75252 6.59713 0.704444
1.16905 2.95783 1.33084
-0.518466 6.32589 2.74893
2.31312 5.50109 0.472588
1.76376 4.83137 0.668911
-0.844364 3.12479 -2.02909
-1.68103 2.94701 -1.20224
-1.94973 5.44974 -0.753555
-0.262091 5.09563 2.71451
0.672125 5.52209 2.13233
2.45932 6.48195 -2.58289
0.211564 2.94901 -2.88021
-2.0421 3.17052 -0.809484
1.15355 6.17979 1.32671
1.38263 6.70341 1.11755
1.71637 3.7173 -3.42403
3.1696 7.28798 -1.79933
-0.29605 3.28456 -2.48784
-3.58308 7.4284 1.53922
1.54232 5.3265 1.32847
3.47616 4.79982 -1.54953
0.199375 5.09068 -2.89724
2.71433 6.02919 -2.34038
-1.61214 6.84765 -1.15832
-1.94359 4.88824 -0.796671
2.98545 5.39182 -2.10874
1.12403 4.53775 1.36888
1.14509 3.87721 1.26649
-2.73897 2.99815 2.29872
-1.07898 3.18992 -1.79153
0.962519 6.87818 1.48941
-3.09844 7.23127 2.12235
3.40881 6.80619 -1.52154
2.69808 7.43462 -2.32859
-3.30248 3.49875 1.81589
-1.51612 7.8416 -1.20819
-3.52891 4.55695 1.51176
-1.37182 4.64728 3.38919
1.09852 6.30406 1.35902
2.28297 3.10351 -2.92597
-1.13888 4.42935 -1.6049
-2.84838 6.30721 2.3874
1.04422 5.11133 1.6077
-3.53161 4.91949 1.51233
1.54794 6.30454 0.854346
0.271057 5.45959 2.41735
1.31343 7.15341 1.14639
-1.34703 5.96195 -1.4782
2.99311 4.47683 -2.11007
-3.05313 7.98823 2.09246
-3.04433 4.20852 2.08489
0.937816 6.50266 -3.42465
0.841791 7.24413 1.66091
0.800162 3.32353 1.72645
-3.57807 6.01493 1.53224
1.26825 3.17061 1.28538
-0.706847 2.95866 -2.07406
-0.849579 2.84194 -1.94147
3.23711 4.23487 -1.84839
0.591719 4.96782 1.87152
0.89671 3.30556 1.64074
1.99956 5.19095 -3.14806
1.22296 7.64253 1.25926
2.67766 7.81963 -2.31079
-0.964839 3.73403 -1.82685
-3.52615 4.60383 1.51033
1.7692 2.93809 0.729358
0.84601 4.57591 1.59543
1.76103 6.18393 0.658159
-0.214352 3.81467 2.44324
2.46844 6.10449 -2.59429
-0.682578 8.28984 -1.80016
1.40082 3.09597 -3.55894
3.19577 5.44747 -1.81244
-2.10153 6.44547 3.21623
-0.529976 5.97255 2.73908
0.178304 8.04815 2.05735
1.96526 5.40376 0.851284
0.495738 4.53472 1.88057
3.4709 3.70211 -1.54636
-0.991611 5.05233 -1.79665
0.252033 3.77178 2.15035
1.69721 6.05936 -3.38248
-1.05948 8.02306 -1.608
-2.79943 3.91845 2.34865
-2.56447 3.96238 2.61981
-1.80916 6.53234 3.46474
-1.14052 5.34109 -1.64265
-0.221095 6.05205 2.52538
0.43212 7.19499 2.00943
-0.535371 5.30432 2.72876
-3.61564 3.12285 1.15203
2.77205 4.02669 -2.3928
-0.91426 3.06514 3.05013
-1.57968 5.8185 -1.26146
-1.20889 7.4898 -1.49955
0.946977 7.24534 -3.39957
-1.44038 7.33644 -1.3264
1.35062 3.33813 1.19272
0.558854 3.01827 -3.17497
-2.83513 6.95669 2.37801
0.232306 7.70361 2.20362
-1.70985 5.21489 -1.0259
1.46386 2.87854 0.988372
0.630288 6.12438 1.82253
-2.37407 7.48933 2.95564
1.20399 5.43407 1.71551
0.709527 3.7918 1.72644
3.50365 4.38437 -1.56181
-2.06663 3.3092 -0.793979
-0.0579804 4.81514 -2.60923
2.95063 4.80211 -2.08131
0.837668 6.34606 1.66004
-0.528646 4.77317 2.78866
0.931785 7.24587 1.57766
-1.78298 4.38368 3.40991
-2.06618 4.33903 3.15155
2.74106 3.64585 -2.36698
-3.56235 5.91023 1.53029
0.724022 7.56045 1.74169
-0.297875 5.76579 -2.46608
1.71643 4.81718 -3.41443
-3.73129 3.43513 1.1976
-0.533678 5.24838 2.76344
1.51594 3.69061 0.963105
2.28159 2.96794 -2.9198
-0.64149 5.38823 -2.08789
1.11294 4.38899 1.36595
0.968718 7.0561 -3.43614
3.26483 4.69357 -1.84434
1.20809 5.61673 1.68219
-1.76754 3.92066 3.41579
2.9931 4.52438 -2.11178
2.91638 7.91325 -2.05873
1.49663 3.21367 1.0132
0.431847 3.80606 1.97163
-0.285092 7.63156 -2.37402
0.686434 4.40038 1.75968
-3.33299 6.29255 1.82342
-3.53467 5.00947 1.50705
1.36884 3.17583 -3.55543
-3.5848 6.23018 1.53491
-1.44827 6.74225 -1.38022
-3.30771 4.75102 1.81921
0.203472 6.8607 2.17485
2.21827 6.83114 -2.83735
-0.0527196 6.4903 -2.64528
-1.81872 4.1044 -0.903196
-1.35161 3.55511 3.3412
-0.304105 3.40441 -2.45663
-1.78565 4.75889 -0.950648
2.23821 5.33802 -2.86793
2.71815 6.19639 -2.34742
3.20143 5.32292 -1.82275
3.25131 4.30487 -1.83838
1.15223 7.63322 1.34063
-2.10244 5.36648 -0.601157
-0.509798 4.1511 -2.18796
2.69445 7.51831 -2.32496
-1.79934 6.9214 3.44203
-1.06045 3.92925 -1.68924
-0.864714 5.55234 -1.85321
1.25747 5.24385 1.49208
-1.21015 6.14373 -1.60012
-0.676074 7.71784 -2.04578
0.723165 7.03881 1.7445
2.24627 3.89943 -2.87784
2.25974 3.71664 -2.89049
-0.275377 5.53058 -2.33055
0.813073 4.93991 1.67983
-1.5266 4.47954 -1.21232
-3.55374 5.31212 1.52321
-3.03376 3.36992 2.0794
-0.513735 3.48977 2.76662
-1.41237 5.12614 -1.40638
-0.89358 7.4293 3.01679
-1.53336 6.485 -1.24002
0.662072 5.39311 2.13038
0.395332 4.66365 1.98879
-0.526926 4.22821 2.77238
2.01141 3.68849 -3.17057
-1.80313 6.6679 -0.989653
-1.27145 5.55846 -1.46414
1.20541 7.90212 1.28074
-1.36365 7.16404 -1.41417
-3.58405 7.89548 1.53933
-0.727924 2.81538 -2.04499
0.981236 4.51366 1.48788
-0.651178 5.72934 -2.10072
0.0062791 5.12472 2.56363
1.3108 5.08397 1.29871
0.856009 6.63064 1.63944
3.19715 5.76456 -1.81896
1.00627 3.45462 -3.55042
-0.949858 8.43954 -1.63271
0.226383 4.74305 -2.92211
2.94837 4.99984 -2.08156
2.25339 3.83782 -2.88114
2.23531 5.38043 -2.86717
-1.26051 7.44475 -1.44362
-3.31151 5.44771 1.82052
-2.97658 2.85719 2.03785
-2.12665 5.52458 -0.612402
-1.30078 3.46189 -1.48978
-2.10921 4.92067 -0.577184
2.58959 4.43628 -2.72946
-2.06575 4.84568 3.15611
-0.901256 4.70054 3.05982
-0.960284 7.56857 -1.77791
3.47924 3.54583 -1.55231
0.23469 5.02174 2.32135
-0.906104 5.5404 3.0308
0.427594 3.9784 1.96601
-3.02466 3.26875 2.06671
-2.10139 6.33629 3.20863
-0.526847 3.68741 2.76514
-2.80877 4.66696 2.35748
0.958849 4.91443 1.52007
0.236762 6.23811 2.17905
-1.35215 6.78518 3.38032
-1.75808 3.28393 -1.08964
-2.83532 6.64599 2.37932
1.71261 5.22731 -3.40088
-3.07224 5.31314 2.10044
0.394065 3.1725 2.06904
1.99832 4.72758 -3.14802
-0.528243 6.64332 2.75885
-1.59913 2.94102 -1.26857
-3.09297 5.58905 2.11781
0.213743 3.03873 2.17996
1.46257 6.86466 1.02449
0.937189 6.94585 -3.43172
-1.69871 4.44406 -1.04964
1.97074 5.86915 -3.12071
-1.51897 3.63511 -1.26057
-1.56871 7.30804 -1.19328
1.44753 4.85477 0.992239
0.371321 7.86321 2.04443
-3.75809 5.23611 1.1976
-0.494162 6.08772 -2.27438
-0.22387 3.61682 2.46788
1.2569 8.08931 1.09183
-0.631251 5.62564 -2.08282
0.502419 8.19152 1.72664
-0.696935 7.38092 -2.05746
1.37646 6.28181 -3.58086
2.94588 7.11404 -2.07837
-1.42115 6.66677 -1.42914
0.714804 8.24235 1.53881
1.99432 4.68593 -3.14254
-1.47964 3.33476 -1.40768
1.41474 5.55551 1.49582
0.785475 6.01567 1.73095
2.58257 4.28258 -2.71911
-2.78332 3.73678 2.3355
-0.908005 3.18599 -1.98192
1.55517 5.46246 1.35401
2.69205 7.63252 -2.3236
-0.68828 7.95177 -2.02842
-1.31302 5.84584 -1.4997
-2.57012 4.23216 2.62428
2.93589 6.78751 -2.07182
1.31671 5.68302 1.59231
2.08211 4.9525 0.40076
-3.0896 5.53474 2.11703
2.27835 4.06984 -2.91055
-1.28607 5.18275 -1.52203
1.22331 3.24937 1.34065
-1.44007 6.43608 -1.36949
-3.52123 4.69812 1.51022
-1.49542 5.9009 -1.33634
-2.57202 4.18036 2.62629
-2.1678 6.48464 -0.595423
0.216623 4.96807 -2.90477
-3.528 4.41007 1.51177
-1.59855 4.96244 -1.1816
1.91376 5.21687 0.758966
0.687968 7.65571 1.77367
-0.552208 3.27966 2.7979
-2.08334 5.35378 3.18293
0.22942 5.08888 2.39131
-1.40159 4.74013 -1.34697
1.00625 3.25929 1.53712
1.36611 7.63989 -3.5268
1.04569 4.06414 1.39638
0.0113753 5.17325 2.56467
2.23098 5.87878 -2.85709
-1.78147 4.7692 3.41868
0.563342 6.99314 -3.14049
-1.75602 6.89386 -1.0274
-2.83975 7.63765 2.38301
1.01397 4.16505 1.43841
0.536908 6.85215 1.89545
-0.695952 3.85609 -2.05105
2.45719 6.35201 -2.57929
0.261038 3.11122 -2.94034
-3.09487 6.57277 2.11871
1.26557 6.05777 1.25372
-0.885285 6.03239 3.01361
0.896358 5.00047 1.6116
-0.676401 4.45843 -2.07929
-2.32216 3.83449 2.88499
1.77413 5.28526 0.980619
1.62228 6.88705 0.830329
3.273 4.62503 -1.85808
1.34607 3.17831 1.19023
0.547958 2.94655 -3.16041
-3.56099 5.40454 1.51868
-2.02512 5.91016 -0.795946
-0.814266 6.73012 -1.9436
0.572467 5.26471 -3.13773
-0.88861 8.34788 -1.62312
0.976858 5.20648 -3.49902
3.41954 7.28463 -1.5214
0.662155 5.29161 2.08978
-0.237328 5.367 2.69339
2.99629 3.93573 -2.11277
3.43784 6.49007 -1.52984
-3.34811 3.08089 1.43878
-0.977408 6.32429 -1.7696
-2.06236 4.70278 3.15361
-1.76778 5.72228 -1.00039
0.563099 3.98313 -3.18453
1.0181 5.69871 1.87427
1.4636 4.68429 0.937199
-1.03325 3.40839 -1.79866
-0.0552925 5.70951 -2.60449
-1.12832 7.55393 -1.61454
3.44541 5.51552 -1.53848
1.59411 5.02042 1.02562
3.40094 7.81777 -1.51076
0.554648 4.72818 -3.17113
-0.296543 7.00974 -2.38965
3.21833 4.98437 -1.83064
0.893756 3.20625 -3.46739
1.57305 6.83027 0.889027
0.20784 6.28304 2.20511
0.544603 6.99289 1.91083
0.55888 3.656 -3.16914
1.69644 4.06001 0.761112
-2.82393 8.18489 2.36997
0.577373 3.49299 1.90328
-1.5324 4.75961 -1.18001
2.94598 7.43144 -2.07936
-1.30594 8.18217 -1.23315
-0.886433 6.93831 3.0154
1.98407 6.0306 -3.13118
-3.09802 5.78916 2.12083
0.707155 4.06848 1.73467
0.415059 4.5045 1.93509
0.185883 7.95134 -2.69189
-0.85304 5.48324 2.98986
-1.97815 4.95312 -0.765991
-3.057 7.94268 2.09588
0.235567 4.79731 -2.92017
2.00675 5.11939 -3.16313
-1.00995 2.95124 -1.84157
1.80554 3.5927 0.660069
-0.813121 5.27211 -1.94214
-1.34204 3.12121 -1.5295
-0.878931 4.90883 -1.88817
-1.15169 5.41991 -1.60351
2.48275 4.97596 -2.60764
3.23918 3.8425 -1.84685
0.222893 6.2556 -2.87617
-1.21045 6.3034 -1.59843
-1.53778 4.23007 -1.22039
-0.780194 5.81532 -1.99939
1.13492 3.01522 1.37669
-1.95921 3.69375 -0.745952
-2.82763 5.85124 2.37094
2.51544 3.03238 -2.63971
0.454502 4.21351 1.88604
0.549016 6.69279 -3.11013
-1.24209 4.05483 -1.48888
3.04401 3.66082 -2.1411
2.45238 7.23898 -2.57601
-0.225399 6.16271 2.51932
-1.53686 6.80669 -1.2322
0.630923 3.26268 1.86509
0.602649 3.04978 1.87909
2.94341 6.57438 -2.07441
-0.482773 3.45089 -2.27666
1.00891 7.25156 1.48677
1.06602 6.54075 1.3923
0.989869 4.14617 -3.5481
2.26412 4.75174 -2.8982
2.04973 5.38144 0.742244
-2.61204 7.50064 2.65189
-1.61686 3.01211 -1.26982
0.223805 7.55497 -2.82821
1.7469 3.90946 0.693553
-2.56623 5.33847 2.61987
0.770889 4.5582 1.68017
-1.78688 7.79645 3.41659
-3.27263 3.39118 1.7992
3.47705 3.77094 -1.54753
0.0419634 6.64714 2.31543
1.21736 5.72932 1.67288
-2.30331 3.18148 2.85736
-3.29667 5.67428 1.81047
-0.0574747 4.62909 -2.61741
1.73918 6.73624 0.721247
-1.00337 7.66193 -1.69813
-2.59589 7.18167 2.66505
-1.67037 6.92517 -1.09391
2.24715 5.08457 -2.87327
1.42114 4.2287 -3.65871
-0.897009 4.64114 3.04645
1.16423 5.32352 1.72909
-0.235516 7.34685 2.54282
-3.32495 7.12154 1.82898
1.08532 3.22505 1.45467
2.70119 7.30468 -2.33261
-1.44718 5.0529 -1.36789
-2.97139 2.89738 2.03282
-0.272374 2.83546 2.54617
-0.470238 7.11574 -2.26626
-1.74406 5.99061 -1.09421
-1.65496 4.53202 -1.0881
-1.5019 5.57101 -1.21764
-3.77284 5.71759 1.19826
-2.08432 5.20138 3.18887
-1.32669 8.04596 -1.28255
1.36559 7.746 -3.51711
2.9424 7.5582 -2.07335
-0.473807 5.24981 -2.25873
-2.32487 5.56448 2.89483
0.219252 6.17555 2.16921
